# .PCD v0.7 - Point Cloud Data file format
VERSION 0.7
FIELDS x y z
SIZE 4 4 4
TYPE F F F
COUNT 1 1 1
WIDTH 1149
HEIGHT 1
VIEWPOINT 0 0 0 1 0 0 0
POINTS 1149
DATA ascii
-0.13849755 -0.073810071 0.94600004
-0.13640495 -0.073576003 0.94300002
-0.13475156 -0.073576003 0.94300002
-0.13380387 -0.073966123 0.94800007
-0.13228111 -0.074044146 0.94900006
-0.13047956 -0.073966123 0.94800007
-0.12922505 -0.074200191 0.95100003
-0.1274235 -0.074122168 0.95000005
-0.12589021 -0.074200191 0.95100003
-0.12422279 -0.074200191 0.95100003
-0.1224265 -0.074122168 0.95000005
-0.12076084 -0.074122168 0.95000005
-0.11871908 -0.073888093 0.94700003
-0.11681145 -0.073732048 0.94500005
-0.11515455 -0.073732048 0.94500005
-0.11349765 -0.073732048 0.94500005
-0.11184075 -0.073732048 0.94500005
-0.11030044 -0.073810071 0.94600004
-0.1086418 -0.073810071 0.94600004
-0.10687005 -0.073732048 0.94500005
-0.10532448 -0.073810071 0.94600004
-0.10366584 -0.073810071 0.94600004
-0.10254633 -0.074200191 0.95100003
-0.10077284 -0.074122168 0.95000005
-0.099002846 -0.074044146 0.94900006
-0.097031221 -0.073810071 0.94600004
-0.095372565 -0.073810071 0.94600004
-0.093713909 -0.073810071 0.94600004
-0.092055261 -0.073810071 0.94600004
-0.090396605 -0.073810071 0.94600004
-0.08873795 -0.073810071 0.94600004
-0.087171346 -0.073888093 0.94700003
-0.085510939 -0.073888093 0.94700003
-0.083673447 -0.073732048 0.94500005
-0.082276918 -0.073966123 0.94800007
-0.080614761 -0.073966123 0.94800007
-0.079119168 -0.074122168 0.95000005
-0.077535033 -0.074200191 0.95100003
-0.075867608 -0.074200191 0.95100003
-0.074200191 -0.074200191 0.95100003
-0.072532773 -0.074200191 0.95100003
-0.070865348 -0.074200191 0.95100003
-0.069270693 -0.074278213 0.95200002
-0.067530513 -0.074200191 0.95100003
-0.065863088 -0.074200191 0.95100003
-0.06419567 -0.074200191 0.95100003
-0.062593997 -0.074278213 0.95200002
-0.060988821 -0.074356236 0.95300007
-0.059442382 -0.074512281 0.95500004
-0.05776795 -0.074512281 0.95500004
-0.056093518 -0.074512281 0.95500004
-0.054419082 -0.074512281 0.95500004
-0.052744649 -0.074512281 0.95500004
-0.051016741 -0.074434258 0.95400006
-0.049344059 -0.074434258 0.95400006
-0.04762141 -0.074356236 0.95300007
-0.045854051 -0.074200191 0.95100003
-0.044186629 -0.074200191 0.95100003
-0.042519208 -0.074200191 0.95100003
-0.040894747 -0.074278213 0.95200002
-0.039225575 -0.074278213 0.95200002
-0.037556399 -0.074278213 0.95200002
-0.035887226 -0.074278213 0.95200002
-0.034289941 -0.074434258 0.95400006
-0.03261726 -0.074434258 0.95400006
-0.03094458 -0.074434258 0.95400006
-0.029271901 -0.074434258 0.95400006
-0.027599219 -0.074434258 0.95400006
-0.025899364 -0.074356236 0.95300007
-0.02425386 -0.074434258 0.95400006
-0.022604849 -0.074512281 0.95500004
-0.02104 -0.0749024 0.96000004
-0.019376963 -0.074980423 0.96100003
-0.017692009 -0.074980423 0.96100003
-0.016023714 -0.075058445 0.96200007
-0.014337007 -0.075058445 0.96200007
-0.0126503 -0.075058445 0.96200007
-0.010963594 -0.075058445 0.96200007
-0.0092672436 -0.074980423 0.96100003
-0.0075743999 -0.0749024 0.96000004
-0.0059034731 -0.075058445 0.96200007
-0.0042255335 -0.07521449 0.96400005
-0.0025353199 -0.07521449 0.96400005
-0.00084510667 -0.07521449 0.96400005
0.00084510667 -0.07521449 0.96400005
0.0025353199 -0.07521449 0.96400005
0.0042255335 -0.07521449 0.96400005
0.0059341565 -0.075448565 0.96700007
0.0076296302 -0.075448565 0.96700007
0.0093251029 -0.075448565 0.96700007
0.010986387 -0.07521449 0.96400005
0.012624 -0.0749024 0.96000004
0.0143072 -0.0749024 0.96000004
0.015990401 -0.0749024 0.96000004
0.0176736 -0.0749024 0.96000004
0.019397127 -0.075058445 0.96200007
0.021083834 -0.075058445 0.96200007
0.02274687 -0.074980423 0.96100003
0.0244064 -0.0749024 0.96000004
0.026089599 -0.0749024 0.96000004
0.027772799 -0.0749024 0.96000004
0.029455999 -0.0749024 0.96000004
0.031139201 -0.0749024 0.96000004
0.0328224 -0.0749024 0.96000004
0.034505598 -0.0749024 0.96000004
0.0361888 -0.0749024 0.96000004
0.037872002 -0.0749024 0.96000004
0.039678808 -0.075136468 0.96300006
0.041238401 -0.0749024 0.96000004
0.042921599 -0.0749024 0.96000004
0.044604801 -0.0749024 0.96000004
0.046287999 -0.0749024 0.96000004
0.0479712 -0.0749024 0.96000004
0.049654398 -0.0749024 0.96000004
0.0513376 -0.0749024 0.96000004
0.05296557 -0.074824378 0.95900005
0.054817967 -0.075058445 0.96200007
0.056680884 -0.075292513 0.96500003
-0.13805835 -0.071922608 0.94300002
-0.1368389 -0.072151423 0.94600004
-0.13489445 -0.071998879 0.94400007
-0.13380387 -0.072303958 0.94800007
-0.13214172 -0.072303958 0.94800007
-0.13047956 -0.072303958 0.94800007
-0.12922505 -0.072532773 0.95100003
-0.1274235 -0.072456501 0.95000005
-0.12575783 -0.072456501 0.95000005
-0.12409217 -0.072456501 0.95000005
-0.1224265 -0.072456501 0.95000005
-0.12076084 -0.072456501 0.95000005
-0.11871908 -0.072227687 0.94700003
-0.11693506 -0.072151423 0.94600004
-0.1152764 -0.072151423 0.94600004
-0.11349765 -0.072075151 0.94500005
-0.11184075 -0.072075151 0.94500005
-0.11018385 -0.072075151 0.94500005
-0.1086418 -0.072151423 0.94600004
-0.10687005 -0.072075151 0.94500005
-0.10532448 -0.072151423 0.94600004
-0.10366584 -0.072151423 0.94600004
-0.10254633 -0.072532773 0.95100003
-0.10077284 -0.072456501 0.95000005
-0.099002846 -0.07238023 0.94900006
-0.097031221 -0.072151423 0.94600004
-0.095372565 -0.072151423 0.94600004
-0.093713909 -0.072151423 0.94600004
-0.092055261 -0.072151423 0.94600004
-0.090396605 -0.072151423 0.94600004
-0.08873795 -0.072151423 0.94600004
-0.087079301 -0.072151423 0.94600004
-0.085420646 -0.072151423 0.94600004
-0.08376199 -0.072151423 0.94600004
-0.082276918 -0.072303958 0.94800007
-0.080784835 -0.072456501 0.95000005
-0.079035886 -0.07238023 0.94900006
-0.07737197 -0.07238023 0.94900006
-0.075787835 -0.072456501 0.95000005
-0.074122168 -0.072456501 0.95000005
-0.072685309 -0.072685309 0.95300007
-0.071014382 -0.072685309 0.95300007
-0.069270693 -0.072609037 0.95200002
-0.067530513 -0.072532773 0.95100003
-0.065863088 -0.072532773 0.95100003
-0.064263172 -0.072609037 0.95200002
-0.062725499 -0.07276158 0.95400006
-0.061052818 -0.07276158 0.95400006
-0.059442382 -0.072837852 0.95500004
-0.05776795 -0.072837852 0.95500004
-0.056093518 -0.072837852 0.95500004
-0.054419082 -0.072837852 0.95500004
-0.052744649 -0.072837852 0.95500004
-0.051016741 -0.07276158 0.95400006
-0.049344059 -0.07276158 0.95400006
-0.047671381 -0.07276158 0.95400006
-0.045950484 -0.072685309 0.95300007
-0.044233095 -0.072609037 0.95200002
-0.042519208 -0.072532773 0.95100003
-0.040808834 -0.072456501 0.95000005
-0.039143167 -0.072456501 0.95000005
-0.037556399 -0.072609037 0.95200002
-0.035887226 -0.072609037 0.95200002
-0.034182109 -0.072532773 0.95100003
-0.032514691 -0.072532773 0.95100003
-0.030814834 -0.072456501 0.95000005
-0.029241217 -0.072685309 0.95300007
-0.02757029 -0.072685309 0.95300007
-0.025899364 -0.072685309 0.95300007
-0.02425386 -0.07276158 0.95400006
-0.022604849 -0.072837852 0.95500004
-0.020996166 -0.073066659 0.95800006
-0.019376963 -0.073295467 0.96100003
-0.017692009 -0.073295467 0.96100003
-0.01604037 -0.07344801 0.96300006
-0.01435191 -0.07344801 0.96300006
-0.0126503 -0.073371738 0.96200007
-0.01097499 -0.07344801 0.96300006
-0.0092768865 -0.073371738 0.96200007
-0.00759807 -0.07344801 0.96300006
-0.0059096101 -0.07344801 0.96300006
-0.0042211502 -0.07344801 0.96300006
-0.0025353199 -0.073524281 0.96400005
-0.00084686 -0.073676817 0.96600002
0.00084686 -0.073676817 0.96600002
0.0025353199 -0.073524281 0.96400005
0.0042255335 -0.073524281 0.96400005
0.0059341565 -0.073753089 0.96700007
0.0076296302 -0.073753089 0.96700007
0.0093251029 -0.073753089 0.96700007
0.010986387 -0.073524281 0.96400005
0.012624 -0.073219202 0.96000004
0.014322103 -0.073295467 0.96100003
0.016007056 -0.073295467 0.96100003
0.017692009 -0.073295467 0.96100003
0.01941729 -0.07344801 0.96300006
0.02110575 -0.07344801 0.96300006
0.022770539 -0.073371738 0.96200007
0.0244064 -0.073219202 0.96000004
0.026089599 -0.073219202 0.96000004
0.027772799 -0.073219202 0.96000004
0.029455999 -0.073219202 0.96000004
0.031139201 -0.073219202 0.96000004
0.0328224 -0.073219202 0.96000004
0.034505598 -0.073219202 0.96000004
0.0361888 -0.073219202 0.96000004
0.037872002 -0.073219202 0.96000004
0.039678808 -0.07344801 0.96300006
0.04136727 -0.07344801 0.96300006
0.042921599 -0.073219202 0.96000004
0.044604801 -0.073219202 0.96000004
0.046287999 -0.073219202 0.96000004
0.0479712 -0.073219202 0.96000004
0.049654398 -0.073219202 0.96000004
0.0513376 -0.073219202 0.96000004
0.053020801 -0.073219202 0.96000004
0.054874949 -0.07344801 0.96300006
0.056680884 -0.073600553 0.96500003
-0.13776554 -0.070120186 0.94100004
-0.13654959 -0.070343733 0.94400007
-0.13532314 -0.07056728 0.94700003
-0.13408616 -0.070790835 0.95000005
-0.1324205 -0.070790835 0.95000005
-0.13089247 -0.070865348 0.95100003
-0.12908916 -0.070790835 0.95000005
-0.12728937 -0.070716314 0.94900006
-0.12562546 -0.070716314 0.94900006
-0.12396155 -0.070716314 0.94900006
-0.12229763 -0.070716314 0.94900006
-0.12101506 -0.070939869 0.95200002
-0.11859372 -0.070492767 0.94600004
-0.11693506 -0.070492767 0.94600004
-0.1152764 -0.070492767 0.94600004
-0.11349765 -0.070418246 0.94500005
-0.11184075 -0.070418246 0.94500005
-0.11041705 -0.07056728 0.94700003
-0.10875664 -0.07056728 0.94700003
-0.10720932 -0.070641801 0.94800007
-0.10543583 -0.07056728 0.94700003
-0.10377542 -0.07056728 0.94700003
-0.1024385 -0.070790835 0.95000005
-0.10056068 -0.070641801 0.94800007
-0.0987942 -0.07056728 0.94700003
-0.097031221 -0.070492767 0.94600004
-0.095372565 -0.070492767 0.94600004
-0.093713909 -0.070492767 0.94600004
-0.092055261 -0.070492767 0.94600004
-0.090396605 -0.070492767 0.94600004
-0.08873795 -0.070492767 0.94600004
-0.087079301 -0.070492767 0.94600004
-0.085420646 -0.070492767 0.94600004
-0.08376199 -0.070492767 0.94600004
-0.082276918 -0.070641801 0.94800007
-0.080869868 -0.070865348 0.95100003
-0.079035886 -0.070716314 0.94900006
-0.07737197 -0.070716314 0.94900006
-0.075708054 -0.070716314 0.94900006
-0.074044146 -0.070716314 0.94900006
-0.072609037 -0.070939869 0.95200002
-0.071014382 -0.071014382 0.95300007
-0.069343455 -0.071014382 0.95300007
-0.067672528 -0.071014382 0.95300007
-0.066001602 -0.071014382 0.95300007
-0.064398177 -0.071088903 0.95400006
-0.062725499 -0.071088903 0.95400006
-0.061116815 -0.071163416 0.95500004
-0.059442382 -0.071163416 0.95500004
-0.05776795 -0.071163416 0.95500004
-0.056093518 -0.071163416 0.95500004
-0.054419082 -0.071163416 0.95500004
-0.052744649 -0.071163416 0.95500004
-0.051070217 -0.071163416 0.95500004
-0.049344059 -0.071088903 0.95400006
-0.047671381 -0.071088903 0.95400006
-0.0459987 -0.071088903 0.95400006
-0.044279557 -0.071014382 0.95300007
-0.042519208 -0.070865348 0.95100003
-0.040808834 -0.070790835 0.95000005
-0.039143167 -0.070790835 0.95000005
-0.037556399 -0.070939869 0.95200002
-0.035887226 -0.070939869 0.95200002
-0.034146167 -0.070790835 0.95000005
-0.032480501 -0.070790835 0.95000005
-0.030814834 -0.070790835 0.95000005
-0.029271901 -0.071088903 0.95400006
-0.027599219 -0.071088903 0.95400006
-0.025899364 -0.071014382 0.95300007
-0.02425386 -0.071088903 0.95400006
-0.022604849 -0.071163416 0.95500004
-0.021018082 -0.071461484 0.95900005
-0.019336637 -0.071461484 0.95900005
-0.017710419 -0.071685031 0.96200007
-0.016057026 -0.071834065 0.96400005
-0.014381717 -0.071908586 0.96500003
-0.0126766 -0.071834065 0.96400005
-0.010986387 -0.071834065 0.96400005
-0.0092961732 -0.071834065 0.96400005
-0.0076059601 -0.071834065 0.96400005
-0.0059157466 -0.071834065 0.96400005
-0.0042255335 -0.071834065 0.96400005
-0.0025379499 -0.071908586 0.96500003
-0.00084686 -0.071983099 0.96600002
0.00084686 -0.071983099 0.96600002
0.00254058 -0.071983099 0.96600002
0.0042255335 -0.071834065 0.96400005
0.0059341565 -0.07205762 0.96700007
0.0076296302 -0.07205762 0.96700007
0.0093058161 -0.071908586 0.96500003
0.010986387 -0.071834065 0.96400005
0.0126503 -0.071685031 0.96200007
0.014337007 -0.071685031 0.96200007
0.016023714 -0.071685031 0.96200007
0.017710419 -0.071685031 0.96200007
0.019397127 -0.071685031 0.96200007
0.021083834 -0.071685031 0.96200007
0.022770539 -0.071685031 0.96200007
0.0244064 -0.071535997 0.96000004
0.026089599 -0.071535997 0.96000004
0.027772799 -0.071535997 0.96000004
0.029455999 -0.071535997 0.96000004
0.031139201 -0.071535997 0.96000004
0.0328224 -0.071535997 0.96000004
0.034505598 -0.071535997 0.96000004
0.0361888 -0.071535997 0.96000004
0.037832551 -0.071461484 0.95900005
0.039555199 -0.071535997 0.96000004
0.04136727 -0.071759552 0.96300006
0.042921599 -0.071535997 0.96000004
0.044604801 -0.071535997 0.96000004
0.046432648 -0.071759552 0.96300006
0.0479712 -0.071535997 0.96000004
0.049654398 -0.071535997 0.96000004
0.0513376 -0.071535997 0.96000004
0.053186491 -0.071759552 0.96300006
0.054817967 -0.071685031 0.96200007
0.056622148 -0.071834065 0.96400005
-0.13820474 -0.068688586 0.94400007
-0.13654959 -0.068688586 0.94400007
-0.13518025 -0.068834111 0.94600004
-0.13380387 -0.068979636 0.94800007
-0.13214172 -0.068979636 0.94800007
-0.13047956 -0.068979636 0.94800007
-0.12881739 -0.068979636 0.94800007
-0.12715524 -0.068979636 0.94800007
-0.1253607 -0.068906873 0.94700003
-0.12396155 -0.069052406 0.94900006
-0.12229763 -0.069052406 0.94900006
-0.12101506 -0.069270693 0.95200002
-0.11922053 -0.06919793 0.95100003
-0.11705867 -0.068906873 0.94700003
-0.1152764 -0.068834111 0.94600004
-0.11349765 -0.068761349 0.94500005
-0.11207745 -0.068906873 0.94700003
-0.11041705 -0.068906873 0.94700003
-0.10887148 -0.068979636 0.94800007
-0.10720932 -0.068979636 0.94800007
-0.10554716 -0.068979636 0.94800007
-0.103885 -0.068979636 0.94800007
-0.10222284 -0.068979636 0.94800007
-0.10056068 -0.068979636 0.94800007
-0.0987942 -0.068906873 0.94700003
-0.097031221 -0.068834111 0.94600004
-0.095372565 -0.068834111 0.94600004
-0.093713909 -0.068834111 0.94600004
-0.092055261 -0.068834111 0.94600004
-0.090396605 -0.068834111 0.94600004
-0.08873795 -0.068834111 0.94600004
-0.087079301 -0.068834111 0.94600004
-0.085420646 -0.068834111 0.94600004
-0.084027626 -0.069052406 0.94900006
-0.082276918 -0.068979636 0.94800007
-0.080869868 -0.06919793 0.95100003
-0.079035886 -0.069052406 0.94900006
-0.07737197 -0.069052406 0.94900006
-0.075867608 -0.06919793 0.95100003
-0.074200191 -0.06919793 0.95100003
-0.072532773 -0.06919793 0.95100003
-0.071014382 -0.069343455 0.95300007
-0.069343455 -0.069343455 0.95300007
-0.067672528 -0.069343455 0.95300007
-0.066001602 -0.069343455 0.95300007
-0.064465679 -0.06948898 0.95500004
-0.062791251 -0.06948898 0.95500004
-0.060988821 -0.069343455 0.95300007
-0.059317898 -0.069343455 0.95300007
-0.057646971 -0.069343455 0.95300007
-0.056034781 -0.069416218 0.95400006
-0.0543621 -0.069416218 0.95400006
-0.052634191 -0.069343455 0.95300007
-0.051070217 -0.06948898 0.95500004
-0.049344059 -0.069416218 0.95400006
-0.047671381 -0.069416218 0.95400006
-0.0459987 -0.069416218 0.95400006
-0.044279557 -0.069343455 0.95300007
-0.042519208 -0.06919793 0.95100003
-0.040808834 -0.069125168 0.95000005
-0.039143167 -0.069125168 0.95000005
-0.037595849 -0.069343455 0.95300007
-0.035924923 -0.069343455 0.95300007
-0.034289941 -0.069416218 0.95400006
-0.03261726 -0.069416218 0.95400006
-0.03094458 -0.069416218 0.95400006
-0.029271901 -0.069416218 0.95400006
-0.027599219 -0.069416218 0.95400006
-0.025899364 -0.069343455 0.95300007
-0.02425386 -0.069416218 0.95400006
-0.022604849 -0.06948898 0.95500004
-0.021018082 -0.069780037 0.95900005
-0.019336637 -0.069780037 0.95900005
-0.01774724 -0.070143856 0.96400005
-0.016090339 -0.070289381 0.96600002
-0.01439662 -0.070289381 0.96600002
-0.0126766 -0.070143856 0.96400005
-0.010986387 -0.070143856 0.96400005
-0.0092961732 -0.070143856 0.96400005
-0.0076059601 -0.070143856 0.96400005
-0.0059157466 -0.070143856 0.96400005
-0.0042255335 -0.070143856 0.96400005
-0.0025379499 -0.070216618 0.96500003
-0.00084598333 -0.070216618 0.96500003
0.00084686 -0.070289381 0.96600002
0.00254058 -0.070289381 0.96600002
0.0042255335 -0.070143856 0.96400005
0.0059341565 -0.070362143 0.96700007
0.0076296302 -0.070362143 0.96700007
0.0093058161 -0.070216618 0.96500003
0.010986387 -0.070143856 0.96400005
0.0126503 -0.069998324 0.96200007
0.01435191 -0.070071086 0.96300006
0.01604037 -0.070071086 0.96300006
0.01772883 -0.070071086 0.96300006
0.019397127 -0.069998324 0.96200007
0.021083834 -0.069998324 0.96200007
0.022770539 -0.069998324 0.96200007
0.0244064 -0.069852799 0.96000004
0.026089599 -0.069852799 0.96000004
0.027772799 -0.069852799 0.96000004
0.029455999 -0.069852799 0.96000004
0.031139201 -0.069852799 0.96000004
0.03278821 -0.069780037 0.95900005
0.034505598 -0.069852799 0.96000004
0.0361888 -0.069852799 0.96000004
0.037832551 -0.069780037 0.95900005
0.039555199 -0.069852799 0.96000004
0.04136727 -0.070071086 0.96300006
0.043100439 -0.070143856 0.96400005
0.044790652 -0.070143856 0.96400005
0.046480868 -0.070143856 0.96400005
0.048171081 -0.070143856 0.96400005
0.049809571 -0.070071086 0.96300006
0.051498029 -0.070071086 0.96300006
0.053186491 -0.070071086 0.96300006
0.054817967 -0.069998324 0.96200007
0.056622148 -0.070143856 0.96400005
-0.13820474 -0.06703344 0.94400007
-0.13669425 -0.067104451 0.94500005
-0.13518025 -0.067175463 0.94600004
-0.13366273 -0.067246467 0.94700003
-0.13214172 -0.067317478 0.94800007
-0.13047956 -0.067317478 0.94800007
-0.12868151 -0.067246467 0.94700003
-0.1270211 -0.067246467 0.94700003
-0.1253607 -0.067246467 0.94700003
-0.12396155 -0.06738849 0.94900006
-0.12229763 -0.06738849 0.94900006
-0.12076084 -0.067459501 0.95000005
-0.11896981 -0.06738849 0.94900006
-0.1174295 -0.067459501 0.95000005
-0.11552012 -0.067317478 0.94800007
-0.11373786 -0.067246467 0.94700003
-0.11207745 -0.067246467 0.94700003
-0.11041705 -0.067246467 0.94700003
-0.10887148 -0.067317478 0.94800007
-0.10720932 -0.067317478 0.94800007
-0.10554716 -0.067317478 0.94800007
-0.103885 -0.067317478 0.94800007
-0.10222284 -0.067317478 0.94800007
-0.10045461 -0.067246467 0.94700003
-0.0987942 -0.067246467 0.94700003
-0.097031221 -0.067175463 0.94600004
-0.095372565 -0.067175463 0.94600004
-0.093515784 -0.06703344 0.94400007
-0.091860637 -0.06703344 0.94400007
-0.090301052 -0.067104451 0.94500005
-0.08873795 -0.067175463 0.94600004
-0.087079301 -0.067175463 0.94600004
-0.085420646 -0.067175463 0.94600004
-0.084116168 -0.067459501 0.95000005
-0.08236371 -0.06738849 0.94900006
-0.080869868 -0.067530513 0.95100003
-0.079035886 -0.06738849 0.94900006
-0.07737197 -0.06738849 0.94900006
-0.075867608 -0.067530513 0.95100003
-0.074200191 -0.067530513 0.95100003
-0.072532773 -0.067530513 0.95100003
-0.070939869 -0.067601517 0.95200002
-0.06956175 -0.067885563 0.95600003
-0.067672528 -0.067672528 0.95300007
-0.066140115 -0.067814551 0.95500004
-0.064533189 -0.067885563 0.95600003
-0.062791251 -0.067814551 0.95500004
-0.060988821 -0.067672528 0.95300007
-0.05938014 -0.06774354 0.95400006
-0.057707459 -0.06774354 0.95400006
-0.056034781 -0.06774354 0.95400006
-0.0543621 -0.06774354 0.95400006
-0.052689418 -0.06774354 0.95400006
-0.051070217 -0.067814551 0.95500004
-0.049344059 -0.06774354 0.95400006
-0.047671381 -0.06774354 0.95400006
-0.045950484 -0.067672528 0.95300007
-0.044279557 -0.067672528 0.95300007
-0.042519208 -0.067530513 0.95100003
-0.040808834 -0.067459501 0.95000005
-0.039184369 -0.067530513 0.95100003
-0.037556399 -0.067601517 0.95200002
-0.035887226 -0.067601517 0.95200002
-0.034289941 -0.06774354 0.95400006
-0.03261726 -0.06774354 0.95400006
-0.03094458 -0.06774354 0.95400006
-0.029271901 -0.06774354 0.95400006
-0.02757029 -0.067672528 0.95300007
-0.02592654 -0.06774354 0.95400006
-0.024279283 -0.067814551 0.95500004
-0.02265219 -0.067956567 0.95700002
-0.02104 -0.068169601 0.96000004
-0.019376963 -0.068240613 0.96100003
-0.01772883 -0.068382628 0.96300006
-0.016073683 -0.068524651 0.96500003
-0.014381717 -0.068524651 0.96500003
-0.0126766 -0.06845364 0.96400005
-0.01097499 -0.068382628 0.96300006
-0.0092768865 -0.068311617 0.96200007
-0.0075901798 -0.068311617 0.96200007
-0.0059157466 -0.06845364 0.96400005
-0.0042211502 -0.068382628 0.96300006
-0.00253006 -0.068311617 0.96200007
-0.00084510667 -0.06845364 0.96400005
0.00084598333 -0.068524651 0.96500003
0.0025326901 -0.068382628 0.96300006
0.0042386833 -0.068666667 0.96700007
0.0059341565 -0.068666667 0.96700007
0.0075822901 -0.068240613 0.96100003
0.0092672436 -0.068240613 0.96100003
0.010952197 -0.068240613 0.96100003
0.01266345 -0.068382628 0.96300006
0.01435191 -0.068382628 0.96300006
0.01604037 -0.068382628 0.96300006
0.01772883 -0.068382628 0.96300006
0.019397127 -0.068311617 0.96200007
0.021083834 -0.068311617 0.96200007
0.022770539 -0.068311617 0.96200007
0.0244064 -0.068169601 0.96000004
0.026089599 -0.068169601 0.96000004
0.027772799 -0.068169601 0.96000004
0.029425316 -0.06809859 0.95900005
0.031074326 -0.068027578 0.95800006
0.032754019 -0.068027578 0.95800006
0.034433711 -0.068027578 0.95800006
0.0361888 -0.068169601 0.96000004
0.037872002 -0.068169601 0.96000004
0.039555199 -0.068169601 0.96000004
0.04136727 -0.068382628 0.96300006
0.043100439 -0.06845364 0.96400005
0.044790652 -0.06845364 0.96400005
0.046480868 -0.06845364 0.96400005
0.048171081 -0.06845364 0.96400005
0.049809571 -0.068382628 0.96300006
0.051498029 -0.068382628 0.96300006
0.053186491 -0.068382628 0.96300006
0.054874949 -0.068382628 0.96300006
0.056680884 -0.068524651 0.96500003
-0.13820474 -0.065378293 0.94400007
-0.13669425 -0.065447547 0.94500005
-0.13518025 -0.065516807 0.94600004
-0.13366273 -0.06558606 0.94700003
-0.13214172 -0.065655321 0.94800007
-0.13047956 -0.065655321 0.94800007
-0.12868151 -0.06558606 0.94700003
-0.1270211 -0.06558606 0.94700003
-0.1253607 -0.06558606 0.94700003
-0.1237003 -0.06558606 0.94700003
-0.12203989 -0.06558606 0.94700003
-0.12037949 -0.06558606 0.94700003
-0.11884444 -0.065655321 0.94800007
-0.11718228 -0.065655321 0.94800007
-0.11539827 -0.06558606 0.94700003
-0.11373786 -0.06558606 0.94700003
-0.11207745 -0.06558606 0.94700003
-0.11041705 -0.06558606 0.94700003
-0.10898633 -0.065724574 0.94900006
-0.10732241 -0.065724574 0.94900006
-0.10554716 -0.065655321 0.94800007
-0.103885 -0.065655321 0.94800007
-0.10222284 -0.065655321 0.94800007
-0.10034852 -0.065516807 0.94600004
-0.098689869 -0.065516807 0.94600004
-0.097031221 -0.065516807 0.94600004
-0.095372565 -0.065516807 0.94600004
-0.093515784 -0.065378293 0.94400007
-0.091860637 -0.065378293 0.94400007
-0.090301052 -0.065447547 0.94500005
-0.06948898 -0.066140115 0.95500004
-0.06774354 -0.066070862 0.95400006
-0.066209376 -0.066209376 0.95600003
-0.064600691 -0.066278629 0.95700002
-0.062857002 -0.066209376 0.95600003
-0.051284123 -0.066417143 0.95900005
-0.049550954 -0.06634789 0.95800006
-0.046095133 -0.066209376 0.95600003
-0.044418946 -0.066209376 0.95600003
-0.042519208 -0.065863088 0.95100003
-0.040894747 -0.065932348 0.95200002
-0.039266776 -0.066001602 0.95300007
-0.037516952 -0.065863088 0.95100003
-0.035962619 -0.066070862 0.95400006
-0.034289941 -0.066070862 0.95400006
-0.03261726 -0.066070862 0.95400006
-0.03094458 -0.066070862 0.95400006
-0.029271901 -0.066070862 0.95400006
-0.027599219 -0.066070862 0.95400006
-0.02592654 -0.066070862 0.95400006
-0.024279283 -0.066140115 0.95500004
-0.02265219 -0.066278629 0.95700002
-0.02104 -0.066486396 0.96000004
-0.019397127 -0.06662491 0.96200007
-0.01772883 -0.06669417 0.96300006
-0.016057026 -0.066763423 0.96400005
-0.014381717 -0.066832684 0.96500003
-0.01268975 -0.066832684 0.96500003
-0.010963594 -0.06662491 0.96200007
-0.0092672436 -0.066555656 0.96100003
-0.0075822901 -0.066555656 0.96100003
-0.0058973366 -0.066555656 0.96100003
-0.0042123832 -0.066555656 0.96100003
-0.00253006 -0.06662491 0.96200007
-0.00084335334 -0.06662491 0.96200007
0.00084423 -0.06669417 0.96300006
0.0025353199 -0.066763423 0.96400005
0.0042255335 -0.066763423 0.96400005
0.0059157466 -0.066763423 0.96400005
0.0075822901 -0.066555656 0.96100003
0.0092672436 -0.066555656 0.96100003
0.010952197 -0.066555656 0.96100003
0.0126766 -0.066763423 0.96400005
0.014366813 -0.066763423 0.96400005
0.016057026 -0.066763423 0.96400005
0.01774724 -0.066763423 0.96400005
0.019397127 -0.06662491 0.96200007
0.021083834 -0.06662491 0.96200007
0.022770539 -0.06662491 0.96200007
0.024457246 -0.06662491 0.96200007
0.026143953 -0.06662491 0.96200007
0.02783066 -0.06662491 0.96200007
0.029486682 -0.066555656 0.96100003
0.031139201 -0.066486396 0.96000004
0.0328224 -0.066486396 0.96000004
0.034505598 -0.066486396 0.96000004
0.0361888 -0.066486396 0.96000004
0.037872002 -0.066486396 0.96000004
0.039555199 -0.066486396 0.96000004
0.041238401 -0.066486396 0.96000004
0.04296631 -0.066555656 0.96100003
0.044651262 -0.066555656 0.96100003
0.046336215 -0.066555656 0.96100003
0.048021171 -0.066555656 0.96100003
0.049654398 -0.066486396 0.96000004
0.0513376 -0.066486396 0.96000004
0.053020801 -0.066486396 0.96000004
0.054703999 -0.066486396 0.96000004
0.056504674 -0.06662491 0.96200007
-0.1362603 -0.063588142 0.94200003
-0.13475156 -0.063655645 0.94300002
-0.1332393 -0.063723147 0.94400007
-0.13214172 -0.063993156 0.94800007
-0.13047956 -0.063993156 0.94800007
-0.12868151 -0.063925654 0.94700003
-0.12715524 -0.063993156 0.94800007
-0.12549308 -0.063993156 0.94800007
-0.1237003 -0.063925654 0.94700003
-0.12216876 -0.063993156 0.94800007
-0.1205066 -0.063993156 0.94800007
-0.11884444 -0.063993156 0.94800007
-0.11718228 -0.063993156 0.94800007
-0.11539827 -0.063925654 0.94700003
-0.11385796 -0.063993156 0.94800007
-0.11231415 -0.064060666 0.94900006
-0.11100002 -0.064263172 0.95200002
-0.10898633 -0.064060666 0.94900006
-0.1074355 -0.064128168 0.95000005
-0.10576984 -0.064128168 0.95000005
-0.034361828 -0.064533189 0.95600003
-0.03265145 -0.064465679 0.95500004
-0.014426427 -0.065343224 0.96800005
-0.01268975 -0.065140717 0.96500003
-0.010963594 -0.06493821 0.96200007
-0.0092672436 -0.0648707 0.96100003
-0.0075822901 -0.0648707 0.96100003
-0.0058973366 -0.0648707 0.96100003
-0.0042123832 -0.0648707 0.96100003
-0.00253006 -0.06493821 0.96200007
-0.00084335334 -0.06493821 0.96200007
0.00084423 -0.065005712 0.96300006
0.0025326901 -0.065005712 0.96300006
0.0042167665 -0.06493821 0.96200007
0.0059034731 -0.06493821 0.96200007
0.0075822901 -0.0648707 0.96100003
0.0092672436 -0.0648707 0.96100003
0.010952197 -0.0648707 0.96100003
0.0126766 -0.065073214 0.96400005
0.014366813 -0.065073214 0.96400005
0.016057026 -0.065073214 0.96400005
0.01774724 -0.065073214 0.96400005
0.019397127 -0.06493821 0.96200007
0.021083834 -0.06493821 0.96200007
0.022770539 -0.06493821 0.96200007
0.024457246 -0.06493821 0.96200007
0.026143953 -0.06493821 0.96200007
0.02783066 -0.06493821 0.96200007
0.029486682 -0.0648707 0.96100003
0.031139201 -0.064803198 0.96000004
0.032754019 -0.064668193 0.95800006
0.034433711 -0.064668193 0.95800006
0.036113407 -0.064668193 0.95800006
0.0377931 -0.064668193 0.95800006
0.039472792 -0.064668193 0.95800006
0.041152485 -0.064668193 0.95800006
0.042876888 -0.064735696 0.95900005
0.044558335 -0.064735696 0.95900005
0.046336215 -0.0648707 0.96100003
0.048021171 -0.0648707 0.96100003
0.049654398 -0.064803198 0.96000004
0.0513376 -0.064803198 0.96000004
0.053020801 -0.064803198 0.96000004
0.054703999 -0.064803198 0.96000004
0.056563411 -0.065005712 0.96300006
-0.13640495 -0.062002249 0.94300002
-0.13475156 -0.062002249 0.94300002
-0.1332393 -0.062068 0.94400007
-0.13214172 -0.062330998 0.94800007
-0.12881739 -0.062330998 0.94800007
-0.12715524 -0.062330998 0.94800007
-0.1253607 -0.062265251 0.94700003
-0.12383092 -0.062330998 0.94800007
0.0075743999 -0.06312 0.96000004
0.0092575997 -0.06312 0.96000004
0.010940799 -0.06312 0.96000004
0.02780173 -0.063185751 0.96100003
0.029486682 -0.063185751 0.96100003
0.031106763 -0.063054249 0.95900005
0.032719828 -0.062922746 0.95700002
0.034433711 -0.062988497 0.95800006
0.036113407 -0.062988497 0.95800006
0.0377931 -0.062988497 0.95800006
0.039472792 -0.062988497 0.95800006
0.041152485 -0.062988497 0.95800006
0.042876888 -0.063054249 0.95900005
0.044558335 -0.063054249 0.95900005
0.0479712 -0.06312 0.96000004
0.049654398 -0.06312 0.96000004
0.0513376 -0.06312 0.96000004
0.053020801 -0.06312 0.96000004
0.032754019 -0.061308805 0.95800006
0.034433711 -0.061308805 0.95800006
0.036113407 -0.061308805 0.95800006
0.0377931 -0.061308805 0.95800006
0.039472792 -0.061308805 0.95800006
0.041195445 -0.061372802 0.95900005
0.042876888 -0.061372802 0.95900005
0.036151104 -0.059691355 0.95900005
0.037832551 -0.059691355 0.95900005
0.052910339 -0.0125977 0.95800006
0.054590032 -0.0125977 0.95800006
0.056152254 -0.0125714 0.95600003
0.052799881 -0.010895213 0.95600003
0.054476067 -0.010895213 0.95600003
0.056152254 -0.010895213 0.95600003
0.049550954 -0.009238313 0.95800006
0.05117717 -0.00922867 0.95700002
0.052744649 -0.0092093833 0.95500004
0.054419082 -0.0092093833 0.95500004
0.056152254 -0.0092190262 0.95600003
0.048420928 -0.00764541 0.96900004
0.049550954 -0.0075586201 0.95800006
0.05117717 -0.0075507299 0.95700002
0.052855108 -0.0075507299 0.95700002
0.054533049 -0.0075507299 0.95700002
0.056093518 -0.00753495 0.95500004
0.048021171 -0.0058973366 0.96100003
0.049550954 -0.0058789267 0.95800006
0.051230647 -0.0058789267 0.95800006
0.052855108 -0.0058727898 0.95700002
0.054419082 -0.0058605168 0.95500004
0.056093518 -0.0058605168 0.95500004
0.048021171 -0.0042123832 0.96100003
0.049550954 -0.0041992334 0.95800006
0.051230647 -0.0041992334 0.95800006
0.052744649 -0.0041860831 0.95500004
0.054419082 -0.0041860831 0.95500004
0.056093518 -0.0041860831 0.95500004
0.049447507 -0.0025142799 0.95600003
0.051123694 -0.0025142799 0.95600003
0.052744649 -0.0025116501 0.95500004
0.054419082 -0.0025116501 0.95500004
0.056093518 -0.0025116501 0.95500004
0.04777132 -0.00083809334 0.95600003
0.049447507 -0.00083809334 0.95600003
0.051123694 -0.00083809334 0.95600003
0.052744649 -0.00083721668 0.95500004
0.054419082 -0.00083721668 0.95500004
0.056093518 -0.00083721668 0.95500004
0.04777132 0.00083809334 0.95600003
0.049395785 0.00083721668 0.95500004
0.051070217 0.00083721668 0.95500004
0.052744649 0.00083721668 0.95500004
0.054419082 0.00083721668 0.95500004
0.056210991 0.00083897001 0.95700002
0.046095133 0.0025142799 0.95600003
0.04777132 0.0025142799 0.95600003
0.049395785 0.0025116501 0.95500004
0.051070217 0.0025116501 0.95500004
0.052744649 0.0025116501 0.95500004
0.054419082 0.0025116501 0.95500004
0.056269728 0.00251954 0.95800006
0.044233095 0.0041729333 0.95200002
0.045805834 0.0041641667 0.95000005
0.047571439 0.0041729333 0.95200002
0.049240611 0.0041729333 0.95200002
0.051123694 0.0041904668 0.95600003
0.052744649 0.0041860831 0.95500004
0.054419082 0.0041860831 0.95500004
0.056210991 0.0041948501 0.95700002
0.044233095 0.0058421064 0.95200002
0.045757618 0.0058236965 0.94900006
0.047571439 0.0058421064 0.95200002
0.049240611 0.0058421064 0.95200002
0.051123694 0.0058666533 0.95600003
0.052744649 0.0058605168 0.95500004
0.054419082 0.0058605168 0.95500004
0.056093518 0.0058605168 0.95500004
0.045902267 0.00751128 0.95200002
0.047571439 0.00751128 0.95200002
0.049240611 0.00751128 0.95200002
0.051070217 0.00753495 0.95500004
0.052744649 0.00753495 0.95500004
0.054419082 0.00753495 0.95500004
0.056152254 0.0075428397 0.95600003
0.046046916 0.0092093833 0.95500004
0.047721349 0.0092093833 0.95500004
0.049395785 0.0092093833 0.95500004
0.051070217 0.0092093833 0.95500004
0.052744649 0.0092093833 0.95500004
0.054476067 0.0092190262 0.95600003
0.056152254 0.0092190262 0.95600003
0.046046916 0.010883817 0.95500004
0.047721349 0.010883817 0.95500004
0.049395785 0.010883817 0.95500004
0.051070217 0.010883817 0.95500004
0.052744649 0.010883817 0.95500004
0.054533049 0.01090661 0.95700002
0.056210991 0.01090661 0.95700002
0.046046916 0.01255825 0.95500004
0.047721349 0.01255825 0.95500004
0.049395785 0.01255825 0.95500004
0.051070217 0.01255825 0.95500004
0.052744649 0.01255825 0.95500004
0.054419082 0.01255825 0.95500004
0.056152254 0.0125714 0.95600003
0.046095133 0.014247587 0.95600003
0.047821291 0.01426249 0.95700002
0.049499229 0.01426249 0.95700002
0.05117717 0.01426249 0.95700002
0.052855108 0.01426249 0.95700002
0.054476067 0.014247587 0.95600003
0.056210991 0.01426249 0.95700002
0.046143349 0.01594043 0.95700002
0.047821291 0.01594043 0.95700002
0.049550954 0.015957087 0.95800006
0.05117717 0.01594043 0.95700002
0.052855108 0.01594043 0.95700002
0.054533049 0.01594043 0.95700002
0.056210991 0.01594043 0.95700002
0.046143349 0.017618369 0.95700002
0.047871258 0.01763678 0.95800006
0.049550954 0.01763678 0.95800006
0.051230647 0.01763678 0.95800006
0.052910339 0.01763678 0.95800006
0.054476067 0.017599961 0.95600003
0.056152254 0.017599961 0.95600003
0.046191566 0.019316474 0.95800006
0.047871258 0.019316474 0.95800006
0.049550954 0.019316474 0.95800006
0.051230647 0.019316474 0.95800006
0.052910339 0.019316474 0.95800006
0.054476067 0.019276146 0.95600003
0.055976044 0.019215656 0.95300007
0.046191566 0.020996166 0.95800006
0.047871258 0.020996166 0.95800006
0.049395785 0.020930417 0.95500004
0.051070217 0.020930417 0.95500004
0.052744649 0.020930417 0.95500004
0.054305118 0.020886583 0.95300007
0.055976044 0.020886583 0.95300007
0.046191566 0.022675861 0.95800006
0.047671381 0.022581181 0.95400006
0.049395785 0.022604849 0.95500004
0.051070217 0.022604849 0.95500004
0.052744649 0.022604849 0.95500004
0.054305118 0.02255751 0.95300007
0.055976044 0.02255751 0.95300007
0.042832181 0.024355553 0.95800006
0.044511873 0.024355553 0.95800006
0.046191566 0.024355553 0.95800006
0.047721349 0.024279283 0.95500004
0.049395785 0.024279283 0.95500004
0.051070217 0.024279283 0.95500004
0.052689418 0.02425386 0.95400006
0.054305118 0.024228437 0.95300007
0.055917308 0.024203014 0.95200002
0.042832181 0.026035247 0.95800006
0.044511873 0.026035247 0.95800006
0.046191566 0.026035247 0.95800006
0.047821291 0.02600807 0.95700002
0.049395785 0.025953716 0.95500004
0.050963264 0.025899364 0.95300007
0.052634191 0.025899364 0.95300007
0.054305118 0.025899364 0.95300007
0.055976044 0.025899364 0.95300007
0.042832181 0.02771494 0.95800006
0.044465411 0.027686009 0.95700002
0.046143349 0.027686009 0.95700002
0.047821291 0.027686009 0.95700002
0.049292337 0.02757029 0.95300007
0.050963264 0.02757029 0.95300007
0.052634191 0.02757029 0.95300007
0.054305118 0.02757029 0.95300007
0.055976044 0.02757029 0.95300007
0.042742759 0.029333267 0.95600003
0.044418946 0.029333267 0.95600003
0.046046916 0.029302584 0.95500004
0.047721349 0.029302584 0.95500004
0.049292337 0.029241217 0.95300007
0.050963264 0.029241217 0.95300007
0.052634191 0.029241217 0.95300007
0.054305118 0.029241217 0.95300007
0.055976044 0.029241217 0.95300007
0.04278747 0.03104189 0.95700002
0.044326019 0.03094458 0.95400006
0.045902267 0.030879706 0.95200002
0.047571439 0.030879706 0.95200002
0.049292337 0.030912142 0.95300007
0.050963264 0.030912142 0.95300007
0.052634191 0.030912142 0.95300007
0.054305118 0.030912142 0.95300007
0.055976044 0.030912142 0.95300007
0.044372484 0.03265145 0.95500004
0.045902267 0.032548878 0.95200002
0.047571439 0.032548878 0.95200002
0.049292337 0.032583069 0.95300007
0.050963264 0.032583069 0.95300007
0.052689418 0.03261726 0.95400006
0.054419082 0.03265145 0.95500004
0.056093518 0.03265145 0.95500004
0.044186629 0.034182109 0.95100003
0.045757618 0.034110222 0.94900006
0.04762141 0.034253996 0.95300007
0.049292337 0.034253996 0.95300007
0.050963264 0.034253996 0.95300007
0.052744649 0.034325883 0.95500004
0.054419082 0.034325883 0.95500004
0.056093518 0.034325883 0.95500004
0.042519208 0.03584953 0.95100003
0.044186629 0.03584953 0.95100003
0.045661181 0.035698742 0.94700003
0.047371559 0.035736442 0.94800007
0.04918889 0.03584953 0.95100003
0.051016741 0.035962619 0.95400006
0.052744649 0.036000315 0.95500004
0.054419082 0.036000315 0.95500004
0.056093518 0.036000315 0.95500004
0.042519208 0.037516952 0.95100003
0.044093702 0.03743805 0.94900006
0.045661181 0.037359148 0.94700003
0.047371559 0.037398599 0.94800007
0.049137168 0.037477501 0.95000005
0.050856311 0.037516952 0.95100003
0.05257896 0.037556399 0.95200002
0.054248132 0.037556399 0.95200002
0.055917308 0.037556399 0.95200002
0.04242979 0.039101962 0.94900006
0.04404724 0.03906076 0.94800007
0.045709401 0.03906076 0.94800007
0.047371559 0.03906076 0.94800007
0.049085442 0.039101962 0.94900006
0.050802834 0.039143167 0.95000005
0.052468501 0.039143167 0.95000005
0.054134168 0.039143167 0.95000005
0.055917308 0.039225575 0.95200002
0.040637005 0.040637005 0.94600004
0.042295661 0.040637005 0.94600004
0.043954313 0.040637005 0.94600004
0.045612965 0.040637005 0.94600004
0.04727162 0.040637005 0.94600004
0.048930272 0.040637005 0.94600004
0.050749358 0.040765878 0.94900006
0.05241327 0.040765878 0.94900006
0.054077182 0.040765878 0.94900006
0.055741098 0.040765878 0.94900006
0.040637005 0.042295661 0.94600004
0.042295661 0.042295661 0.94600004
0.043954313 0.042295661 0.94600004
0.045612965 0.042295661 0.94600004
0.04727162 0.042295661 0.94600004
0.048930272 0.042295661 0.94600004
0.050588928 0.042295661 0.94600004
0.05224758 0.042295661 0.94600004
0.053906232 0.042295661 0.94600004
0.055564888 0.042295661 0.94600004
0.040637005 0.043954313 0.94600004
0.042295661 0.043954313 0.94600004
0.044000775 0.044000775 0.94700003
0.045661181 0.044000775 0.94700003
0.04727162 0.043954313 0.94600004
0.048930272 0.043954313 0.94600004
0.050588928 0.043954313 0.94600004
0.05224758 0.043954313 0.94600004
0.053792268 0.043861385 0.94400007
0.055447415 0.043861385 0.94400007
0.038937151 0.045564748 0.94500005
0.040679961 0.045661181 0.94700003
0.042340368 0.045661181 0.94700003
0.043954313 0.045612965 0.94600004
0.045661181 0.045661181 0.94700003
0.04727162 0.045612965 0.94600004
0.048981998 0.045661181 0.94700003
0.050588928 0.045612965 0.94600004
0.052137118 0.045516532 0.94400007
0.053792268 0.045516532 0.94400007
0.055447415 0.045516532 0.94400007
0.038937151 0.047221649 0.94500005
0.040637005 0.04727162 0.94600004
0.042295661 0.04727162 0.94600004
0.043907851 0.047221649 0.94500005
0.045564748 0.047221649 0.94500005
0.047221649 0.047221649 0.94500005
0.048930272 0.04727162 0.94600004
0.050535448 0.047221649 0.94500005
0.052137118 0.047171678 0.94400007
0.053792268 0.047171678 0.94400007
0.055447415 0.047171678 0.94400007
0.039143167 0.049137168 0.95000005
0.04085179 0.04918889 0.95100003
0.042519208 0.04918889 0.95100003
0.044093702 0.049085442 0.94900006
0.045612965 0.048930272 0.94600004
0.047221649 0.048878551 0.94500005
0.048930272 0.048930272 0.94600004
0.050535448 0.048878551 0.94500005
0.052137118 0.048826825 0.94400007
0.05384925 0.048878551 0.94500005
0.055447415 0.048826825 0.94400007
0.039184369 0.050856311 0.95100003
0.04085179 0.050856311 0.95100003
0.042519208 0.050856311 0.95100003
0.044140168 0.050802834 0.95000005
0.045709401 0.050695881 0.94800007
0.047221649 0.050535448 0.94500005
0.048930272 0.050588928 0.94600004
0.050535448 0.050535448 0.94500005
0.052192349 0.050535448 0.94500005
0.05384925 0.050535448 0.94500005
0.055447415 0.050481971 0.94400007
0.04085179 0.052523728 0.95100003
0.042519208 0.052523728 0.95100003
0.044140168 0.052468501 0.95000005
0.045757618 0.05241327 0.94900006
0.047221649 0.052192349 0.94500005
0.048930272 0.05224758 0.94600004
0.050588928 0.05224758 0.94600004
0.052192349 0.052192349 0.94500005
0.05384925 0.052192349 0.94500005
0.055447415 0.052137118 0.94400007
0.040937703 0.054305118 0.95300007
0.042519208 0.05419115 0.95100003
0.044093702 0.054077182 0.94900006
0.045757618 0.054077182 0.94900006
0.047221649 0.05384925 0.94500005
0.048878551 0.05384925 0.94500005
0.050535448 0.05384925 0.94500005
0.052192349 0.05384925 0.94500005
0.05384925 0.05384925 0.94500005
0.055447415 0.053792268 0.94400007
0.041195445 0.056328464 0.95900005
0.04260863 0.055976044 0.95300007
0.044093702 0.055741098 0.94900006
0.045709401 0.055682361 0.94800007
0.047371559 0.055682361 0.94800007
0.04903372 0.055682361 0.94800007
0.050535448 0.055506151 0.94500005
0.052192349 0.055506151 0.94500005
0.0540202 0.055682361 0.94800007
0.055623624 0.055623624 0.94700003
0.042876888 0.058009911 0.95900005
0.044372484 0.05776795 0.95500004
0.045805834 0.057465501 0.95000005
0.047471501 0.057465501 0.95000005
0.04903372 0.057344519 0.94800007
0.050535448 0.057163049 0.94500005
0.052192349 0.057163049 0.94500005
0.0540202 0.057344519 0.94800007
0.055623624 0.057284031 0.94700003
0.042921599 0.059753601 0.96000004
0.044326019 0.05938014 0.95400006
0.045950484 0.059317898 0.95300007
0.04762141 0.059317898 0.95300007
0.04903372 0.05900668 0.94800007
0.050535448 0.05881995 0.94500005
0.052192349 0.05881995 0.94500005
0.0540202 0.05900668 0.94800007
0.055682361 0.05900668 0.94800007
0.04762141 0.060988821 0.95300007
0.049085442 0.060732838 0.94900006
0.050749358 0.060732838 0.94900006
0.052358039 0.060668841 0.94800007
0.0540202 0.060668841 0.94800007
0.055799834 0.060796835 0.95000005
0.049344059 0.062725499 0.95400006
0.050749358 0.06239675 0.94900006
0.052358039 0.062330998 0.94800007
0.054305118 0.062659748 0.95300007
0.055976044 0.062659748 0.95300007
