# .PCD v0.7 - Point Cloud Data file format
VERSION 0.7
FIELDS x y z
SIZE 4 4 4
TYPE F F F
COUNT 1 1 1
WIDTH 1409
HEIGHT 1
VIEWPOINT 0 0 0 1 0 0 0
POINTS 1409
DATA ascii
0.00042693666 0.11569984 0.48700002
0.00128081 0.11569984 0.48700002
0.0021215333 0.11498711 0.48400003
0.0029701467 0.11498711 0.48400003
0.0038187599 0.11498711 0.48400003
0.0046770168 0.11522468 0.48500001
0.02667609 0.11474953 0.48300001
0.02752295 0.11474953 0.48300001
0.02836981 0.11474953 0.48300001
0.02915618 0.11451195 0.48200002
0.030001286 0.11451195 0.48200002
0.030846393 0.11451195 0.48200002
0.031691499 0.11451195 0.48200002
0.032536607 0.11451195 0.48200002
0.033450969 0.11474953 0.48300001
0.034297831 0.11474953 0.48300001
0.035290215 0.11522468 0.48500001
0.036066066 0.11498711 0.48400003
0.03691468 0.11498711 0.48400003
0.037763294 0.11498711 0.48400003
0.055917308 0.12734109 0.53600001
0.056963168 0.12757868 0.537
0.058012541 0.12781624 0.53800005
0.058517501 0.12686594 0.53400004
0.059453778 0.12686594 0.53400004
0.060390059 0.12686594 0.53400004
0.061211497 0.12662837 0.53300005
0.061912831 0.12615322 0.53100002
0.062725499 0.12591563 0.53000003
0.063654765 0.12591563 0.53000003
0.064584032 0.12591563 0.53000003
-0.057473391 0.1275629 0.53300005
-0.05632671 0.12708423 0.53100002
-0.055395689 0.12708423 0.53100002
-0.054669809 0.1275629 0.53300005
-0.053735282 0.1275629 0.53300005
-0.052701693 0.12732355 0.53200001
-0.05186623 0.1275629 0.53300005
-0.050931703 0.1275629 0.53300005
-0.049997177 0.1275629 0.53300005
-0.049062651 0.1275629 0.53300005
-0.04794753 0.12708423 0.53100002
-0.046927966 0.1268449 0.53000003
-0.0459987 0.1268449 0.53000003
-0.044984397 0.12660557 0.52900004
-0.044140168 0.1268449 0.53000003
-0.043292429 0.12708423 0.53100002
-0.042441186 0.12732355 0.53200001
-0.041430391 0.12708423 0.53100002
-0.040499371 0.12708423 0.53100002
-0.039642867 0.12732355 0.53200001
-0.038564567 0.1268449 0.53000003
-0.0376353 0.1268449 0.53000003
-0.036706034 0.1268449 0.53000003
-0.035709262 0.12660557 0.52900004
-0.03478175 0.12660557 0.52900004
-0.033982228 0.12708423 0.53100002
-0.033113454 0.12732355 0.53200001
-0.032301661 0.12780222 0.53400004
-0.03136538 0.12780222 0.53400004
-0.030486083 0.12804155 0.53500003
-0.029548049 0.12804155 0.53500003
-0.028449586 0.12732355 0.53200001
-0.027516814 0.12732355 0.53200001
-0.02658404 0.12732355 0.53200001
-0.02560305 0.12708423 0.53100002
-0.010958333 0.119665 0.5
-0.01004134 0.11918634 0.49800003
-0.0091129495 0.11846835 0.49500003
-0.0081950799 0.11775036 0.49200001
-0.00733244 0.11775036 0.49200001
-0.0064829499 0.11798969 0.49300003
-0.0056071598 0.11775036 0.49200001
-0.0047252332 0.1172717 0.49000001
-0.0038582101 0.11703237 0.48900002
-0.0029885566 0.11655371 0.48700002
-0.0021303 0.11631438 0.48600003
-0.00128081 0.11655371 0.48700002
-0.00042781333 0.11679304 0.48800004
0.00042693666 0.11655371 0.48700002
0.00127818 0.11631438 0.48600003
0.0021259165 0.11607505 0.48500001
0.0029701467 0.11583572 0.48400003
0.0038187599 0.11583572 0.48400003
0.0046770168 0.11607505 0.48500001
0.02582923 0.11559639 0.48300001
0.02667609 0.11559639 0.48300001
0.02752295 0.11559639 0.48300001
0.028428547 0.11583572 0.48400003
0.029216669 0.11559639 0.48300001
0.030001286 0.11535706 0.48200002
0.030846393 0.11535706 0.48200002
0.031691499 0.11535706 0.48200002
0.032536607 0.11535706 0.48200002
0.033520225 0.11583572 0.48400003
0.034439851 0.11607505 0.48500001
0.035290215 0.11607505 0.48500001
0.036066066 0.11583572 0.48400003
0.03691468 0.11583572 0.48400003
0.037841316 0.11607505 0.48500001
0.055604335 0.1275629 0.53300005
0.056644939 0.12780222 0.53400004
0.057689048 0.12804155 0.53500003
0.058407918 0.1275629 0.53300005
0.059342444 0.1275629 0.53300005
0.06027697 0.1275629 0.53300005
0.06098181 0.12708423 0.53100002
0.061679635 0.12660557 0.52900004
0.062488798 0.12636624 0.528
0.063534662 0.12660557 0.52900004
0.064340323 0.12636624 0.528
-0.057365559 0.12825634 0.53200001
-0.056432787 0.12825634 0.53200001
-0.055500012 0.12825634 0.53200001
-0.054464668 0.12801525 0.53100002
-0.053533651 0.12801525 0.53100002
-0.052701693 0.12825634 0.53200001
-0.05186623 0.12849742 0.53300005
-0.050931703 0.12849742 0.53300005
-0.049997177 0.12849742 0.53300005
-0.048970599 0.12825634 0.53200001
-0.04794753 0.12801525 0.53100002
-0.046927966 0.12777416 0.53000003
-0.0459987 0.12777416 0.53000003
-0.044984397 0.12753308 0.52900004
-0.044056881 0.12753308 0.52900004
-0.04312937 0.12753308 0.52900004
-0.042201858 0.12753308 0.52900004
-0.041274343 0.12753308 0.52900004
-0.040346831 0.12753308 0.52900004
-0.039493833 0.12777416 0.53000003
-0.038419038 0.12729199 0.528
-0.037493281 0.12729199 0.528
-0.036706034 0.12777416 0.53000003
-0.035709262 0.12753308 0.52900004
-0.03478175 0.12753308 0.52900004
-0.033918232 0.12777416 0.53000003
-0.032988966 0.12777416 0.53000003
-0.032120191 0.12801525 0.53100002
-0.03118917 0.12801525 0.53100002
-0.030201167 0.12777416 0.53000003
-0.029271901 0.12777416 0.53000003
-0.028342633 0.12777416 0.53000003
-0.027413366 0.12777416 0.53000003
-0.026534069 0.12801525 0.53100002
-0.025554834 0.12777416 0.53000003
-0.02467203 0.12801525 0.53100002
-0.023651591 0.12753308 0.52900004
-0.022681121 0.12729199 0.528
-0.02175536 0.12729199 0.528
-0.020829599 0.12729199 0.528
-0.019014023 0.12753308 0.52900004
-0.01808651 0.12753308 0.52900004
-0.010958333 0.12054167 0.5
-0.01004134 0.1200595 0.49800003
-0.0091129495 0.11933625 0.49500003
-0.0082117366 0.11885408 0.49300003
-0.0073473435 0.11885408 0.49300003
-0.0064829499 0.11885408 0.49300003
-0.0056071598 0.118613 0.49200001
-0.0047252332 0.11813083 0.49000001
-0.0038582101 0.11788975 0.48900002
-0.0029824199 0.1171665 0.48600003
-0.0021259165 0.11692542 0.48500001
-0.00128081 0.11740758 0.48700002
-0.00042693666 0.11740758 0.48700002
0.00042781333 0.11764867 0.48800004
0.00128344 0.11764867 0.48800004
0.0021259165 0.11692542 0.48500001
0.0029762832 0.11692542 0.48500001
0.0038266499 0.11692542 0.48500001
0.0046770168 0.11692542 0.48500001
0.025882706 0.11668433 0.48400003
0.02673132 0.11668433 0.48400003
0.027579933 0.11668433 0.48400003
0.028428547 0.11668433 0.48400003
0.029216669 0.11644325 0.48300001
0.030001286 0.11620217 0.48200002
0.030846393 0.11620217 0.48200002
0.031625751 0.11596108 0.48100004
0.032536607 0.11620217 0.48200002
0.033520225 0.11668433 0.48400003
0.055291366 0.12777416 0.53000003
0.05600848 0.12729199 0.528
0.056934241 0.12729199 0.528
0.058407918 0.12849742 0.53300005
0.058674421 0.12705092 0.52700001
0.059485339 0.12680984 0.52600002
0.060407594 0.12680984 0.52600002
0.061213251 0.12656875 0.52500004
0.062133748 0.12656875 0.52500004
0.063054249 0.12656875 0.52500004
0.063974753 0.12656875 0.52500004
-0.057257731 0.12894627 0.53100002
-0.05632671 0.12894627 0.53100002
-0.055395689 0.12894627 0.53100002
-0.0543621 0.12870343 0.53000003
-0.053432833 0.12870343 0.53000003
-0.05260263 0.12894627 0.53100002
-0.051671609 0.12894627 0.53100002
-0.050836146 0.1291891 0.53200001
-0.049903374 0.1291891 0.53200001
-0.048970599 0.1291891 0.53200001
-0.047857232 0.12870343 0.53000003
-0.046839423 0.1284606 0.52900004
-0.045911908 0.1284606 0.52900004
-0.044899359 0.12821776 0.528
-0.043890316 0.12797493 0.52700001
-0.043047838 0.12821776 0.528
-0.042201858 0.1284606 0.52900004
-0.04119632 0.12821776 0.528
-0.040346831 0.1284606 0.52900004
-0.039419316 0.1284606 0.52900004
-0.038491804 0.1284606 0.52900004
-0.037564289 0.1284606 0.52900004
-0.036706034 0.12870343 0.53000003
-0.03564176 0.12821776 0.528
-0.034715999 0.12821776 0.528
-0.033854235 0.1284606 0.52900004
-0.032864481 0.12821776 0.528
-0.032059699 0.12870343 0.53000003
-0.03118917 0.12894627 0.53100002
-0.030201167 0.12870343 0.53000003
-0.029271901 0.12870343 0.53000003
-0.028342633 0.12870343 0.53000003
-0.027413366 0.12870343 0.53000003
-0.026434129 0.1284606 0.52900004
-0.025458399 0.12821776 0.528
-0.024579104 0.1284606 0.52900004
-0.023651591 0.1284606 0.52900004
-0.022681121 0.12821776 0.528
-0.021714156 0.12797493 0.52700001
-0.02079015 0.12797493 0.52700001
-0.019866142 0.12797493 0.52700001
-0.019014023 0.1284606 0.52900004
-0.01808651 0.1284606 0.52900004
-0.017158996 0.1284606 0.52900004
-0.01004134 0.12093266 0.49800003
-0.0091497703 0.12068982 0.49700001
-0.0082117366 0.11971848 0.49300003
-0.0073622465 0.11996131 0.49400002
-0.0064829499 0.11971848 0.49300003
-0.0055957632 0.1192328 0.49100003
-0.0047155898 0.11874713 0.48900002
-0.0038503199 0.11850429 0.48800004
-0.0029824199 0.11801862 0.48600003
-0.0021259165 0.11777578 0.48500001
-0.00127818 0.11801862 0.48600003
-0.00042693666 0.11826146 0.48700002
0.00042781333 0.11850429 0.48800004
0.00128081 0.11826146 0.48700002
0.0021346833 0.11826146 0.48700002
0.0029885566 0.11826146 0.48700002
0.026786549 0.11777578 0.48500001
0.027636917 0.11777578 0.48500001
0.028428547 0.11753295 0.48400003
0.029277159 0.11753295 0.48400003
0.03006353 0.11729011 0.48300001
0.030910389 0.11729011 0.48300001
0.031691499 0.11704727 0.48200002
0.052305441 0.12821776 0.528
0.053130385 0.12797493 0.52700001
0.053951818 0.12773208 0.52600002
0.054874074 0.12773208 0.52600002
0.05600848 0.12821776 0.528
0.056826409 0.12797493 0.52700001
0.057750415 0.12797493 0.52700001
0.058563087 0.12773208 0.52600002
0.05937225 0.12748925 0.52500004
0.060292751 0.12748925 0.52500004
0.061213251 0.12748925 0.52500004
0.062133748 0.12748925 0.52500004
0.063054249 0.12748925 0.52500004
0.063974753 0.12748925 0.52500004
-0.056934241 0.12914352 0.528
-0.056114558 0.12938811 0.52900004
-0.05508272 0.12914352 0.528
-0.054156959 0.12914352 0.528
-0.053130385 0.12889893 0.52700001
-0.052404504 0.12938811 0.52900004
-0.051574301 0.1296327 0.53000003
-0.050645035 0.1296327 0.53000003
-0.049809571 0.12987728 0.53100002
-0.048878551 0.12987728 0.53100002
-0.047676641 0.12914352 0.528
-0.046750881 0.12914352 0.528
-0.045911908 0.12938811 0.52900004
-0.044814322 0.12889893 0.52700001
-0.043723751 0.12840974 0.52500004
-0.04296631 0.12889893 0.52700001
-0.042122081 0.12914352 0.528
-0.041040272 0.12865435 0.52600002
-0.04011802 0.12865435 0.52600002
-0.039344799 0.12914352 0.528
-0.038491804 0.12938811 0.52900004
-0.037564289 0.12938811 0.52900004
-0.036636777 0.12938811 0.52900004
-0.035709262 0.12938811 0.52900004
-0.034715999 0.12914352 0.528
-0.033790238 0.12914352 0.528
-0.032926723 0.12938811 0.52900004
-0.032059699 0.1296327 0.53000003
-0.03118917 0.12987728 0.53100002
-0.030201167 0.1296327 0.53000003
-0.029216669 0.12938811 0.52900004
-0.028289156 0.12938811 0.52900004
-0.027309921 0.12914352 0.528
-0.02638416 0.12914352 0.528
-0.025410183 0.12889893 0.52700001
-0.024486177 0.12889893 0.52700001
-0.023562171 0.12889893 0.52700001
-0.022638163 0.12889893 0.52700001
-0.021714156 0.12889893 0.52700001
-0.0207507 0.12865435 0.52600002
-0.019828446 0.12865435 0.52600002
-0.01897808 0.12914352 0.528
-0.018052319 0.12914352 0.528
-0.017158996 0.12938811 0.52900004
-0.01004134 0.12180582 0.49800003
-0.0091497703 0.12156123 0.49700001
-0.0082117366 0.12058287 0.49300003
-0.0073473435 0.12058287 0.49300003
-0.0064960998 0.12082746 0.49400002
-0.0055843666 0.1198491 0.49000001
-0.0047252332 0.1198491 0.49000001
-0.0038582101 0.11960451 0.48900002
-0.0029946934 0.11935992 0.48800004
-0.0021303 0.11887074 0.48600003
-0.00127818 0.11887074 0.48600003
-0.00042693666 0.11911533 0.48700002
0.00042781333 0.11935992 0.48800004
0.00128344 0.11935992 0.48800004
0.0021346833 0.11911533 0.48700002
0.0029885566 0.11911533 0.48700002
0.02673132 0.11838156 0.48400003
0.027579933 0.11838156 0.48400003
0.028428547 0.11838156 0.48400003
0.052107312 0.12865435 0.52600002
0.052928749 0.12840974 0.52500004
0.05384925 0.12840974 0.52500004
0.054769751 0.12840974 0.52500004
0.055902403 0.12889893 0.52700001
0.05671858 0.12865435 0.52600002
0.057531249 0.12840974 0.52500004
0.058340412 0.12816516 0.52400005
0.059146069 0.12792057 0.523
0.060063064 0.12792057 0.523
0.061096653 0.12816516 0.52400005
0.062133748 0.12840974 0.52500004
0.062934145 0.12816516 0.52400005
0.063852891 0.12816516 0.52400005
-0.056610748 0.12933025 0.52500004
-0.055796325 0.12957659 0.52600002
-0.054978397 0.12982294 0.52700001
-0.054054391 0.12982294 0.52700001
-0.053029567 0.12957659 0.52600002
-0.052107312 0.12957659 0.52600002
-0.051379681 0.13006929 0.528
-0.050358362 0.12982294 0.52700001
-0.049340554 0.12957659 0.52600002
-0.048786499 0.13056196 0.53000003
-0.047676641 0.13006929 0.528
-0.046662338 0.12982294 0.52700001
-0.04582512 0.13006929 0.528
-0.044814322 0.12982294 0.52700001
-0.043723751 0.12933025 0.52500004
-0.04296631 0.12982294 0.52700001
-0.042042304 0.12982294 0.52700001
-0.040884227 0.1290839 0.52400005
-0.039965481 0.1290839 0.52400005
-0.039270282 0.12982294 0.52700001
-0.038346276 0.12982294 0.52700001
-0.03742227 0.12982294 0.52700001
-0.03656752 0.13006929 0.528
-0.03564176 0.13006929 0.528
-0.034715999 0.13006929 0.528
-0.033790238 0.13006929 0.528
-0.032864481 0.13006929 0.528
-0.03193872 0.13006929 0.528
-0.031071696 0.13031562 0.52900004
-0.030087199 0.13006929 0.528
-0.029106209 0.12982294 0.52700001
-0.028182203 0.12982294 0.52700001
-0.027258197 0.12982294 0.52700001
-0.026334191 0.12982294 0.52700001
-0.02531375 0.12933025 0.52500004
-0.024439713 0.12957659 0.52600002
-0.02351746 0.12957659 0.52600002
-0.022638163 0.12982294 0.52700001
-0.021672953 0.12957659 0.52600002
-0.020711251 0.12933025 0.52500004
-0.01979075 0.12933025 0.52500004
-0.018870249 0.12933025 0.52500004
-0.018052319 0.13006929 0.528
-0.01712656 0.13006929 0.528
-0.016200799 0.13006929 0.528
-0.01004134 0.12267898 0.49800003
-0.0091497703 0.12243263 0.49700001
-0.0082283933 0.1216936 0.49400002
-0.00737715 0.12193995 0.49500003
-0.00650925 0.12193995 0.49500003
-0.0055957632 0.12095457 0.49100003
-0.0047155898 0.12046189 0.48900002
-0.0038661 0.12070823 0.49000001
-0.0029946934 0.12021554 0.48800004
-0.0021303 0.11972286 0.48600003
-0.00127818 0.11972286 0.48600003
-0.00042693666 0.1199692 0.48700002
0.00042693666 0.1199692 0.48700002
0.00128081 0.1199692 0.48700002
0.0021390666 0.12021554 0.48800004
0.0029885566 0.1199692 0.48700002
0.00384243 0.1199692 0.48700002
0.02673132 0.11923017 0.48400003
0.027579933 0.11923017 0.48400003
0.028428547 0.11923017 0.48400003
0.051087748 0.12933025 0.52500004
0.052008249 0.12933025 0.52500004
0.052928749 0.12933025 0.52500004
0.05384925 0.12933025 0.52500004
0.054769751 0.12933025 0.52500004
0.055690251 0.12933025 0.52500004
0.05650292 0.1290839 0.52400005
0.057312082 0.12883756 0.523
0.05811774 0.12859122 0.52200001
0.059146069 0.12883756 0.523
0.060063064 0.12883756 0.523
0.060980055 0.12883756 0.523
0.062015399 0.1290839 0.52400005
0.062934145 0.1290839 0.52400005
0.063731037 0.12883756 0.523
-0.056610748 0.13025075 0.52500004
-0.055796325 0.13049884 0.52600002
-0.054874074 0.13049884 0.52600002
-0.053746678 0.13000265 0.52400005
-0.052827932 0.13000265 0.52400005
-0.052008249 0.13025075 0.52500004
-0.05118506 0.13049884 0.52600002
-0.049976137 0.12975456 0.523
-0.048965339 0.12950645 0.52200001
-0.04795805 0.12925836 0.52100003
-0.047134861 0.12950645 0.52200001
-0.046131078 0.12925836 0.52100003
-0.045217589 0.12925836 0.52100003
-0.044984397 0.13124314 0.52900004
-0.043890316 0.13074695 0.52700001
-0.04296631 0.13074695 0.52700001
-0.041962527 0.13049884 0.52600002
-0.040806204 0.12975456 0.523
-0.039889209 0.12975456 0.523
-0.039121252 0.13025075 0.52500004
-0.038273513 0.13049884 0.52600002
-0.037351258 0.13049884 0.52600002
-0.036498263 0.13074695 0.52700001
-0.035574257 0.13074695 0.52700001
-0.0345845 0.13049884 0.52600002
-0.033662245 0.13049884 0.52600002
-0.032739993 0.13049884 0.52600002
-0.031999208 0.13124314 0.52900004
-0.030954223 0.13074695 0.52700001
-0.030030217 0.13074695 0.52700001
-0.029106209 0.13074695 0.52700001
-0.028182203 0.13074695 0.52700001
-0.027154749 0.13025075 0.52500004
-0.026184279 0.13000265 0.52400005
-0.02531375 0.13025075 0.52500004
-0.024346786 0.13000265 0.52400005
-0.02342804 0.13000265 0.52400005
-0.022595206 0.13049884 0.52600002
-0.021672953 0.13049884 0.52600002
-0.020711251 0.13025075 0.52500004
-0.01979075 0.13025075 0.52500004
-0.018870249 0.13025075 0.52500004
-0.01801813 0.13074695 0.52700001
-0.01712656 0.13099504 0.528
-0.016231483 0.13124314 0.52900004
-0.010958333 0.12404833 0.5
-0.01004134 0.12355214 0.49800003
-0.0091681797 0.12355214 0.49800003
-0.0082617067 0.12305594 0.49600002
-0.00737715 0.12280785 0.49500003
-0.00650925 0.12280785 0.49500003
-0.0056071598 0.12206356 0.49200001
-0.0047348766 0.12181547 0.49100003
-0.0038661 0.12156737 0.49000001
-0.0029946934 0.12107117 0.48800004
-0.0021346833 0.12082308 0.48700002
-0.00128081 0.12082308 0.48700002
-0.00042693666 0.12082308 0.48700002
0.00042693666 0.12082308 0.48700002
0.00128344 0.12107117 0.48800004
0.0021390666 0.12107117 0.48800004
0.0029885566 0.12082308 0.48700002
0.00384243 0.12082308 0.48700002
0.02582923 0.11983069 0.48300001
0.02673132 0.12007879 0.48400003
0.027579933 0.12007879 0.48400003
0.028428547 0.12007879 0.48400003
0.050893128 0.12975456 0.523
0.051909186 0.13000265 0.52400005
0.052928749 0.13025075 0.52500004
0.053746678 0.13000265 0.52400005
0.054665428 0.13000265 0.52400005
0.055584174 0.13000265 0.52400005
0.056395091 0.12975456 0.523
0.057092916 0.12925836 0.52100003
0.057895068 0.12901026 0.52000004
0.058806799 0.12901026 0.52000004
0.059833378 0.12925836 0.52100003
0.060863461 0.12950645 0.52200001
0.061778698 0.12950645 0.52200001
0.062693939 0.12950645 0.52200001
0.063487321 0.12925836 0.52100003
-0.056395091 0.13067155 0.523
-0.055584174 0.13092139 0.52400005
-0.054456778 0.1304217 0.52200001
-0.053541541 0.1304217 0.52200001
-0.052727118 0.13067155 0.523
-0.05171106 0.1304217 0.52200001
-0.050893128 0.13067155 0.523
-0.049785022 0.13017185 0.52100003
-0.048871536 0.13017185 0.52100003
-0.04795805 0.13017185 0.52100003
-0.047044564 0.13017185 0.52100003
-0.046042532 0.129922 0.52000004
-0.0451308 0.129922 0.52000004
-0.044219065 0.129922 0.52000004
-0.043140765 0.12942229 0.51800001
-0.042395599 0.129922 0.52000004
-0.041483868 0.129922 0.52000004
-0.040572133 0.129922 0.52000004
-0.039660398 0.129922 0.52000004
-0.038897701 0.1304217 0.52200001
-0.03798246 0.1304217 0.52200001
-0.03706722 0.1304217 0.52200001
-0.036221236 0.13067155 0.523
-0.035439249 0.13117126 0.52500004
-0.034715999 0.1319208 0.528
-0.033726241 0.13167095 0.52700001
-0.032802235 0.13167095 0.52700001
-0.031817738 0.1314211 0.52600002
-0.030895486 0.1314211 0.52600002
-0.029859267 0.13092139 0.52400005
-0.028664369 0.12967215 0.51900005
-0.027754391 0.12967215 0.51900005
-0.026792686 0.12942229 0.51800001
-0.02603437 0.13017185 0.52100003
-0.025217317 0.13067155 0.523
-0.024346786 0.13092139 0.52400005
-0.02342804 0.13092139 0.52400005
-0.02255225 0.13117126 0.52500004
-0.02138453 0.12967215 0.51900005
-0.020474549 0.12967215 0.51900005
-0.019564569 0.12967215 0.51900005
-0.018510817 0.12867275 0.51500005
-0.01757366 0.1284229 0.514
-0.017094124 0.13167095 0.52700001
-0.016200799 0.1319208 0.528
-0.010958333 0.124925 0.5
-0.010061503 0.12467515 0.49900001
-0.0091681797 0.1244253 0.49800003
-0.0082783634 0.12417545 0.49700001
-0.0074069565 0.12417545 0.49700001
-0.0065223998 0.1239256 0.49600002
-0.0056071598 0.1229262 0.49200001
-0.0047348766 0.12267635 0.49100003
-0.0038661 0.1224265 0.49000001
-0.0029946934 0.1219268 0.48800004
-0.0021390666 0.1219268 0.48800004
-0.00128081 0.12167695 0.48700002
-0.00042781333 0.1219268 0.48800004
0.00042781333 0.1219268 0.48800004
0.00128344 0.1219268 0.48800004
0.0021434501 0.12217665 0.48900002
0.0029946934 0.1219268 0.48800004
0.0038503199 0.1219268 0.48800004
0.023240434 0.1204277 0.48200002
0.02408554 0.1204277 0.48200002
0.024930647 0.1204277 0.48200002
0.02582923 0.12067755 0.48300001
0.02667609 0.12067755 0.48300001
0.02752295 0.12067755 0.48300001
0.028487284 0.12117725 0.48500001
0.05079582 0.1304217 0.52200001
0.05171106 0.1304217 0.52200001
0.052626301 0.1304217 0.52200001
0.05364411 0.13067155 0.523
0.054456778 0.1304217 0.52200001
0.055265944 0.13017185 0.52100003
0.056071598 0.129922 0.52000004
0.056983333 0.129922 0.52000004
0.057895068 0.129922 0.52000004
0.058806799 0.129922 0.52000004
0.059948221 0.1304217 0.52200001
0.060863461 0.1304217 0.52200001
0.061305299 0.12942229 0.51800001
0.062213525 0.12942229 0.51800001
0.063243613 0.12967215 0.51900005
-0.05596377 0.13058212 0.51900005
-0.055159867 0.13083373 0.52000004
-0.054143809 0.13058212 0.51900005
-0.05313126 0.13033053 0.51800001
-0.052223034 0.13033053 0.51800001
-0.051314805 0.13033053 0.51800001
-0.050503891 0.13058212 0.51900005
-0.049498353 0.13033053 0.51800001
-0.048590127 0.13033053 0.51800001
-0.047681898 0.13033053 0.51800001
-0.046863969 0.13058212 0.51900005
-0.045953989 0.13058212 0.51900005
-0.044957221 0.13033053 0.51800001
-0.044048995 0.13033053 0.51800001
-0.043057483 0.13007893 0.51700002
-0.04223254 0.13033053 0.51800001
-0.041324314 0.13033053 0.51800001
-0.040338062 0.13007893 0.51700002
-0.039431591 0.13007893 0.51700002
-0.03867415 0.13058212 0.51900005
-0.037764169 0.13058212 0.51900005
-0.036854189 0.13058212 0.51900005
-0.035944209 0.13058212 0.51900005
-0.035101734 0.13083373 0.52000004
-0.034124251 0.13058212 0.51900005
-0.033214271 0.13058212 0.51900005
-0.032242045 0.13033053 0.51800001
-0.031333819 0.13033053 0.51800001
-0.030425593 0.13033053 0.51800001
-0.02957435 0.13058212 0.51900005
-0.02860914 0.13033053 0.51800001
-0.027700914 0.13033053 0.51800001
-0.026792686 0.13033053 0.51800001
-0.025884461 0.13033053 0.51800001
-0.024928017 0.13007893 0.51700002
-0.024068007 0.13033053 0.51800001
-0.023115071 0.13007893 0.51700002
-0.022208596 0.13007893 0.51700002
-0.021302123 0.13007893 0.51700002
-0.02039565 0.13007893 0.51700002
-0.01945148 0.12982732 0.51600003
-0.018474873 0.12932411 0.514
-0.01757366 0.12932411 0.514
-0.016672447 0.12932411 0.514
-0.016170116 0.13259496 0.52700001
-0.011787659 0.12529846 0.49800003
-0.010061503 0.12555006 0.49900001
-0.0091681797 0.12529846 0.49800003
-0.0082950201 0.12529846 0.49800003
-0.0074069565 0.12504685 0.49700001
-0.0065223998 0.12479525 0.49600002
-0.0056185564 0.12404044 0.49300003
-0.0047445199 0.12378884 0.49200001
-0.0038739899 0.12353723 0.49100003
-0.0030008301 0.12303403 0.48900002
-0.0021390666 0.12278242 0.48800004
-0.00128344 0.12278242 0.48800004
-0.00042781333 0.12278242 0.48800004
0.00042868999 0.12303403 0.48900002
0.00128607 0.12303403 0.48900002
0.0021434501 0.12303403 0.48900002
0.0029885566 0.12253083 0.48700002
0.00384243 0.12253083 0.48700002
0.023240434 0.1212728 0.48200002
0.02408554 0.1212728 0.48200002
0.024930647 0.1212728 0.48200002
0.02582923 0.12152441 0.48300001
0.02667609 0.12152441 0.48300001
0.02752295 0.12152441 0.48300001
0.02836981 0.12152441 0.48300001
0.05079582 0.13133694 0.52200001
0.05171106 0.13133694 0.52200001
0.052626301 0.13133694 0.52200001
0.053438969 0.13108534 0.52100003
0.054248132 0.13083373 0.52000004
0.055159867 0.13083373 0.52000004
0.056071598 0.13083373 0.52000004
0.056983333 0.13083373 0.52000004
0.05778373 0.13058212 0.51900005
0.058580618 0.13033053 0.51800001
0.059259161 0.12982732 0.51600003
0.060163878 0.12982732 0.51600003
0.061068598 0.12982732 0.51600003
0.062093422 0.13007893 0.51700002
0.063121751 0.13033053 0.51800001
-0.055748109 0.13098539 0.51700002
-0.05473556 0.13073204 0.51600003
-0.05383084 0.13073204 0.51600003
-0.052926119 0.13073204 0.51600003
-0.052021399 0.13073204 0.51600003
-0.051017616 0.13047868 0.51500005
-0.05011465 0.13047868 0.51500005
-0.049307238 0.13073204 0.51600003
-0.048402518 0.13073204 0.51600003
-0.047497801 0.13073204 0.51600003
-0.046593081 0.13073204 0.51600003
-0.045599818 0.13047868 0.51500005
-0.044870429 0.13098539 0.51700002
-0.044048995 0.13123876 0.51800001
-0.043140765 0.13123876 0.51800001
-0.04223254 0.13123876 0.51800001
-0.041404091 0.13149211 0.51900005
-0.04049411 0.13149211 0.51900005
-0.03958413 0.13149211 0.51900005
-0.03867415 0.13149211 0.51900005
-0.037691407 0.13123876 0.51800001
-0.03671217 0.13098539 0.51700002
-0.035805695 0.13098539 0.51700002
-0.035034228 0.13149211 0.51900005
-0.034124251 0.13149211 0.51900005
-0.033086278 0.13098539 0.51700002
-0.032117561 0.13073204 0.51600003
-0.03121284 0.13073204 0.51600003
-0.03030812 0.13073204 0.51600003
-0.029517366 0.13123876 0.51800001
-0.02860914 0.13123876 0.51800001
-0.027647436 0.13098539 0.51700002
-0.026792686 0.13123876 0.51800001
-0.025884461 0.13123876 0.51800001
-0.024928017 0.13098539 0.51700002
-0.024021544 0.13098539 0.51700002
-0.023115071 0.13098539 0.51700002
-0.022251554 0.13123876 0.51800001
-0.021302123 0.13098539 0.51700002
-0.020356201 0.13073204 0.51600003
-0.01945148 0.13073204 0.51600003
-0.018474873 0.13022533 0.514
-0.017607849 0.13047868 0.51500005
-0.016704883 0.13047868 0.51500005
-0.01004134 0.12617162 0.49800003
-0.0091681797 0.12617162 0.49800003
-0.0082783634 0.12591827 0.49700001
-0.0073920535 0.1256649 0.49600002
-0.0065223998 0.1256649 0.49600002
-0.0056185564 0.12490483 0.49300003
-0.0047541633 0.12490483 0.49300003
-0.0038818801 0.12465148 0.49200001
-0.0030008301 0.12389141 0.48900002
-0.0021390666 0.12363806 0.48800004
-0.00128344 0.12363806 0.48800004
-0.00042868999 0.12389141 0.48900002
0.00042956666 0.12414476 0.49000001
0.0012887 0.12414476 0.49000001
0.0021478334 0.12414476 0.49000001
0.0029946934 0.12363806 0.48800004
0.00384243 0.1233847 0.48700002
0.00719831 0.12237127 0.48300001
0.0080451695 0.12237127 0.48300001
0.02408554 0.12211791 0.48200002
0.024930647 0.12211791 0.48200002
0.025775753 0.12211791 0.48200002
0.026620859 0.12211791 0.48200002
0.02752295 0.12237127 0.48300001
0.02836981 0.12237127 0.48300001
0.052021399 0.13073204 0.51600003
0.053028688 0.13098539 0.51700002
0.054039486 0.13123876 0.51800001
0.054841638 0.13098539 0.51700002
0.05564028 0.13073204 0.51600003
0.056654584 0.13098539 0.51700002
0.057561055 0.13098539 0.51700002
0.058241349 0.13047868 0.51500005
0.059144318 0.13047868 0.51500005
0.060047284 0.13047868 0.51500005
0.061068598 0.13073204 0.51600003
0.061973318 0.13073204 0.51600003
0.062878042 0.13073204 0.51600003
-0.055532448 0.13138165 0.51500005
-0.054523405 0.13112654 0.514
-0.053622194 0.13112654 0.514
-0.052823551 0.13138165 0.51500005
-0.051819768 0.13112654 0.514
-0.050720427 0.13061632 0.51200002
-0.04992003 0.13087143 0.51300001
-0.049307238 0.13163675 0.51600003
-0.048402518 0.13163675 0.51600003
-0.04758985 0.13189188 0.51700002
-0.046773672 0.13214698 0.51800001
-0.045776904 0.13189188 0.51700002
-0.044783641 0.13163675 0.51600003
-0.04387892 0.13163675 0.51600003
-0.0429742 0.13163675 0.51600003
-0.04206948 0.13163675 0.51600003
-0.041324314 0.13214698 0.51800001
-0.040416088 0.13214698 0.51800001
-0.03958413 0.13240209 0.51900005
-0.038525116 0.13189188 0.51700002
-0.037618645 0.13189188 0.51700002
-0.036641158 0.13163675 0.51600003
-0.035736442 0.13163675 0.51600003
-0.034899224 0.13189188 0.51700002
-0.033992749 0.13189188 0.51700002
-0.033022281 0.13163675 0.51600003
-0.032117561 0.13163675 0.51600003
-0.031273331 0.13189188 0.51700002
-0.030366857 0.13189188 0.51700002
-0.029460384 0.13189188 0.51700002
-0.028553911 0.13189188 0.51700002
-0.027647436 0.13189188 0.51700002
-0.026740963 0.13189188 0.51700002
-0.02578452 0.13163675 0.51600003
-0.0248798 0.13163675 0.51600003
-0.024021544 0.13189188 0.51700002
-0.02307036 0.13163675 0.51600003
-0.022208596 0.13189188 0.51700002
-0.021260919 0.13163675 0.51600003
-0.02031675 0.13138165 0.51500005
-0.019413782 0.13138165 0.51500005
-0.01854676 0.13163675 0.51600003
-0.017607849 0.13138165 0.51500005
-0.016640009 0.13087143 0.51300001
-0.015740549 0.13087143 0.51300001
-0.013914453 0.13061632 0.51200002
-0.01004134 0.12704478 0.49800003
-0.0091497703 0.12678967 0.49700001
-0.0082617067 0.12653457 0.49600002
-0.0073920535 0.12653457 0.49600002
-0.0065223998 0.12653457 0.49600002
-0.0056299535 0.12602434 0.49400002
-0.0047445199 0.12551412 0.49200001
-0.0038739899 0.12525901 0.49100003
-0.00301924 0.12551412 0.49200001
-0.0021478334 0.1250039 0.49000001
-0.0012887 0.1250039 0.49000001
-0.00043044332 0.12525901 0.49100003
0.00043044332 0.12525901 0.49100003
0.0012887 0.1250039 0.49000001
0.0021478334 0.1250039 0.49000001
0.0030008301 0.12474879 0.48900002
0.0038582101 0.12474879 0.48900002
0.0046770168 0.12372835 0.48500001
0.0055159866 0.12347324 0.48400003
0.0063645998 0.12347324 0.48400003
0.0072132135 0.12347324 0.48400003
0.0080618262 0.12347324 0.48400003
0.0089288503 0.12372835 0.48500001
0.052021399 0.13163675 0.51600003
0.052926119 0.13163675 0.51600003
0.053935163 0.13189188 0.51700002
0.054841638 0.13189188 0.51700002
0.055532448 0.13138165 0.51500005
0.056325834 0.13112654 0.514
0.057227045 0.13112654 0.514
0.05812826 0.13112654 0.514
0.058914628 0.13087143 0.51300001
0.059814088 0.13087143 0.51300001
0.060713548 0.13087143 0.51300001
0.061613008 0.13087143 0.51300001
0.062634327 0.13112654 0.514
-0.055532448 0.13228461 0.51500005
-0.054417331 0.13177089 0.51300001
-0.053517871 0.13177089 0.51300001
-0.052720979 0.13202775 0.514
-0.05171895 0.13177089 0.51300001
-0.050621364 0.13125716 0.51100004
-0.04972541 0.13125716 0.51100004
-0.04902057 0.13177089 0.51300001
-0.048214912 0.13202775 0.514
-0.04740575 0.13228461 0.51500005
-0.046593081 0.13254148 0.51600003
-0.045688361 0.13254148 0.51600003
-0.044783641 0.13254148 0.51600003
-0.04387892 0.13254148 0.51600003
-0.0429742 0.13254148 0.51600003
-0.04206948 0.13254148 0.51600003
-0.041244537 0.13279834 0.51700002
-0.040338062 0.13279834 0.51700002
-0.039431591 0.13279834 0.51700002
-0.038450599 0.13254148 0.51600003
-0.037545878 0.13254148 0.51600003
-0.036641158 0.13254148 0.51600003
-0.035736442 0.13254148 0.51600003
-0.034899224 0.13279834 0.51700002
-0.033992749 0.13279834 0.51700002
-0.033022281 0.13254148 0.51600003
-0.032055315 0.13228461 0.51500005
-0.03121284 0.13254148 0.51600003
-0.03030812 0.13254148 0.51600003
-0.0294034 0.13254148 0.51600003
-0.028553911 0.13279834 0.51700002
-0.027593959 0.13254148 0.51600003
-0.026689241 0.13254148 0.51600003
-0.025734549 0.13228461 0.51500005
-0.024831584 0.13228461 0.51500005
-0.02397508 0.13254148 0.51600003
-0.023025651 0.13228461 0.51500005
-0.022122683 0.13228461 0.51500005
-0.021219717 0.13228461 0.51500005
-0.02031675 0.13228461 0.51500005
-0.01945148 0.13254148 0.51600003
-0.018582704 0.13279834 0.51700002
-0.01764204 0.13254148 0.51600003
-0.016704883 0.13228461 0.51500005
-0.015771233 0.13202775 0.514
-0.01484109 0.13177089 0.51300001
-0.013914453 0.13151403 0.51200002
-0.012813359 0.12945911 0.50400001
-0.01190601 0.12920226 0.50300002
-0.011024083 0.12920226 0.50300002
-0.0091681797 0.12791795 0.49800003
-0.0082617067 0.12740421 0.49600002
-0.0073920535 0.12740421 0.49600002
-0.0065223998 0.12740421 0.49600002
-0.0056299535 0.12689048 0.49400002
-0.0047445199 0.12637676 0.49200001
-0.0038739899 0.1261199 0.49100003
-0.00301924 0.12637676 0.49200001
-0.0021478334 0.12586303 0.49000001
-0.0012887 0.12586303 0.49000001
-0.00043044332 0.1261199 0.49100003
0.00042956666 0.12586303 0.49000001
0.00129133 0.1261199 0.49100003
0.0021478334 0.12586303 0.49000001
0.0030069666 0.12586303 0.49000001
0.0038582101 0.12560616 0.48900002
0.0046866601 0.12483558 0.48600003
0.0055273832 0.12457871 0.48500001
0.0063777501 0.12457871 0.48500001
0.0072281165 0.12457871 0.48500001
0.0080618262 0.12432186 0.48400003
0.0089472597 0.12483558 0.48600003
0.050324172 0.13048658 0.50800002
0.051416501 0.1310003 0.51000005
0.052720979 0.13202775 0.514
0.053622194 0.13202775 0.514
0.054523405 0.13202775 0.514
0.055424619 0.13202775 0.514
0.056216251 0.13177089 0.51300001
0.057115711 0.13177089 0.51300001
0.058015171 0.13177089 0.51300001
0.058914628 0.13177089 0.51300001
0.059580896 0.13125716 0.51100004
0.060476851 0.13125716 0.51100004
0.061492905 0.13151403 0.51200002
0.062390614 0.13151403 0.51200002
-0.055532448 0.13318758 0.51500005
-0.054417331 0.13267034 0.51300001
-0.053517871 0.13267034 0.51300001
-0.052720979 0.13292897 0.514
-0.05171895 0.13267034 0.51300001
-0.050621364 0.13215311 0.51100004
-0.04972541 0.13215311 0.51100004
-0.04902057 0.13267034 0.51300001
-0.04812111 0.13267034 0.51300001
-0.047313701 0.13292897 0.514
-0.046593081 0.1334462 0.51600003
-0.045776904 0.13370481 0.51700002
-0.044870429 0.13370481 0.51700002
-0.043623809 0.13267034 0.51300001
-0.042641066 0.13241173 0.51200002
-0.04174336 0.13241173 0.51200002
-0.040845655 0.13241173 0.51200002
-0.039947946 0.13241173 0.51200002
-0.03905024 0.13241173 0.51200002
-0.038450599 0.1334462 0.51600003
-0.037473116 0.13318758 0.51500005
-0.03657015 0.13318758 0.51500005
-0.035667185 0.13318758 0.51500005
-0.034831721 0.1334462 0.51600003
-0.033927001 0.1334462 0.51600003
-0.032958284 0.13318758 0.51500005
-0.032055315 0.13318758 0.51500005
-0.03121284 0.1334462 0.51600003
-0.030249383 0.13318758 0.51500005
-0.029289434 0.13292897 0.514
-0.028498679 0.1334462 0.51600003
-0.027647436 0.13370481 0.51700002
-0.026637517 0.13318758 0.51500005
-0.025734549 0.13318758 0.51500005
-0.024831584 0.13318758 0.51500005
-0.024021544 0.13370481 0.51700002
-0.023025651 0.13318758 0.51500005
-0.022122683 0.13318758 0.51500005
-0.021178514 0.13292897 0.514
-0.020277299 0.13292897 0.514
-0.019413782 0.13318758 0.51500005
-0.01854676 0.1334462 0.51600003
-0.017607849 0.13318758 0.51500005
-0.016672447 0.13292897 0.514
-0.015740549 0.13267034 0.51300001
-0.01481216 0.13241173 0.51200002
-0.013751393 0.13086003 0.50600004
-0.012813359 0.1303428 0.50400001
-0.01188234 0.12982556 0.50200003
-0.011024083 0.13008419 0.50300002
-0.010142157 0.13008419 0.50300002
-0.0091497703 0.12853248 0.49700001
-0.0082617067 0.12827386 0.49600002
-0.0074069565 0.12853248 0.49700001
-0.0065355501 0.12853248 0.49700001
-0.0056413501 0.12801525 0.49500003
-0.0047541633 0.12749802 0.49300003
-0.0038739899 0.12698078 0.49100003
-0.0030253767 0.12749802 0.49300003
-0.0021565999 0.12723941 0.49200001
-0.00129396 0.12723941 0.49200001
-0.00043307332 0.12775663 0.49400002
0.00043131999 0.12723941 0.49200001
0.00129396 0.12723941 0.49200001
0.0021478334 0.12672217 0.49000001
0.0030069666 0.12672217 0.49000001
0.0038582101 0.12646355 0.48900002
0.0046866601 0.1256877 0.48600003
0.0055273832 0.12542908 0.48500001
0.0063777501 0.12542908 0.48500001
0.0072281165 0.12542908 0.48500001
0.0080618262 0.12517047 0.48400003
0.0089472597 0.1256877 0.48600003
0.048638344 0.13163589 0.509
0.049433481 0.13137726 0.50800002
0.050324172 0.13137726 0.50800002
0.051416501 0.1318945 0.51000005
0.052515838 0.13241173 0.51200002
0.053413548 0.13241173 0.51200002
0.054417331 0.13267034 0.51300001
0.055208959 0.13241173 0.51200002
0.056106668 0.13241173 0.51200002
0.057004374 0.13241173 0.51200002
0.058015171 0.13267034 0.51300001
0.058914628 0.13267034 0.51300001
0.059580896 0.13215311 0.51100004
0.060476851 0.13215311 0.51100004
0.061372802 0.13215311 0.51100004
0.062512472 0.13267034 0.51300001
-0.055316791 0.13356981 0.51300001
-0.054311253 0.13330944 0.51200002
-0.053413548 0.13330944 0.51200002
-0.05261841 0.13356981 0.51300001
-0.051618133 0.13330944 0.51200002
-0.050522301 0.1327887 0.51000005
-0.049628101 0.1327887 0.51000005
-0.048925012 0.13330944 0.51200002
-0.048027307 0.13330944 0.51200002
-0.047221649 0.13356981 0.51300001
-0.046322189 0.13356981 0.51300001
-0.045599818 0.13409054 0.51500005
-0.044696849 0.13409054 0.51500005
-0.043538772 0.13330944 0.51200002
-0.042724349 0.13356981 0.51300001
-0.041824888 0.13356981 0.51300001
-0.040845655 0.13330944 0.51200002
-0.039869923 0.13304907 0.51100004
-0.03905024 0.13330944 0.51200002
-0.038152535 0.13330944 0.51200002
-0.037327591 0.13356981 0.51300001
-0.036428131 0.13356981 0.51300001
-0.035528671 0.13356981 0.51300001
-0.034629211 0.13356981 0.51300001
-0.033729751 0.13356981 0.51300001
-0.032766294 0.13330944 0.51200002
-0.03193083 0.13356981 0.51300001
-0.03109186 0.13383017 0.514
-0.03013191 0.13356981 0.51300001
-0.029175466 0.13330944 0.51200002
-0.02827776 0.13330944 0.51200002
-0.027540483 0.13409054 0.51500005
-0.026637517 0.13409054 0.51500005
-0.025734549 0.13409054 0.51500005
-0.024831584 0.13409054 0.51500005
-0.024021544 0.13461129 0.51700002
-0.023025651 0.13409054 0.51500005
-0.022122683 0.13409054 0.51500005
-0.02113731 0.13356981 0.51300001
-0.02023785 0.13356981 0.51300001
-0.019376086 0.13383017 0.514
-0.018510817 0.13409054 0.51500005
-0.01757366 0.13383017 0.514
-0.016672447 0.13383017 0.514
-0.015709866 0.13330944 0.51200002
-0.01469644 0.13226795 0.50800002
-0.013751393 0.13174722 0.50600004
-0.012813359 0.13122648 0.50400001
-0.01188234 0.13070574 0.50200003
-0.011024083 0.13096611 0.50300002
-0.010142157 0.13096611 0.50300002
-0.0091681797 0.12966426 0.49800003
-0.0082617067 0.12914352 0.49600002
-0.0074069565 0.12940389 0.49700001
-0.0065355501 0.12940389 0.49700001
-0.0056527467 0.12914352 0.49600002
-0.0047638067 0.12862279 0.49400002
-0.00388977 0.1283624 0.49300003
-0.0030253767 0.1283624 0.49300003
-0.0021522166 0.12784167 0.49100003
-0.00129396 0.12810203 0.49200001
-0.00043219666 0.1283624 0.49300003
0.00043131999 0.12810203 0.49200001
0.00129396 0.12810203 0.49200001
0.0021478334 0.1275813 0.49000001
0.0030069666 0.1275813 0.49000001
0.0038503199 0.12706056 0.48800004
0.0046963035 0.12680019 0.48700002
0.0055273832 0.12627944 0.48500001
0.0063777501 0.12627944 0.48500001
0.0072281165 0.12627944 0.48500001
0.0080784829 0.12627944 0.48500001
0.0089656701 0.12680019 0.48700002
0.048542786 0.13226795 0.50800002
0.049238861 0.13174722 0.50600004
0.050225109 0.13200758 0.50700003
0.051517315 0.13304907 0.51100004
0.05241327 0.13304907 0.51100004
0.053309225 0.13304907 0.51100004
0.054099098 0.1327887 0.51000005
0.054993298 0.1327887 0.51000005
0.055887498 0.1327887 0.51000005
0.056781698 0.1327887 0.51000005
0.05778899 0.13304907 0.51100004
0.058684941 0.13304907 0.51100004
0.059464298 0.1327887 0.51000005
0.060240149 0.13252833 0.509
0.061132595 0.13252833 0.509
0.062025044 0.13252833 0.509
-0.055208959 0.13420714 0.51200002
-0.054205175 0.13394502 0.51100004
-0.053309225 0.13394502 0.51100004
-0.052515838 0.13420714 0.51200002
-0.051618133 0.13420714 0.51200002
-0.050621364 0.13394502 0.51100004
-0.04972541 0.13394502 0.51100004
-0.048925012 0.13420714 0.51200002
-0.048027307 0.13420714 0.51200002
-0.047129601 0.13420714 0.51200002
-0.046231892 0.13420714 0.51200002
-0.045334186 0.13420714 0.51200002
-0.044436481 0.13420714 0.51200002
-0.043368701 0.13368289 0.51000005
-0.042557783 0.13394502 0.51100004
-0.041498769 0.13342078 0.509
-0.040606324 0.13342078 0.509
-0.039713878 0.13342078 0.509
-0.038821429 0.13342078 0.509
-0.038003501 0.13368289 0.51000005
-0.037327591 0.13446927 0.51300001
-0.036428131 0.13446927 0.51300001
-0.035459414 0.13420714 0.51200002
-0.034629211 0.13446927 0.51300001
-0.033663999 0.13420714 0.51200002
-0.032702297 0.13394502 0.51100004
-0.031806342 0.13394502 0.51100004
-0.03103137 0.13446927 0.51300001
-0.030073173 0.13420714 0.51200002
-0.029175466 0.13420714 0.51200002
-0.02833299 0.13446927 0.51300001
-0.027593959 0.13525563 0.51600003
-0.026689241 0.13525563 0.51600003
-0.025434731 0.13342078 0.509
-0.02444585 0.13289653 0.50700003
-0.02397508 0.13525563 0.51600003
-0.02307036 0.13525563 0.51600003
-0.022165639 0.13525563 0.51600003
-0.02113731 0.13446927 0.51300001
-0.020277299 0.1347314 0.514
-0.019376086 0.1347314 0.514
-0.018474873 0.1347314 0.514
-0.01753947 0.13446927 0.51300001
-0.016607573 0.13420714 0.51200002
-0.015679182 0.13394502 0.51100004
-0.01469644 0.13315865 0.50800002
-0.013724216 0.13237229 0.505
-0.012838784 0.13237229 0.505
-0.01190601 0.13184804 0.50300002
-0.011002166 0.13158591 0.50200003
-0.010142157 0.13184804 0.50300002
-0.0092049995 0.13106167 0.5
-0.0082783634 0.13027529 0.49700001
-0.0074069565 0.13027529 0.49700001
-0.0065355501 0.13027529 0.49700001
-0.0056641432 0.13027529 0.49700001
-0.0047734501 0.12975106 0.49500003
-0.0038976599 0.12948893 0.49400002
-0.0030253767 0.1292268 0.49300003
-0.0021565999 0.12896468 0.49200001
-0.00129396 0.12896468 0.49200001
-0.00043219666 0.1292268 0.49300003
0.00043131999 0.12896468 0.49200001
0.00129396 0.12896468 0.49200001
0.0021478334 0.12844044 0.49000001
0.0030069666 0.12844044 0.49000001
0.0038582101 0.12817831 0.48900002
0.0046963035 0.12765406 0.48700002
0.0055387798 0.12739193 0.48600003
0.0063908999 0.12739193 0.48600003
0.00724302 0.12739193 0.48600003
0.0080784829 0.12712982 0.48500001
0.0089472597 0.12739193 0.48600003
0.044094581 0.13053742 0.49800003
0.044967741 0.13053742 0.49800003
0.046209101 0.13158591 0.50200003
0.047370683 0.13237229 0.505
0.048351672 0.1326344 0.50600004
0.049141549 0.13237229 0.505
0.050126046 0.1326344 0.50600004
0.051114049 0.13289653 0.50700003
0.052105561 0.13315865 0.50800002
0.052996252 0.13315865 0.50800002
0.054099098 0.13368289 0.51000005
0.054993298 0.13368289 0.51000005
0.055887498 0.13368289 0.51000005
0.056781698 0.13368289 0.51000005
0.05778899 0.13394502 0.51100004
0.058684941 0.13394502 0.51100004
0.059464298 0.13368289 0.51000005
0.060240149 0.13342078 0.509
0.061132595 0.13342078 0.509
0.061903186 0.13315865 0.50800002
-0.05456198 0.13352159 0.50600004
-0.054205175 0.13484098 0.51100004
-0.053309225 0.13484098 0.51100004
-0.052515838 0.13510485 0.51200002
-0.051517315 0.13484098 0.51100004
-0.050522301 0.1345771 0.51000005
-0.049530789 0.13431323 0.509
-0.048638344 0.13431323 0.509
-0.047745895 0.13431323 0.509
-0.047313701 0.1356326 0.514
-0.046412487 0.1356326 0.514
-0.045511272 0.1356326 0.514
-0.044436481 0.13510485 0.51200002
-0.043453738 0.13484098 0.51100004
-0.042474501 0.1345771 0.51000005
-0.041498769 0.13431323 0.509
-0.040526547 0.13404934 0.50800002
-0.039713878 0.13431323 0.509
-0.038745161 0.13404934 0.50800002
-0.037854467 0.13404934 0.50800002
-0.036963772 0.13404934 0.50800002
-0.036073081 0.13404934 0.50800002
-0.035043873 0.13352159 0.50600004
-0.034156688 0.13352159 0.50600004
-0.033598252 0.13484098 0.51100004
-0.032702297 0.13484098 0.51100004
-0.031681858 0.13431323 0.509
-0.030970879 0.13510485 0.51200002
-0.030073173 0.13510485 0.51200002
-0.029118484 0.13484098 0.51100004
-0.0281673 0.1345771 0.51000005
-0.0272731 0.1345771 0.51000005
-0.0263789 0.1345771 0.51000005
-0.0254847 0.1345771 0.51000005
-0.024494067 0.13404934 0.50800002
-0.023603372 0.13404934 0.50800002
-0.02271268 0.13404934 0.50800002
-0.021821987 0.13404934 0.50800002
-0.020931292 0.13404934 0.50800002
-0.0200406 0.13404934 0.50800002
-0.019187603 0.13431323 0.509
-0.018331099 0.1345771 0.51000005
-0.017436899 0.1345771 0.51000005
-0.016510263 0.13431323 0.509
-0.015587133 0.13404934 0.50800002
-0.01469644 0.13404934 0.50800002
-0.013724216 0.13325772 0.505
-0.012838784 0.13325772 0.505
-0.01192968 0.13299383 0.50400001
-0.011024083 0.13272996 0.50300002
-0.010142157 0.13272996 0.50300002
-0.0092418203 0.13246609 0.50200003
-0.0082950201 0.13141058 0.49800003
-0.00742186 0.13141058 0.49800003
-0.0065486999 0.13141058 0.49800003
-0.0056755398 0.13141058 0.49800003
-0.0047927368 0.1311467 0.49700001
-0.00392133 0.1311467 0.49700001
-0.0030376499 0.13061894 0.49500003
-0.0021609834 0.13009119 0.49300003
-0.00129396 0.12982732 0.49200001
-0.00043219666 0.13009119 0.49300003
0.00043219666 0.13009119 0.49300003
0.00129396 0.12982732 0.49200001
0.0021478334 0.12929957 0.49000001
0.0030131033 0.12956344 0.49100003
0.0038661 0.12929957 0.49000001
0.0046963035 0.12850794 0.48700002
0.0055387798 0.12824406 0.48600003
0.0063908999 0.12824406 0.48600003
0.00724302 0.12824406 0.48600003
0.0080951396 0.12824406 0.48600003
0.0089472597 0.12824406 0.48600003
0.044094581 0.13141058 0.49800003
0.044967741 0.13141058 0.49800003
0.046209101 0.13246609 0.50200003
0.047370683 0.13325772 0.505
0.048256118 0.13325772 0.505
0.049238861 0.13352159 0.50600004
0.050225109 0.13378547 0.50700003
0.051013231 0.13352159 0.50600004
0.052002989 0.13378547 0.50700003
0.052891929 0.13378547 0.50700003
0.053886946 0.13404934 0.50800002
0.054777641 0.13404934 0.50800002
0.055668332 0.13404934 0.50800002
0.056225017 0.13325772 0.505
0.05722354 0.13352159 0.50600004
0.058684941 0.13484098 0.51100004
0.059464298 0.1345771 0.51000005
0.060240149 0.13431323 0.509
0.061132595 0.13431323 0.509
0.061903186 0.13404934 0.50800002
-0.05456198 0.13440877 0.50600004
-0.053674795 0.13440877 0.50600004
-0.052787606 0.13440877 0.50600004
-0.052515838 0.13600256 0.51200002
-0.051517315 0.13573693 0.51100004
-0.050522301 0.1354713 0.51000005
-0.049530789 0.13520567 0.509
-0.048638344 0.13520567 0.509
-0.047839701 0.1354713 0.51000005
-0.046853449 0.13520567 0.509
-0.045961004 0.13520567 0.509
-0.044891469 0.13467441 0.50700003
-0.044002529 0.13467441 0.50700003
-0.043368701 0.1354713 0.51000005
-0.042474501 0.1354713 0.51000005
-0.041417241 0.13494004 0.50800002
-0.040526547 0.13494004 0.50800002
-0.039635852 0.13494004 0.50800002
-0.038745161 0.13494004 0.50800002
-0.03777995 0.13467441 0.50700003
-0.03689101 0.13467441 0.50700003
-0.03586005 0.13414314 0.505
-0.034974616 0.13414314 0.505
-0.034089182 0.13414314 0.505
-0.033203751 0.13414314 0.505
-0.032318316 0.13414314 0.505
-0.031495128 0.13440877 0.50600004
-0.0308499 0.1354713 0.51000005
-0.0299557 0.1354713 0.51000005
-0.0290615 0.1354713 0.51000005
-0.0281673 0.1354713 0.51000005
-0.027219623 0.13520567 0.509
-0.026275454 0.13494004 0.50800002
-0.02538476 0.13494004 0.50800002
-0.02444585 0.13467441 0.50700003
-0.023603372 0.13494004 0.50800002
-0.02271268 0.13494004 0.50800002
-0.021821987 0.13494004 0.50800002
-0.020931292 0.13494004 0.50800002
-0.0200406 0.13494004 0.50800002
-0.019149907 0.13494004 0.50800002
-0.018259212 0.13494004 0.50800002
-0.01740271 0.13520567 0.509
-0.016477827 0.13494004 0.50800002
-0.015587133 0.13494004 0.50800002
-0.01469644 0.13494004 0.50800002
-0.013724216 0.13414314 0.505
-0.012838784 0.13414314 0.505
-0.01190601 0.13361189 0.50300002
-0.011024083 0.13361189 0.50300002
-0.010142157 0.13361189 0.50300002
-0.0092418203 0.13334626 0.50200003
-0.0082950201 0.13228373 0.49800003
-0.00742186 0.13228373 0.49800003
-0.0065486999 0.13228373 0.49800003
-0.0056755398 0.13228373 0.49800003
-0.0048023798 0.13228373 0.49800003
-0.00392133 0.1320181 0.49700001
-0.0030437866 0.13175248 0.49600002
-0.0021653667 0.13122122 0.49400002
-0.00129922 0.13122122 0.49400002
-0.00043219666 0.13095559 0.49300003
0.00043219666 0.13095559 0.49300003
0.00129659 0.13095559 0.49300003
0.0021565999 0.13068996 0.49200001
0.00301924 0.13068996 0.49200001
0.0038739899 0.13042434 0.49100003
0.0047059464 0.12962744 0.48800004
0.0055387798 0.12909618 0.48600003
0.0063908999 0.12909618 0.48600003
0.00724302 0.12909618 0.48600003
0.008128453 0.12962744 0.48800004
0.0089840796 0.12962744 0.48800004
0.044271667 0.132815 0.5
0.045238629 0.13308063 0.50100005
0.046301149 0.13361189 0.50300002
0.047276881 0.13387752 0.50400001
0.048256118 0.13414314 0.505
0.049141549 0.13414314 0.505
0.050026983 0.13414314 0.505
0.050912417 0.13414314 0.505
0.05190042 0.13440877 0.50600004
0.052891929 0.13467441 0.50700003
0.053780869 0.13467441 0.50700003
0.054669809 0.13467441 0.50700003
0.055558749 0.13467441 0.50700003
0.056336354 0.13440877 0.50600004
0.057110451 0.13414314 0.505
0.058110725 0.13440877 0.50600004
0.058764718 0.13387752 0.50400001
0.059411701 0.13334626 0.50200003
0.060291871 0.13334626 0.50200003
0.061050188 0.13308063 0.50100005
-0.054454148 0.13502859 0.505
-0.053674795 0.13529597 0.50600004
-0.052683283 0.13502859 0.505
-0.051797848 0.13502859 0.505
-0.050912417 0.13502859 0.505
-0.050225109 0.13556334 0.50700003
-0.049336169 0.13556334 0.50700003
-0.048447229 0.13556334 0.50700003
-0.047652092 0.13583073 0.50800002
-0.046761401 0.13583073 0.50800002
-0.045870706 0.13583073 0.50800002
-0.044802926 0.13529597 0.50600004
-0.043828949 0.13502859 0.505
-0.042943515 0.13502859 0.505
-0.041974802 0.1347612 0.50400001
-0.041417241 0.13583073 0.50800002
-0.040526547 0.13583073 0.50800002
-0.039635852 0.13583073 0.50800002
-0.038745161 0.13583073 0.50800002
