# .PCD v0.7 - Point Cloud Data file format
VERSION 0.7
FIELDS x y z
SIZE 4 4 4
TYPE F F F
COUNT 1 1 1
WIDTH 1533
HEIGHT 1
VIEWPOINT 0 0 0 1 0 0 0
POINTS 1533
DATA ascii
0.40671459 0.29292676 0.87700003
0.40918329 0.29359478 0.87900007
0.41072446 0.29359478 0.87900007
0.41273466 0.2939288 0.88000005
0.41380683 0.29359478 0.87900007
0.41582054 0.2939288 0.88000005
0.41736346 0.2939288 0.88000005
0.41890639 0.2939288 0.88000005
0.42044932 0.2939288 0.88000005
0.42199227 0.2939288 0.88000005
0.4235352 0.2939288 0.88000005
0.42507812 0.2939288 0.88000005
0.42710587 0.2942628 0.88100004
0.42913711 0.29459682 0.88200003
0.43068352 0.29459682 0.88200003
0.4332101 0.29526484 0.88400006
0.43476003 0.29526484 0.88400006
0.43581641 0.29493082 0.88300002
0.30809838 0.33811367 1.0070001
0.31017166 0.33844945 1.008
0.31162956 0.33811367 1.0070001
0.31339517 0.33811367 1.0070001
0.3160997 0.33912095 1.01
0.31850001 0.33979249 1.0120001
0.32027438 0.33979249 1.0120001
0.32109407 0.3387852 1.0090001
0.32286319 0.3387852 1.0090001
0.32495403 0.33912095 1.01
0.32704839 0.33945674 1.011
0.32914627 0.33979249 1.0120001
0.33092064 0.33979249 1.0120001
0.33269501 0.33979249 1.0120001
0.33413887 0.33945674 1.011
0.33624375 0.33979249 1.0120001
0.33902013 0.34079978 1.0150001
0.34046403 0.34046403 1.0140001
0.34224188 0.34046403 1.0140001
0.34435904 0.34079978 1.0150001
0.34613869 0.34079978 1.0150001
0.3479183 0.34079978 1.0150001
0.34935343 0.34046403 1.0140001
0.35078502 0.34012824 1.013
0.35325721 0.34079978 1.0150001
0.35538664 0.34113553 1.016
0.35716802 0.34113553 1.016
0.35859612 0.34079978 1.0150001
0.36037576 0.34079978 1.0150001
0.3639394 0.3424786 1.0200001
0.36572781 0.3424786 1.0200001
0.3678765 0.34281436 1.021
0.3693046 0.3424786 1.0200001
0.371093 0.3424786 1.0200001
0.37251583 0.34214282 1.0190001
0.37393516 0.34180707 1.018
0.37608913 0.34214282 1.0190001
0.37750494 0.34180707 1.018
0.38040757 0.34281436 1.021
0.38144907 0.34214282 1.0190001
0.38323569 0.34214282 1.0190001
0.38502234 0.34214282 1.0190001
0.38756821 0.34281436 1.021
0.38935834 0.34281436 1.021
0.3907654 0.3424786 1.0200001
0.39370838 0.34348589 1.023
0.39666185 0.34449318 1.026
0.39768404 0.34382164 1.024
0.39947948 0.34382164 1.024
0.40088302 0.34348589 1.023
0.4034639 0.34415743 1.0250001
0.40486571 0.34382164 1.024
0.40626398 0.34348589 1.023
0.40805766 0.34348589 1.023
0.41145384 0.34482893 1.0270001
0.41325453 0.34482893 1.0270001
0.41465107 0.34449318 1.026
0.41644996 0.34449318 1.026
0.41906419 0.34516472 1.028
0.42086664 0.34516472 1.028
0.42266905 0.34516472 1.028
0.42612311 0.34650776 1.0320001
0.42751789 0.346172 1.031
0.42890915 0.34583622 1.0300001
0.43113327 0.346172 1.031
0.38422984 0.30722344 0.91500002
0.38583416 0.30722344 0.91500002
0.38786188 0.30755922 0.91600007
0.38861758 0.30688769 0.91400003
0.39022011 0.30688769 0.91400003
0.39096528 0.30621615 0.91200006
0.39127299 0.30520886 0.90900004
0.39113799 0.30386582 0.90500003
0.39185685 0.30319428 0.90300006
0.39126158 0.30151546 0.89800006
0.39196116 0.30084395 0.89600003
0.39309296 0.30050817 0.89500004
0.39466217 0.30050817 0.89500004
0.3957887 0.30017242 0.89400005
0.39602277 0.29916513 0.89100003
0.3980312 0.29950088 0.89200002
0.39780328 0.29815784 0.88800007
0.39801106 0.29715055 0.88500005
0.39775681 0.29580748 0.88100004
0.39703533 0.29412869 0.87600005
0.39902622 0.29446444 0.87700003
0.40102065 0.29480019 0.87800002
0.40256009 0.29480019 0.87800002
0.40455976 0.29513597 0.87900007
0.40610093 0.29513597 0.87900007
0.40717834 0.29480019 0.87800002
0.40918329 0.29513597 0.87900007
0.41119173 0.29547173 0.88000005
0.41273466 0.29547173 0.88000005
0.41380683 0.29513597 0.87900007
0.41582054 0.29547173 0.88000005
0.41736346 0.29547173 0.88000005
0.41890639 0.29547173 0.88000005
0.42044932 0.29547173 0.88000005
0.42199227 0.29547173 0.88000005
0.42401648 0.29580748 0.88100004
0.42556116 0.29580748 0.88100004
0.42807546 0.29647902 0.88300002
0.43059674 0.29715055 0.88500005
0.43214846 0.29715055 0.88500005
0.43370014 0.29715055 0.88500005
0.43525186 0.29715055 0.88500005
0.43630999 0.2968148 0.88400006
0.30748644 0.33920425 1.005
0.30924854 0.33920425 1.005
0.31101066 0.33920425 1.005
0.31215033 0.33852923 1.003
0.31484783 0.33954176 1.006
0.31661168 0.33954176 1.006
0.31837553 0.33954176 1.006
0.32013938 0.33954176 1.006
0.32190323 0.33954176 1.006
0.32398883 0.33987927 1.0070001
0.32575443 0.33987927 1.0070001
0.32914627 0.34156686 1.0120001
0.33092064 0.34156686 1.0120001
0.33269501 0.34156686 1.0120001
0.33413887 0.34122935 1.011
0.33624375 0.34156686 1.0120001
0.33835211 0.34190437 1.013
0.33945674 0.34122935 1.011
0.34122935 0.34122935 1.011
0.34198415 0.34021679 1.008
0.34409255 0.34055433 1.0090001
0.34586164 0.34055433 1.0090001
0.34694171 0.33987927 1.0070001
0.34870732 0.33987927 1.0070001
0.35186505 0.34122935 1.011
0.3536377 0.34122935 1.011
0.3561134 0.34190437 1.013
0.35894942 0.34291694 1.016
0.3607308 0.34291694 1.016
0.36286899 0.34325445 1.0170001
0.36465213 0.34325445 1.0170001
0.3678765 0.34460452 1.021
0.36821842 0.34325445 1.0170001
0.37000155 0.34325445 1.0170001
0.37288141 0.34426701 1.0200001
0.37393516 0.34359196 1.018
0.37608913 0.34392947 1.0190001
0.37750494 0.34359196 1.018
0.37928984 0.34359196 1.018
0.38107473 0.34359196 1.018
0.38285962 0.34359196 1.018
0.38426667 0.34325445 1.0170001
0.3864294 0.34359196 1.018
0.38821429 0.34359196 1.018
0.38999918 0.34359196 1.018
0.39178407 0.34359196 1.018
0.39472881 0.34460452 1.021
0.39613059 0.34426701 1.0200001
0.39908934 0.34527954 1.023
0.40049115 0.34494203 1.0220001
0.40228304 0.34494203 1.0220001
0.40367958 0.34460452 1.021
0.40626398 0.34527954 1.023
0.40805766 0.34527954 1.023
0.41025195 0.34561706 1.024
0.41164497 0.34527954 1.023
0.41505522 0.34662962 1.0270001
0.41644996 0.34629211 1.026
0.41865656 0.34662962 1.0270001
0.42045721 0.34662962 1.0270001
0.4222579 0.34662962 1.0270001
0.42405856 0.34662962 1.0270001
0.42585924 0.34662962 1.0270001
0.42890915 0.34764215 1.0300001
0.43071508 0.34764215 1.0300001
0.38464978 0.30916527 0.91600007
0.38583416 0.30882776 0.91500002
0.38828531 0.30950278 0.91700006
0.38904274 0.30882776 0.91500002
0.39064705 0.30882776 0.91500002
0.39225134 0.30882776 0.91500002
0.39170343 0.30714017 0.91000003
0.39157018 0.3057901 0.90600002
0.3922908 0.30511507 0.90400004
0.39387581 0.30511507 0.90400004
0.39327353 0.30342749 0.89900005
0.39397135 0.30275244 0.89700001
0.39466217 0.30207741 0.89500004
0.3957887 0.3017399 0.89400005
0.39602277 0.30072734 0.89100003
0.39758497 0.30072734 0.89100003
0.39825127 0.30005231 0.88900006
0.39801106 0.29870224 0.88500005
0.39775681 0.29735219 0.88100004
0.39748856 0.29600212 0.87700003
0.39948121 0.29633963 0.87800002
0.4014774 0.29667714 0.87900007
0.40347707 0.29701465 0.88000005
0.40548024 0.29735219 0.88100004
0.40702492 0.29735219 0.88100004
0.40810585 0.29701465 0.88000005
0.40964881 0.29701465 0.88000005
0.41119173 0.29701465 0.88000005
0.41273466 0.29701465 0.88000005
0.41427758 0.29701465 0.88000005
0.41582054 0.29701465 0.88000005
0.41736346 0.29701465 0.88000005
0.41890639 0.29701465 0.88000005
0.42044932 0.29701465 0.88000005
0.42199227 0.29701465 0.88000005
0.42449778 0.29768971 0.88200003
0.42652726 0.29802722 0.88300002
0.42807546 0.29802722 0.88300002
0.43059674 0.29870224 0.88500005
0.43214846 0.29870224 0.88500005
0.43370014 0.29870224 0.88500005
0.43525186 0.29870224 0.88500005
0.43680355 0.29870224 0.88500005
0.30626261 0.33960927 1.001
0.30832541 0.33994853 1.0020001
0.31008226 0.33994853 1.0020001
0.31090546 0.33893073 0.99900007
0.3139089 0.3402878 1.003
0.31566751 0.3402878 1.003
0.31742609 0.3402878 1.003
0.31918469 0.3402878 1.003
0.3209433 0.3402878 1.003
0.32270187 0.3402878 1.003
0.32446048 0.3402878 1.003
0.32719478 0.34130561 1.006
0.32863164 0.34096634 1.005
0.33006501 0.34062707 1.0040001
0.33314735 0.34198415 1.008
0.33491471 0.34198415 1.008
0.33668208 0.34198415 1.008
0.33844945 0.34198415 1.008
0.34021679 0.34198415 1.008
0.34232342 0.34232342 1.0090001
0.34375152 0.34198415 1.008
0.34414777 0.34062707 1.0040001
0.34556359 0.3402878 1.003
0.3473222 0.3402878 1.003
0.35082096 0.34198415 1.008
0.3536377 0.34300196 1.011
0.35505876 0.34266269 1.01
0.35788953 0.3436805 1.013
0.3607308 0.34469831 1.016
0.36251217 0.34469831 1.016
0.36429358 0.34469831 1.016
0.36643526 0.34503758 1.0170001
0.36821842 0.34503758 1.0170001
0.37036535 0.34537685 1.018
0.37215027 0.34537685 1.018
0.37320051 0.34469831 1.016
0.37461281 0.34435904 1.0150001
0.37639245 0.34435904 1.0150001
0.37817207 0.34435904 1.0150001
0.37995172 0.34435904 1.0150001
0.38173136 0.34435904 1.0150001
0.38464451 0.34537685 1.018
0.3864294 0.34537685 1.018
0.38821429 0.34537685 1.018
0.39114851 0.34639466 1.021
0.39255381 0.34605539 1.0200001
0.39511541 0.34673393 1.0220001
0.39651898 0.34639466 1.021
0.39830911 0.34639466 1.021
0.40009928 0.34639466 1.021
0.4030703 0.34741247 1.024
0.40447032 0.3470732 1.023
0.40626398 0.3470732 1.023
0.40845653 0.34741247 1.024
0.41025195 0.34741247 1.024
0.41164497 0.3470732 1.023
0.41343862 0.3470732 1.023
0.41644996 0.34809101 1.026
0.41865656 0.34843028 1.0270001
0.42045721 0.34843028 1.0270001
0.42266905 0.34876955 1.028
0.42447147 0.34876955 1.028
0.42627391 0.34876955 1.028
0.42890915 0.34944808 1.0300001
0.43113327 0.34978735 1.031
0.38464978 0.31077132 0.91600007
0.38625583 0.31077132 0.91600007
0.38870874 0.31144986 0.91800004
0.38946792 0.31077132 0.91600007
0.39107397 0.31077132 0.91600007
0.39225134 0.31043205 0.91500002
0.39213386 0.30907497 0.91100007
0.39157018 0.30737862 0.90600002
0.39359266 0.30771789 0.90700006
0.39387581 0.30670008 0.90400004
0.39327353 0.30500373 0.89900005
0.39397135 0.30432519 0.89700001
0.39378026 0.30296811 0.89300007
0.39490327 0.30262884 0.89200002
0.39602277 0.30228958 0.89100003
0.39758497 0.30228958 0.89100003
0.39825127 0.30161104 0.88900006
0.39801106 0.30025396 0.88500005
0.39820829 0.29923615 0.88200003
0.3979418 0.29787907 0.87800002
0.39902622 0.2975398 0.87700003
0.40193412 0.29855761 0.88000005
0.40347707 0.29855761 0.88000005
0.40548024 0.29889688 0.88100004
0.40702492 0.29889688 0.88100004
0.40810585 0.29855761 0.88000005
0.40964881 0.29855761 0.88000005
0.41119173 0.29855761 0.88000005
0.41273466 0.29855761 0.88000005
0.41427758 0.29855761 0.88000005
0.41582054 0.29855761 0.88000005
0.41736346 0.29855761 0.88000005
0.41890639 0.29855761 0.88000005
0.42044932 0.29855761 0.88000005
0.42199227 0.29855761 0.88000005
0.42401648 0.29889688 0.88100004
0.42652726 0.29957542 0.88300002
0.42856026 0.29991469 0.88400006
0.43059674 0.30025396 0.88500005
0.43214846 0.30025396 0.88500005
0.43370014 0.30025396 0.88500005
0.43574366 0.30059323 0.88600004
0.43680355 0.30025396 0.88500005
0.30626261 0.34136435 1.001
0.30832541 0.34170538 1.0020001
0.31008226 0.34170538 1.0020001
0.31121665 0.34102333 1
0.31265703 0.3406823 0.99900007
0.3144086 0.3406823 0.99900007
0.31647667 0.34102333 1
0.31791177 0.3406823 0.99900007
0.31966335 0.3406823 0.99900007
0.32141492 0.3406823 0.99900007
0.32348999 0.34102333 1
0.32621905 0.34204641 1.003
0.32765067 0.34170538 1.0020001
0.32907873 0.34136435 1.001
0.33116433 0.34170538 1.0020001
0.33391795 0.34272844 1.005
0.33568004 0.34272844 1.005
0.33744216 0.34272844 1.005
0.33920425 0.34272844 1.005
0.34096634 0.34272844 1.005
0.34272844 0.34272844 1.005
0.34414777 0.34238744 1.0040001
0.34556359 0.34204641 1.003
0.3473222 0.34204641 1.003
0.3501249 0.34306946 1.006
0.35293812 0.34409255 1.0090001
0.35470721 0.34409255 1.0090001
0.35753623 0.3451156 1.0120001
0.3593106 0.3451156 1.0120001
0.36108497 0.3451156 1.0120001
0.36393502 0.34613869 1.0150001
0.36607495 0.34647971 1.016
0.36821842 0.34682074 1.0170001
0.37036535 0.34716174 1.018
0.37215027 0.34716174 1.018
0.37356782 0.34682074 1.0170001
0.37498188 0.34647971 1.016
0.37676328 0.34647971 1.016
0.37817207 0.34613869 1.0150001
0.37995172 0.34613869 1.0150001
0.38173136 0.34613869 1.0150001
0.38464451 0.34716174 1.018
0.3864294 0.34716174 1.018
0.38821429 0.34716174 1.018
0.39114851 0.34818482 1.021
0.39255381 0.3478438 1.0200001
0.39511541 0.34852585 1.0220001
0.39574224 0.34750277 1.0190001
0.39713877 0.34716174 1.018
0.40009928 0.34818482 1.021
0.40188941 0.34818482 1.021
0.40367958 0.34818482 1.021
0.40626398 0.34886688 1.023
0.40725988 0.34818482 1.021
0.40905005 0.34818482 1.021
0.41164497 0.34886688 1.023
0.41343862 0.34886688 1.023
0.4152323 0.34886688 1.023
0.41702595 0.34886688 1.023
0.419229 0.34920788 1.024
0.42266905 0.35057199 1.028
0.42447147 0.35057199 1.028
0.42627391 0.35057199 1.028
0.42807633 0.35057199 1.028
0.43029693 0.35091302 1.029
0.38548961 0.31305942 0.91800004
0.38709918 0.31305942 0.91800004
0.38870874 0.31305942 0.91800004
0.38946792 0.31237736 0.91600007
0.39107397 0.31237736 0.91600007
0.39268005 0.31237736 0.91600007
0.3942861 0.31237736 0.91600007
0.39200237 0.30930817 0.90700006
0.39359266 0.30930817 0.90700006
0.39387581 0.30828509 0.90400004
0.39327353 0.30657998 0.89900005
0.39265373 0.30487487 0.89400005
0.39378026 0.30453384 0.89300007
0.39490327 0.30419281 0.89200002
0.39646724 0.30419281 0.89200002
0.39713877 0.30351076 0.89000005
0.39780328 0.30282873 0.88800007
0.39756131 0.30146462 0.88400006
0.39730534 0.30010054 0.88000005
0.3979418 0.29941848 0.87800002
0.39902622 0.29907745 0.87700003
0.40239087 0.30044156 0.88100004
0.40393555 0.30044156 0.88100004
0.40548024 0.30044156 0.88100004
0.40702492 0.30044156 0.88100004
0.40810585 0.30010054 0.88000005
0.40964881 0.30010054 0.88000005
0.41119173 0.30010054 0.88000005
0.41273466 0.30010054 0.88000005
0.41427758 0.30010054 0.88000005
0.41582054 0.30010054 0.88000005
0.41831201 0.30078259 0.88200003
0.41890639 0.30010054 0.88000005
0.42044932 0.30010054 0.88000005
0.42199227 0.30010054 0.88000005
0.42497906 0.30112359 0.88300002
0.42652726 0.30112359 0.88300002
0.42856026 0.30146462 0.88400006
0.43059674 0.30180565 0.88500005
0.43263674 0.30214667 0.88600004
0.43370014 0.30180565 0.88500005
0.43574366 0.30214667 0.88600004
0.43680355 0.30180565 0.88500005
0.30534476 0.34209111 0.99800003
0.30740228 0.3424339 0.99900007
0.30915385 0.3424339 0.99900007
0.3118391 0.34346223 1.0020001
0.31328297 0.34311944 1.001
0.31503806 0.34311944 1.001
0.31679314 0.34311944 1.001
0.31823 0.34277666 1
0.31966335 0.3424339 0.99900007
0.32141492 0.3424339 0.99900007
0.32316652 0.3424339 0.99900007
0.32621905 0.34380499 1.003
0.32666966 0.3424339 0.99900007
0.32809249 0.34209111 0.99800003
0.33083382 0.34311944 1.001
0.33258891 0.34311944 1.001
0.33467802 0.34346223 1.0020001
0.33643487 0.34346223 1.0020001
0.33920425 0.34449056 1.005
0.34096634 0.34449056 1.005
0.34272844 0.34449056 1.005
0.34414777 0.34414777 1.0040001
0.34556359 0.34380499 1.003
0.3473222 0.34380499 1.003
0.3501249 0.34483331 1.006
0.35188875 0.34483331 1.006
0.35470721 0.34586164 1.0090001
0.35753623 0.34688997 1.0120001
0.3593106 0.34688997 1.0120001
0.36108497 0.34688997 1.0120001
0.36285934 0.34688997 1.0120001
0.36607495 0.34826109 1.016
0.36713222 0.34757555 1.0140001
0.3692739 0.3479183 1.0150001
0.37105355 0.3479183 1.0150001
0.37246585 0.34757555 1.0140001
0.37424374 0.34757555 1.0140001
0.37602162 0.34757555 1.0140001
0.37742692 0.34723276 1.013
0.37920305 0.34723276 1.013
0.38097918 0.34723276 1.013
0.38388881 0.34826109 1.016
0.3864294 0.34894663 1.018
0.38821429 0.34894663 1.018
0.38923299 0.34826109 1.016
0.39101437 0.34826109 1.016
0.39434218 0.3496322 1.0200001
0.39651898 0.34997496 1.021
0.39752889 0.34928942 1.0190001
0.39892367 0.34894663 1.018
0.40188941 0.34997496 1.021
0.40367958 0.34997496 1.021
0.40586686 0.35031775 1.0220001
0.40725988 0.34997496 1.021
0.40905005 0.34997496 1.021
0.41164497 0.35066053 1.023
0.41343862 0.35066053 1.023
0.4152323 0.35066053 1.023
0.41743359 0.35100332 1.024
0.419229 0.35100332 1.024
0.4222579 0.35203165 1.0270001
0.42447147 0.3523744 1.028
0.42627391 0.3523744 1.028
0.42807633 0.3523744 1.028
0.43029693 0.35271719 1.029
0.38674939 0.31569731 0.92100006
0.3883642 0.31569731 0.92100006
0.38997903 0.31569731 0.92100006
0.3903183 0.31466898 0.91800004
0.39192787 0.31466898 0.91800004
0.39353743 0.31466898 0.91800004
0.39385566 0.31364065 0.91500002
0.39329895 0.31192675 0.91000003
0.39359266 0.31089842 0.90700006
0.39474723 0.31055567 0.90600002
0.39414847 0.30884176 0.90100002
0.39441058 0.30781344 0.89800006
0.39510316 0.30712789 0.89600003
0.39490327 0.30575678 0.89200002
0.39646724 0.30575678 0.89200002
0.39624631 0.30438569 0.88800007
0.39690733 0.30370012 0.88600004
0.39756131 0.30301458 0.88400006
0.39730534 0.30164346 0.88000005
0.3979418 0.30095792 0.87800002
0.39902622 0.30061513 0.87700003
0.40193412 0.30164346 0.88000005
0.40347707 0.30164346 0.88000005
0.40502 0.30164346 0.88000005
0.40656292 0.30164346 0.88000005
0.40810585 0.30164346 0.88000005
0.40964881 0.30164346 0.88000005
0.41119173 0.30164346 0.88000005
0.41273466 0.30164346 0.88000005
0.41474837 0.30198625 0.88100004
0.41629305 0.30198625 0.88100004
0.41783774 0.30198625 0.88100004
0.41938242 0.30198625 0.88100004
0.4214049 0.302329 0.88200003
0.42343086 0.30267179 0.88300002
0.42497906 0.30267179 0.88300002
0.42652726 0.30267179 0.88300002
0.42807546 0.30267179 0.88300002
0.43059674 0.30335736 0.88500005
0.43361336 0.30438569 0.88800007
0.43468025 0.30404291 0.88700002
0.43623546 0.30404291 0.88700002
0.43729711 0.30370012 0.88600004
0.30534476 0.34384093 0.99800003
0.30709457 0.34384093 0.99800003
0.30915385 0.34418547 0.99900007
0.31090546 0.34418547 0.99900007
0.31265703 0.34418547 0.99900007
0.3144086 0.34418547 0.99900007
0.3161602 0.34418547 0.99900007
0.31791177 0.34418547 0.99900007
0.31966335 0.34418547 0.99900007
0.32173666 0.34452999 1
0.32251954 0.34349641 0.99700004
0.32491809 0.34418547 0.99900007
0.32666966 0.34418547 0.99900007
0.32809249 0.34384093 0.99800003
0.33017284 0.34418547 0.99900007
0.33258891 0.34487453 1.001
0.334344 0.34487453 1.001
0.33643487 0.34521905 1.0020001
0.33819169 0.34521905 1.0020001
0.34062707 0.34590811 1.0040001
0.34238744 0.34590811 1.0040001
0.34414777 0.34590811 1.0040001
0.34556359 0.34556359 1.003
0.34766847 0.34590811 1.0040001
0.34873274 0.34521905 1.0020001
0.35188875 0.34659716 1.006
0.35470721 0.34763077 1.0090001
0.35612303 0.34728622 1.008
0.35824546 0.34763077 1.0090001
0.36108497 0.34866434 1.0120001
0.36285934 0.34866434 1.0120001
0.36463371 0.34866434 1.0120001
0.36640808 0.34866434 1.0120001
0.3689101 0.34935343 1.0140001
0.37105355 0.34969795 1.0150001
0.37246585 0.34935343 1.0140001
0.37424374 0.34935343 1.0140001
0.37602162 0.34935343 1.0140001
0.37742692 0.34900889 1.013
0.37920305 0.34900889 1.013
0.38097918 0.34900889 1.013
0.38275528 0.34900889 1.013
0.38529062 0.34969795 1.0150001
0.38821429 0.35073155 1.018
0.38884988 0.34969795 1.0150001
0.39101437 0.35004249 1.016
0.39434218 0.35142061 1.0200001
0.39651898 0.35176513 1.021
0.397919 0.35142061 1.0200001
0.39892367 0.35073155 1.018
0.40188941 0.35176513 1.021
0.40288883 0.35107607 1.0190001
0.40546972 0.35176513 1.021
0.40725988 0.35176513 1.021
0.40905005 0.35176513 1.021
0.41084018 0.35176513 1.021
0.41384277 0.35279873 1.024
0.4152323 0.35245419 1.023
0.41702595 0.35245419 1.023
0.419229 0.35279873 1.024
0.42102441 0.35279873 1.024
0.42405856 0.3538323 1.0270001
0.42461526 0.35279873 1.024
0.42682707 0.35314324 1.0250001
0.42904243 0.35348779 1.026
0.43126127 0.3538323 1.0270001
0.39005092 0.31869024 0.92500007
0.39209619 0.31903479 0.92600006
0.3903183 0.31627855 0.91800004
0.39192787 0.31627855 0.91800004
0.39353743 0.31627855 0.91800004
0.3942861 0.31558949 0.91600007
0.39459556 0.31455588 0.91300005
0.39402661 0.31283325 0.90800005
0.39561862 0.31283325 0.90800005
0.39414847 0.31042153 0.90100002
0.39441058 0.30938795 0.89800006
0.39510316 0.30869889 0.89600003
0.39490327 0.30732074 0.89200002
0.39602277 0.30697623 0.89100003
0.39580008 0.30559811 0.88700002
0.39645934 0.30490905 0.88500005
0.39711159 0.30421999 0.88300002
0.39730534 0.30318639 0.88000005
0.3979418 0.30249733 0.87800002
0.39948121 0.30249733 0.87800002
0.40193412 0.30318639 0.88000005
0.40393555 0.30353093 0.88100004
0.40502 0.30318639 0.88000005
0.40656292 0.30318639 0.88000005
0.40810585 0.30318639 0.88000005
0.40964881 0.30318639 0.88000005
0.41072446 0.30284187 0.87900007
0.41226566 0.30284187 0.87900007
0.41380683 0.30284187 0.87900007
0.41534799 0.30284187 0.87900007
0.41783774 0.30353093 0.88100004
0.41890639 0.30318639 0.88000005
0.42188269 0.30421999 0.88300002
0.42343086 0.30421999 0.88300002
0.42594165 0.30490905 0.88500005
0.4279764 0.30525357 0.88600004
0.42904505 0.30490905 0.88500005
0.43108329 0.30525357 0.88600004
0.43312505 0.30559811 0.88700002
0.43517032 0.30594262 0.88800007
0.43771091 0.30663168 0.89000005
0.43927136 0.30663168 0.89000005
0.30442688 0.34455192 0.99500006
0.30617145 0.34455192 0.99500006
0.30822548 0.34489819 0.99600005
0.30966058 0.34455192 0.99500006
0.31234404 0.34559077 0.99800003
0.3144086 0.34593704 0.99900007
0.31521076 0.34489819 0.99600005
0.31695709 0.34489819 0.99600005
0.31870338 0.34489819 0.99600005
0.32077146 0.34524447 0.99700004
0.32251954 0.34524447 0.99700004
0.32394236 0.34489819 0.99600005
0.32568869 0.34489819 0.99600005
0.32842124 0.34593704 0.99900007
0.33017284 0.34593704 0.99900007
0.33159214 0.34559077 0.99800003
0.33467802 0.34697589 1.0020001
0.33643487 0.34697589 1.0020001
0.33819169 0.34697589 1.0020001
0.33994853 0.34697589 1.0020001
0.34272844 0.34801474 1.005
0.34380499 0.3473222 1.003
0.34556359 0.3473222 1.003
0.3473222 0.3473222 1.003
0.3494288 0.34766847 1.0040001
0.35223854 0.34870732 1.0070001
0.3536526 0.34836105 1.006
0.35647634 0.34939989 1.0090001
0.35824546 0.34939989 1.0090001
0.36001456 0.34939989 1.0090001
0.36214224 0.34974617 1.01
0.36463371 0.35043874 1.0120001
0.36604604 0.35009244 1.011
0.36818245 0.35043874 1.0120001
0.37032241 0.35078502 1.013
0.37209854 0.35078502 1.013
0.37387466 0.35078502 1.013
0.37565079 0.35078502 1.013
0.37779951 0.35113129 1.0140001
0.37957737 0.35113129 1.0140001
0.380227 0.35009244 1.011
0.38199961 0.35009244 1.011
0.38377222 0.35009244 1.011
0.38592619 0.35043874 1.0120001
0.38770056 0.35043874 1.0120001
0.38947496 0.35043874 1.0120001
0.39279577 0.35182387 1.016
0.3949655 0.35217014 1.0170001
0.39674866 0.35217014 1.0170001
0.39931554 0.35286272 1.0190001
0.40070856 0.35251644 1.018
0.40209806 0.35217014 1.0170001
0.40626398 0.35424784 1.023
0.40725988 0.35355529 1.021
0.40905005 0.35355529 1.021
0.41084018 0.35355529 1.021
0.41384277 0.35459414 1.024
0.4152323 0.35424784 1.023
0.41702595 0.35424784 1.023
0.419229 0.35459414 1.024
0.42102441 0.35459414 1.024
0.42405856 0.35563299 1.0270001
0.42461526 0.35459414 1.024
0.42682707 0.35494041 1.0250001
0.42862424 0.35494041 1.0250001
0.43126127 0.35563299 1.0270001
0.39089426 0.32100466 0.92700005
0.39167276 0.32031208 0.92500007
0.39244422 0.31961951 0.92300004
0.39192787 0.31788811 0.91800004
0.39268005 0.31719553 0.91600007
0.3942861 0.31719553 0.91600007
0.39416337 0.31581041 0.91200006
0.39446056 0.31477156 0.90900004
0.39431152 0.31338641 0.90500003
0.39502338 0.31269383 0.90300006
0.39441058 0.31096244 0.89800006
0.39466217 0.30992359 0.89500004
0.39446056 0.30853844 0.89100003
0.39602277 0.30853844 0.89100003
0.39580008 0.30715331 0.88700002
0.39601138 0.30611446 0.88400006
0.39576238 0.30472934 0.88000005
0.39640236 0.30403677 0.87800002
0.3979418 0.30403677 0.87800002
0.40039119 0.30472934 0.88000005
0.4014774 0.30438304 0.87900007
0.40393555 0.30507562 0.88100004
0.40548024 0.30507562 0.88100004
0.40702492 0.30507562 0.88100004
0.40856963 0.30507562 0.88100004
0.40964881 0.30472934 0.88000005
0.41072446 0.30438304 0.87900007
0.41320369 0.30507562 0.88100004
0.41474837 0.30507562 0.88100004
0.41534799 0.30438304 0.87900007
0.41736346 0.30472934 0.88000005
0.41938242 0.30507562 0.88100004
0.42188269 0.30576819 0.88300002
0.42391041 0.30611446 0.88400006
0.42642292 0.30680704 0.88600004
0.4279764 0.30680704 0.88600004
0.43049943 0.30749959 0.88800007
0.43156984 0.30715331 0.88700002
0.43458995 0.30819216 0.89000005
0.43615043 0.30819216 0.89000005
0.43820271 0.30853844 0.89100003
0.43976492 0.30853844 0.89100003
0.303509 0.34525236 0.99200004
0.30524832 0.34525236 0.99200004
0.30698761 0.34525236 0.99200004
0.30841571 0.34490433 0.99100006
0.31077921 0.3456004 0.99300003
0.31314972 0.34629649 0.99500006
0.31489429 0.34629649 0.99500006
0.31663886 0.34629649 0.99500006
0.31806344 0.34594846 0.99400002
0.3194845 0.3456004 0.99300003
0.32219604 0.34664452 0.99600005
0.3236171 0.34629649 0.99500006
0.32536167 0.34629649 0.99500006
0.32743499 0.34664452 0.99600005
0.32984233 0.34734058 0.99800003
0.33159214 0.34734058 0.99800003
0.33367598 0.34768862 0.99900007
0.33643487 0.34873274 1.0020001
0.33819169 0.34873274 1.0020001
0.33994853 0.34873274 1.0020001
0.34170538 0.34873274 1.0020001
0.34414777 0.3494288 1.0040001
0.34590811 0.3494288 1.0040001
0.3473222 0.34908077 1.003
0.3494288 0.3494288 1.0040001
0.35118917 0.3494288 1.0040001
0.3529495 0.3494288 1.0040001
0.35576975 0.35047293 1.0070001
0.35753536 0.35047293 1.0070001
0.36037135 0.35151702 1.01
0.36178368 0.35116899 1.0090001
0.36463371 0.35221311 1.0120001
0.36604604 0.35186505 1.011
0.36818245 0.35221311 1.0120001
0.37032241 0.35256115 1.013
0.37246585 0.35290918 1.0140001
0.37387466 0.35256115 1.013
0.37565079 0.35256115 1.013
0.37779951 0.35290918 1.0140001
0.37957737 0.35290918 1.0140001
0.38060308 0.35221311 1.0120001
0.38199961 0.35186505 1.011
0.38377222 0.35186505 1.011
0.38592619 0.35221311 1.0120001
0.38808367 0.35256115 1.013
0.38947496 0.35221311 1.0120001
0.39240915 0.35325721 1.0150001
0.3949655 0.3539533 1.0170001
0.39635852 0.35360524 1.016
0.39931554 0.35464936 1.0190001
0.40070856 0.35430133 1.018
0.40209806 0.3539533 1.0170001
0.4050726 0.3549974 1.0200001
0.40686101 0.3549974 1.0200001
0.40864938 0.3549974 1.0200001
0.41084018 0.35534543 1.021
0.41263035 0.35534543 1.021
0.4152323 0.35604152 1.023
0.41743359 0.35638955 1.024
0.419229 0.35638955 1.024
0.42102441 0.35638955 1.024
0.42281982 0.35638955 1.024
0.42461526 0.35638955 1.024
0.42682707 0.35673758 1.0250001
0.42862424 0.35673758 1.0250001
0.43126127 0.35743365 1.0270001
0.39089426 0.32262999 0.92700005
0.39167276 0.32193393 0.92500007
0.39159384 0.32054177 0.92100006
0.39192787 0.31949764 0.91800004
0.39268005 0.31880158 0.91600007
0.3942861 0.31880158 0.91600007
0.39329895 0.31671336 0.91000003
0.39402661 0.3160173 0.90800005
0.39431152 0.31497318 0.90500003
0.39414847 0.31358105 0.90100002
0.39441058 0.31253693 0.89800006
0.39510316 0.31184086 0.89600003
0.39490327 0.31044871 0.89200002
0.39557829 0.30975264 0.89000005
0.39535388 0.30836049 0.88600004
0.39511541 0.30696833 0.88200003
0.39486295 0.30557621 0.87800002
0.39640236 0.30557621 0.87800002
0.39839503 0.30592424 0.87900007
0.40084618 0.3066203 0.88100004
0.40193412 0.30627227 0.88000005
0.40347707 0.30627227 0.88000005
0.40502 0.30627227 0.88000005
0.40702492 0.3066203 0.88100004
0.40856963 0.3066203 0.88100004
0.40964881 0.30627227 0.88000005
0.41072446 0.30592424 0.87900007
0.41320369 0.3066203 0.88100004
0.41474837 0.3066203 0.88100004
0.41534799 0.30592424 0.87900007
0.41736346 0.30627227 0.88000005
0.41938242 0.3066203 0.88100004
0.42283824 0.30801246 0.88500005
0.42486948 0.30836049 0.88600004
0.42642292 0.30836049 0.88600004
0.4279764 0.30836049 0.88600004
0.42952985 0.30836049 0.88600004
0.43108329 0.30836049 0.88600004
0.43361336 0.30905655 0.88800007
0.43468025 0.30870852 0.88700002
0.43771091 0.30975264 0.89000005
0.43976492 0.31010067 0.89100003
0.30320305 0.3466419 0.99100006
0.30494061 0.3466419 0.99100006
0.30667818 0.3466419 0.99100006
0.30841571 0.3466419 0.99100006
0.31015328 0.3466419 0.99100006
0.31252027 0.34734148 0.99300003
0.31426132 0.34734148 0.99300003
0.31568417 0.34699169 0.99200004
0.31742346 0.34699169 0.99200004
0.3194845 0.34734148 0.99300003
0.32122555 0.34734148 0.99300003
0.3236171 0.34804106 0.99500006
0.32536167 0.34804106 0.99500006
0.32743499 0.34839085 0.99600005
0.32885081 0.34804106 0.99500006
0.33159214 0.34909043 0.99800003
0.33334199 0.34909043 0.99800003
0.33542758 0.34944022 0.99900007
0.33819169 0.35048959 1.0020001
0.33994853 0.35048959 1.0020001
0.34170538 0.35048959 1.0020001
0.34414777 0.35118917 1.0040001
0.34590811 0.35118917 1.0040001
0.34766847 0.35118917 1.0040001
0.3494288 0.35118917 1.0040001
0.35118917 0.35118917 1.0040001
0.3529495 0.35118917 1.0040001
0.35470986 0.35118917 1.0040001
0.35753536 0.35223854 1.0070001
0.35894415 0.35188875 1.006
0.360708 0.35188875 1.006
0.36355278 0.35293812 1.0090001
0.3653219 0.35293812 1.0090001
0.367091 0.35293812 1.0090001
0.36886013 0.35293812 1.0090001
0.37283319 0.35503685 1.0150001
0.37461281 0.35503685 1.0150001
0.37565079 0.35433728 1.013
0.37779951 0.35468706 1.0140001
0.37845436 0.3536377 1.011
0.380227 0.3536377 1.011
0.38275528 0.35433728 1.013
0.38415182 0.35398749 1.0120001
0.38668889 0.35468706 1.0140001
0.38808367 0.35433728 1.013
0.38947496 0.35398749 1.0120001
0.39202255 0.35468706 1.0140001
0.39380041 0.35468706 1.0140001
0.39557829 0.35468706 1.0140001
0.39853179 0.35573643 1.0170001
0.40188941 0.35713559 1.021
0.40367958 0.35713559 1.021
0.40467545 0.35643601 1.0190001
0.40686101 0.3567858 1.0200001
0.40864938 0.3567858 1.0200001
0.41084018 0.35713559 1.021
0.41263035 0.35713559 1.021
0.4152323 0.35783517 1.023
0.41743359 0.35818496 1.024
0.419229 0.35818496 1.024
0.42102441 0.35818496 1.024
0.42281982 0.35818496 1.024
0.42461526 0.35818496 1.024
0.42682707 0.35853475 1.0250001
0.42862424 0.35853475 1.0250001
0.43042141 0.35853475 1.0250001
0.39047259 0.32390553 0.92600006
0.39124933 0.32320595 0.92400002
0.39116865 0.32180679 0.92000002
0.39150092 0.32075742 0.91700006
0.39268005 0.32040763 0.91600007
0.3942861 0.32040763 0.91600007
0.39373115 0.31865868 0.91100007
0.39446056 0.3179591 0.90900004
0.39474723 0.31690973 0.90600002
0.39414847 0.31516078 0.90100002
0.39441058 0.31411141 0.89800006
0.39510316 0.31341183 0.89600003
0.39534599 0.31236246 0.89300007
0.39557829 0.31131309 0.89000005
0.39490765 0.30956414 0.88500005
0.39511541 0.30851477 0.88200003
0.3944132 0.30676582 0.87700003
0.39595088 0.30676582 0.87700003
0.3979418 0.30711561 0.87800002
0.40084618 0.30816498 0.88100004
0.4014774 0.3074654 0.87900007
0.40256009 0.30711561 0.87800002
0.40409949 0.30711561 0.87800002
0.40610093 0.3074654 0.87900007
0.4076421 0.3074654 0.87900007
0.40871778 0.30711561 0.87800002
0.41025719 0.30711561 0.87800002
0.41273466 0.30781519 0.88000005
0.41474837 0.30816498 0.88100004
0.41629305 0.30816498 0.88100004
0.41878629 0.30886456 0.88300002
0.42128655 0.30956414 0.88500005
0.42283824 0.30956414 0.88500005
0.42438996 0.30956414 0.88500005
0.42594165 0.30956414 0.88500005
0.42749333 0.30956414 0.88500005
0.42952985 0.30991393 0.88600004
0.43156984 0.31026372 0.88700002
0.43361336 0.31061351 0.88800007
0.43468025 0.31026372 0.88700002
0.43771091 0.31131309 0.89000005
0.43927136 0.31131309 0.89000005
0.30228519 0.34732482 0.98800004
0.30401748 0.34732482 0.98800004
0.30574977 0.34732482 0.98800004
0.30841571 0.34837943 0.99100006
0.31015328 0.34837943 0.99100006
0.31220555 0.34873098 0.99200004
0.31426132 0.34908253 0.99300003
0.31568417 0.34873098 0.99200004
0.31742346 0.34873098 0.99200004
0.31916279 0.34873098 0.99200004
0.32154906 0.34943408 0.99400002
0.32394236 0.35013714 0.99600005
0.32503468 0.34943408 0.99400002
0.32677749 0.34943408 0.99400002
0.3285203 0.34943408 0.99400002
0.32993087 0.34908253 0.99300003
0.33167192 0.34908253 0.99300003
0.33408451 0.34978563 0.99500006
0.33684164 0.35084024 0.99800003
0.33960927 0.35189489 1.001
0.34136435 0.35189489 1.001
0.34277666 0.35154334 1
0.34556359 0.35259795 1.003
0.3473222 0.35259795 1.003
0.34873274 0.3522464 1.0020001
0.35083938 0.35259795 1.003
0.35259795 0.35259795 1.003
0.35435656 0.35259795 1.003
0.35611516 0.35259795 1.003
0.35787374 0.35259795 1.003
0.360708 0.3536526 1.006
0.36355278 0.35470721 1.0090001
0.3653219 0.35470721 1.0090001
0.36745483 0.35505876 1.01
0.36922571 0.35505876 1.01
0.37136388 0.35541031 1.011
0.37461281 0.35681647 1.0150001
0.37602162 0.35646495 1.0140001
0.37817207 0.35681647 1.0150001
0.3788287 0.35576186 1.0120001
0.38060308 0.35576186 1.0120001
0.38313314 0.35646495 1.0140001
0.38453141 0.3561134 1.013
0.38707024 0.35681647 1.0150001
0.38846678 0.35646495 1.0140001
0.3898598 0.3561134 1.013
0.39279577 0.35716802 1.016
0.39457715 0.35716802 1.016
0.39752889 0.35822266 1.0190001
0.39892367 0.35787112 1.018
0.40228304 0.35927728 1.0220001
0.40367958 0.35892573 1.021
0.40467545 0.35822266 1.0190001
0.40686101 0.35857421 1.0200001
0.40864938 0.35857421 1.0200001
0.41084018 0.35892573 1.021
0.41263035 0.35892573 1.021
0.4152323 0.35962883 1.023
0.41702595 0.35962883 1.023
0.41881961 0.35962883 1.023
0.42102441 0.35998037 1.024
0.42281982 0.35998037 1.024
0.42461526 0.35998037 1.024
0.42641068 0.35998037 1.024
0.42862424 0.36033192 1.0250001
0.43042141 0.36033192 1.0250001
0.39005092 0.32517758 0.92500007
0.39124933 0.32482603 0.92400002
0.39074349 0.32306832 0.91900003
0.39107397 0.32201371 0.91600007
0.39310873 0.32236522 0.91700006
0.3942861 0.32201371 0.91600007
0.39373115 0.32025596 0.91100007
0.39446056 0.3195529 0.90900004
0.39518291 0.3188498 0.90700006
0.393711 0.31638899 0.90000004
0.39397135 0.31533438 0.89700001
0.39422122 0.31427974 0.89400005
0.3957887 0.31427974 0.89400005
0.39602277 0.31322512 0.89100003
0.39490765 0.31111586 0.88500005
0.39556339 0.31041276 0.88300002
0.39531267 0.3090066 0.87900007
0.39640236 0.30865505 0.87800002
0.39839503 0.3090066 0.87900007
0.40039119 0.30935812 0.88000005
0.40102065 0.30865505 0.87800002
0.40164307 0.30795196 0.87600005
0.40409949 0.30865505 0.87800002
0.40610093 0.3090066 0.87900007
0.4076421 0.3090066 0.87900007
0.40964881 0.30935812 0.88000005
0.411659 0.30970967 0.88100004
0.41320369 0.30970967 0.88100004
0.41616067 0.31076431 0.88400006
0.41771063 0.31076431 0.88400006
0.41926056 0.31076431 0.88400006
0.42081052 0.31076431 0.88400006
0.42236045 0.31076431 0.88400006
0.42391041 0.31076431 0.88400006
0.42546037 0.31076431 0.88400006
0.4270103 0.31076431 0.88400006
0.42904505 0.31111586 0.88500005
0.43156984 0.31181893 0.88700002
0.43312505 0.31181893 0.88700002
0.43468025 0.31181893 0.88700002
0.43771091 0.31287357 0.89000005
0.4387778 0.31252202 0.88900006
0.30197921 0.3487038 0.98700005
0.30370978 0.3487038 0.98700005
0.30574977 0.34905711 0.98800004
0.30717084 0.3487038 0.98700005
0.3089014 0.3487038 0.98700005
0.31189081 0.350117 0.99100006
0.31426132 0.35082358 0.99300003
0.3160024 0.35082358 0.99300003
0.31742346 0.3504703 0.99200004
0.31884104 0.350117 0.99100006
0.32090208 0.3504703 0.99200004
0.32329187 0.35117689 0.99400002
0.32503468 0.35117689 0.99400002
0.32677749 0.35117689 0.99400002
0.3285203 0.35117689 0.99400002
0.32926637 0.350117 0.99100006
0.3310039 0.350117 0.99100006
0.33374876 0.35117689 0.99400002
0.33549157 0.35117689 0.99400002
0.33859146 0.35259008 0.99800003
0.34170538 0.35400325 1.0020001
0.34346223 0.35400325 1.0020001
0.34452999 0.35329667 1
0.3473222 0.35435656 1.003
0.34873274 0.35400325 1.0020001
0.35083938 0.35435656 1.003
0.35259795 0.35435656 1.003
0.35470986 0.35470986 1.0040001
0.3564702 0.35470986 1.0040001
0.35823053 0.35470986 1.0040001
0.35963234 0.35435656 1.003
0.36283216 0.35576975 1.0070001
0.36459777 0.35576975 1.0070001
0.36636338 0.35576975 1.0070001
0.36922571 0.35682964 1.01
0.37136388 0.35718292 1.011
0.37424374 0.35824281 1.0140001
0.37602162 0.35824281 1.0140001
0.37817207 0.35859612 1.0150001
0.37995172 0.35859612 1.0150001
0.38135526 0.35824281 1.0140001
0.38313314 0.35824281 1.0140001
0.38491103 0.35824281 1.0140001
0.38707024 0.35859612 1.0150001
0.38846678 0.35824281 1.0140001
0.39024466 0.35824281 1.0140001
0.39318237 0.3593027 1.0170001
0.39457715 0.35894942 1.016
0.397919 0.36036259 1.0200001
0.39892367 0.35965601 1.018
0.40188941 0.3607159 1.021
0.40367958 0.3607159 1.021
0.40546972 0.3607159 1.021
0.40686101 0.36036259 1.0200001
0.40905005 0.3607159 1.021
0.41084018 0.3607159 1.021
0.41384277 0.36177579 1.024
0.4152323 0.36142248 1.023
0.41702595 0.36142248 1.023
0.41881961 0.36142248 1.023
0.4222579 0.36283568 1.0270001
0.42405856 0.36283568 1.0270001
0.42585924 0.36283568 1.0270001
0.42641068 0.36177579 1.024
0.42820609 0.36177579 1.024
0.38926893 0.32750601 0.92700005
0.3887859 0.32573953 0.92200005
0.3908259 0.32609281 0.92300004
0.3903183 0.32432634 0.91800004
0.39064705 0.32326645 0.91500002
0.39268005 0.32361975 0.91600007
0.3942861 0.32361975 0.91600007
0.39373115 0.32185325 0.91100007
0.39446056 0.32114667 0.90900004
0.39518291 0.32044008 0.90700006
0.39502338 0.31902689 0.90300006
0.3957282 0.3183203 0.90100002
0.39510316 0.3165538 0.89600003
0.3957887 0.31584722 0.89400005
0.39602277 0.31478733 0.89100003
0.39669254 0.31408074 0.88900006
0.39690733 0.31302086 0.88600004
0.39711159 0.31196097 0.88300002
0.39640236 0.31019446 0.87800002
0.39884827 0.31090108 0.88000005
0.40084618 0.31125435 0.88100004
0.4014774 0.31054777 0.87900007
0.40164307 0.30948788 0.87600005
0.40409949 0.31019446 0.87800002
0.40610093 0.31054777 0.87900007
0.4076421 0.31054777 0.87900007
0.41104531 0.31196097 0.88300002
0.41259351 0.31196097 0.88300002
0.41367269 0.31160766 0.88200003
0.41568992 0.31196097 0.88300002
0.41723809 0.31196097 0.88300002
0.41926056 0.31231424 0.88400006
0.42081052 0.31231424 0.88400006
0.42236045 0.31231424 0.88400006
0.42391041 0.31231424 0.88400006
0.42546037 0.31231424 0.88400006
0.4270103 0.31231424 0.88400006
0.42904505 0.31266755 0.88500005
0.43108329 0.31302086 0.88600004
0.43312505 0.31337413 0.88700002
0.43468025 0.31337413 0.88700002
0.43721908 0.31408074 0.88900006
0.4387778 0.31408074 0.88900006
0.30106136 0.3493692 0.98400003
0.30340207 0.3500793 0.98600006
0.30544031 0.35043433 0.98700005
0.30717084 0.35043433 0.98700005
0.30921435 0.3507894 0.98800004
0.31094664 0.3507894 0.98800004
0.3133119 0.3514995 0.99000007
0.31536594 0.35185453 0.99100006
0.31806344 0.3529197 0.99400002
0.3194845 0.35256463 0.99300003
0.32154906 0.3529197 0.99400002
0.32296664 0.35256463 0.99300003
0.3243807 0.3522096 0.99200004
0.32644874 0.35256463 0.99300003
0.32785931 0.3522096 0.99200004
0.32926637 0.35185453 0.99100006
0.3310039 0.35185453 0.99100006
0.33341298 0.35256463 0.99300003
0.33549157 0.3529197 0.99400002
0.33859146 0.3543399 0.99800003
0.34170538 0.3557601 1.0020001
0.34346223 0.3557601 1.0020001
0.34452999 0.35505 1
0.34628332 0.35505 1
0.34908077 0.35611516 1.003
0.35118917 0.3564702 1.0040001
0.3529495 0.3564702 1.0040001
0.35470986 0.3564702 1.0040001
0.35611516 0.35611516 1.003
0.35823053 0.3564702 1.0040001
0.35963234 0.35611516 1.003
0.36283216 0.35753536 1.0070001
0.36459777 0.35753536 1.0070001
0.36636338 0.35753536 1.0070001
0.36812899 0.35753536 1.0070001
0.37136388 0.35895556 1.011
0.37424374 0.3600207 1.0140001
0.37602162 0.3600207 1.0140001
0.37817207 0.36037576 1.0150001
0.37995172 0.36037576 1.0150001
0.38135526 0.3600207 1.0140001
0.38313314 0.3600207 1.0140001
0.38491103 0.3600207 1.0140001
0.38707024 0.36037576 1.0150001
0.38884988 0.36037576 1.0150001
0.39024466 0.3600207 1.0140001
0.39356896 0.3614409 1.018
0.39574224 0.36179596 1.0190001
0.39752889 0.36179596 1.0190001
0.40009928 0.36250606 1.021
0.40149578 0.362151 1.0200001
0.40328419 0.362151 1.0200001
0.4050726 0.362151 1.0200001
0.40725988 0.36250606 1.021
0.40864938 0.362151 1.0200001
0.41084018 0.36250606 1.021
0.41384277 0.3635712 1.024
0.41563818 0.3635712 1.024
0.41702595 0.36321616 1.023
0.42004782 0.3642813 1.026
0.4222579 0.36463636 1.0270001
0.42405856 0.36463636 1.0270001
0.42710322 0.3657015 1.0300001
0.42765993 0.36463636 1.0270001
0.42946059 0.36463636 1.0270001
0.38926893 0.32913134 0.92700005
0.3887859 0.3273561 0.92200005
0.3895556 0.326646 0.92000002
0.38904274 0.32487074 0.91500002
0.38979319 0.32416064 0.91300005
0.39225134 0.32487074 0.91500002
0.39385566 0.32487074 0.91500002
0.39459556 0.32416064 0.91300005
0.39446056 0.32274044 0.90900004
0.39649004 0.3230955 0.91000003
0.39589828 0.32132024 0.90500003
0.3957282 0.31990004 0.90100002
0.39510316 0.3181248 0.89600003
0.39446056 0.31634954 0.89100003
0.39513382 0.31563944 0.88900006
0.39580008 0.31492934 0.88700002
0.39690733 0.3145743 0.88600004
0.39756131 0.3138642 0.88400006
0.39775681 0.31279904 0.88100004
0.39975473 0.3131541 0.88200003
0.40084618 0.31279904 0.88100004
0.40193412 0.312444 0.88000005
0.40256009 0.3117339 0.87800002
0.40409949 0.3117339 0.87800002
0.40610093 0.31208894 0.87900007
0.4076421 0.31208894 0.87900007
0.41057983 0.3131541 0.88200003
0.41259351 0.31350914 0.88300002
0.41367269 0.3131541 0.88200003
0.41568992 0.31350914 0.88300002
0.41723809 0.31350914 0.88300002
0.41926056 0.3138642 0.88400006
0.42081052 0.3138642 0.88400006
0.42236045 0.3138642 0.88400006
0.42295134 0.3131541 0.88200003
0.42449778 0.3131541 0.88200003
0.4270103 0.3138642 0.88400006
0.42904505 0.31421924 0.88500005
0.43108329 0.3145743 0.88600004
0.43263674 0.3145743 0.88600004
0.43468025 0.31492934 0.88700002
0.43721908 0.31563944 0.88900006
0.4387778 0.31563944 0.88900006
0.30167326 0.35180807 0.98600006
0.30370978 0.35216489 0.98700005
0.30513084 0.35180807 0.98600006
0.30748206 0.35252169 0.98800004
0.30921435 0.35252169 0.98800004
0.31126139 0.35287848 0.98900002
0.31299543 0.35287848 0.98900002
0.31536594 0.3535921 0.99100006
0.31710348 0.3535921 0.99100006
0.31851929 0.3532353 0.99000007
0.32122555 0.35430571 0.99300003
0.32264137 0.35394889 0.99200004
0.3243807 0.35394889 0.99200004
0.32644874 0.35430571 0.99300003
0.32785931 0.35394889 0.99200004
0.32926637 0.3535921 0.99100006
0.3310039 0.3535921 0.99100006
0.33341298 0.35430571 0.99300003
0.33549157 0.35466251 0.99400002
0.33825219 0.35573292 0.99700004
0.34170538 0.35751694 1.0020001
0.34311944 0.35716012 1.001
0.34452999 0.35680333 1
0.34662962 0.35716012 1.001
0.34838471 0.35716012 1.001
0.35153896 0.35858735 1.005
0.35330105 0.35858735 1.005
0.35470986 0.35823053 1.0040001
0.3564702 0.35823053 1.0040001
0.35858735 0.35858735 1.005
0.35999089 0.35823053 1.0040001
0.36211154 0.35858735 1.005
0.36495984 0.35965776 1.008
0.36636338 0.35930094 1.0070001
0.36812899 0.35930094 1.0070001
0.37099656 0.36037135 1.01
0.37424374 0.36179858 1.0140001
0.37639245 0.36215538 1.0150001
0.37817207 0.36215538 1.0150001
0.37957737 0.36179858 1.0140001
0.38097918 0.36144176 1.013
0.38313314 0.36179858 1.0140001
0.38453141 0.36144176 1.013
0.38707024 0.36215538 1.0150001
0.38846678 0.36179858 1.0140001
0.38947496 0.36108497 1.0120001
0.39356896 0.36322579 1.018
0.3949655 0.36286899 1.0170001
0.39830911 0.3642962 1.021
0.40009928 0.3642962 1.021
0.40149578 0.3639394 1.0200001
0.40328419 0.3639394 1.0200001
0.40626398 0.36500981 1.023
0.40725988 0.3642962 1.021
0.41025195 0.36536661 1.024
0.41204736 0.36536661 1.024
0.41384277 0.36536661 1.024
0.41563818 0.36536661 1.024
0.41865656 0.36643702 1.0270001
0.42045721 0.36643702 1.0270001
0.42349136 0.36750743 1.0300001
0.42529729 0.36750743 1.0300001
0.42834723 0.36857784 1.033
0.43015841 0.36857784 1.033
0.43238777 0.36893463 1.034
0.43546051 0.37000504 1.0370001
0.38541248 0.32611823 0.91400003
0.38743845 0.32647505 0.91500002
0.38861758 0.32611823 0.91400003
0.38936624 0.32540464 0.91200006
0.39139396 0.32576144 0.91300005
0.3934252 0.32611823 0.91400003
0.39459556 0.32576144 0.91300005
0.39532846 0.32504782 0.91100007
0.39649004 0.32469103 0.91000003
0.39546081 0.32255021 0.90400004
0.39616743 0.32183659 0.90200007
0.39422122 0.31898218 0.89400005
0.39490327 0.31826857 0.89200002
0.39513382 0.31719816 0.88900006
0.39535388 0.31612775 0.88600004
0.39690733 0.31612775 0.88600004
0.39801106 0.31577095 0.88500005
0.39775681 0.31434372 0.88100004
0.39975473 0.31470054 0.88200003
0.40175617 0.31505734 0.88300002
0.40284762 0.31470054 0.88200003
0.40301856 0.31363013 0.87900007
0.40409949 0.31327331 0.87800002
0.40610093 0.31363013 0.87900007
0.40810585 0.31398693 0.88000005
0.41057983 0.31470054 0.88200003
0.41306078 0.31541413 0.88400006
0.41461074 0.31541413 0.88400006
0.41616067 0.31541413 0.88400006
0.41818315 0.31577095 0.88500005
0.41926056 0.31541413 0.88400006
0.42081052 0.31541413 0.88400006
0.42236045 0.31541413 0.88400006
0.42247179 0.31434372 0.88100004
0.42449778 0.31470054 0.88200003
0.4270103 0.31541413 0.88400006
0.42904505 0.31577095 0.88500005
0.43108329 0.31612775 0.88600004
0.43263674 0.31612775 0.88600004
0.43419021 0.31612775 0.88600004
0.43672729 0.31684136 0.88800007
0.43828425 0.31684136 0.88800007
0.30167326 0.35353687 0.98600006
0.30370978 0.35389543 0.98700005
0.30544031 0.35389543 0.98700005
0.30717084 0.35389543 0.98700005
0.3089014 0.35389543 0.98700005
0.31094664 0.35425398 0.98800004
0.31267893 0.35425398 0.98800004
0.31472948 0.35461253 0.98900002
0.3164635 0.35461253 0.98900002
0.31787583 0.35425398 0.98800004
0.32057858 0.35532966 0.99100006
0.32264137 0.35568821 0.99200004
0.3243807 0.35568821 0.99200004
0.32644874 0.35604677 0.99300003
0.32818982 0.35604677 0.99300003
0.32959861 0.35568821 0.99200004
0.33133793 0.35568821 0.99200004
0.33374876 0.35640532 0.99400002
0.33549157 0.35640532 0.99400002
0.33859146 0.35783955 0.99800003
0.34170538 0.35927379 1.0020001
0.34346223 0.35927379 1.0020001
0.34452999 0.35855666 1
0.34662962 0.35891521 1.001
0.34803668 0.35855666 1
0.3501398 0.35891521 1.001
0.3529495 0.35999089 1.0040001
0.35470986 0.35999089 1.0040001
0.35682526 0.36034945 1.005
0.35858735 0.36034945 1.005
0.35999089 0.35999089 1.0040001
0.36211154 0.36034945 1.005
0.36495984 0.36142513 1.008
0.3667272 0.36142513 1.008
0.36959127 0.36250079 1.011
0.37099656 0.36214224 1.01
0.37424374 0.36357647 1.0140001
0.37602162 0.36357647 1.0140001
0.37742692 0.36321789 1.013
0.37920305 0.36321789 1.013
0.38135526 0.36357647 1.0140001
0.38351098 0.36393502 1.0150001
0.38604981 0.36465213 1.0170001
0.38783294 0.36465213 1.0170001
0.38884988 0.36393502 1.0150001
0.39024466 0.36357647 1.0140001
0.39318237 0.36465213 1.0170001
0.39613059 0.36572781 1.0200001
0.39869922 0.36644492 1.0220001
0.40088302 0.36680347 1.023
0.40267667 0.36680347 1.023
0.40328419 0.36572781 1.0200001
0.40546972 0.36608636 1.021
0.40805766 0.36680347 1.023
0.40985131 0.36680347 1.023
0.41164497 0.36680347 1.023
0.41505522 0.3682377 1.0270001
0.41685587 0.3682377 1.0270001
0.4198795 0.36931336 1.0300001
0.42209482 0.36967191 1.031
0.425136 0.3707476 1.034
0.42694893 0.3707476 1.034
0.42876187 0.3707476 1.034
0.43057483 0.3707476 1.034
0.4336423 0.37182325 1.0370001
0.38422984 0.32807934 0.91500002
0.38583416 0.32807934 0.91500002
0.38743845 0.32807934 0.91500002
0.38861758 0.32772079 0.91400003
0.38979319 0.32736224 0.91300005
0.39182267 0.32772079 0.91400003
0.39299476 0.32736224 0.91300005
0.39416337 0.32700369 0.91200006
0.39576238 0.32700369 0.91200006
0.39605433 0.325928 0.90900004
0.39502338 0.32377666 0.90300006
0.39616743 0.32341811 0.90200007
0.39422122 0.32054967 0.89400005
0.39490327 0.31983253 0.89200002
0.39513382 0.31875688 0.88900006
0.39535388 0.31768119 0.88600004
0.39735529 0.31803977 0.88700002
0.39801106 0.31732264 0.88500005
0.39911127 0.31696409 0.88400006
0.4015677 0.31768119 0.88600004
0.40357614 0.31803977 0.88700002
0.40421784 0.31732264 0.88500005
0.40347707 0.31552985 0.88000005
0.40409949 0.31481275 0.87800002
0.40610093 0.3151713 0.87900007
0.40903339 0.31624699 0.88200003
0.41057983 0.31624699 0.88200003
0.41446257 0.31803977 0.88700002
0.41554877 0.31768119 0.88600004
0.41710222 0.31768119 0.88600004
0.41818315 0.31732264 0.88500005
0.41973484 0.31732264 0.88500005
0.42128655 0.31732264 0.88500005
0.42331603 0.31768119 0.88600004
0.42391041 0.31696409 0.88400006
0.42594165 0.31732264 0.88500005
0.42845944 0.31803977 0.88700002
0.43001464 0.31803977 0.88700002
0.43108329 0.31768119 0.88600004
0.43214846 0.31732264 0.88500005
0.43370014 0.31732264 0.88500005
0.43525186 0.31732264 0.88500005
0.43729711 0.31768119 0.88600004
0.30167326 0.35526565 0.98600006
0.30370978 0.35562596 0.98700005
0.30544031 0.35562596 0.98700005
