# .PCD v0.7 - Point Cloud Data file format
VERSION 0.7
FIELDS x y z
SIZE 4 4 4
TYPE F F F
COUNT 1 1 1
WIDTH 1383
HEIGHT 1
VIEWPOINT 0 0 0 1 0 0 0
POINTS 1383
DATA ascii
0.072405651 0.036609601 0.92800003
0.073952973 0.03657015 0.92700005
0.10685252 0.05061435 1.2830001
0.10918708 0.0506538 1.284
-0.035246383 0.038525116 0.93500006
-0.033607017 0.038525116 0.93500006
-0.031967651 0.038525116 0.93500006
-0.030328283 0.038525116 0.93500006
-0.028688917 0.038525116 0.93500006
-0.020601667 0.038731132 0.94000006
-0.018933371 0.03868993 0.93900007
-0.01728699 0.03868993 0.93900007
-0.015607296 0.038607523 0.93700004
-0.013964423 0.038607523 0.93700004
-0.012321549 0.038607523 0.93700004
-0.010610296 0.038360301 0.93100005
-0.0089297267 0.038154285 0.92600006
-0.0072509102 0.037865862 0.91900003
-0.0056273234 0.037783455 0.91700006
-0.0040019834 0.037618645 0.91300005
-0.00239593 0.037536237 0.91100007
-0.00079601334 0.037412625 0.90800005
0.00079776667 0.037495032 0.91000003
0.0023880401 0.037412625 0.90800005
0.0039669168 0.037289016 0.90500003
0.0055352733 0.037165407 0.90200007
0.0071167802 0.037165407 0.90200007
0.0086886436 0.037124202 0.90100002
0.010268397 0.037124202 0.90100002
0.01184815 0.037124202 0.90100002
0.013383193 0.037000593 0.89800006
0.014957687 0.037000593 0.89800006
0.016532179 0.037000593 0.89800006
0.018106673 0.037000593 0.89800006
0.019659249 0.036959391 0.89700001
0.02120832 0.036918186 0.89600003
0.022753883 0.036876984 0.89500004
0.024323117 0.036876984 0.89500004
0.025892349 0.036876984 0.89500004
0.027492266 0.036918186 0.89600003
0.029063253 0.036918186 0.89600003
0.030634239 0.036918186 0.89600003
0.032205228 0.036918186 0.89600003
0.033738516 0.036876984 0.89500004
0.03530775 0.036876984 0.89500004
0.036876984 0.036876984 0.89500004
0.038446218 0.036876984 0.89500004
0.04010487 0.036959391 0.89700001
0.041631147 0.036918186 0.89600003
0.043202132 0.036918186 0.89600003
0.04492303 0.037041798 0.89900005
0.046499275 0.037041798 0.89900005
0.048129 0.037083 0.90000004
0.049817462 0.037165407 0.90200007
0.051398966 0.037165407 0.90200007
0.052980471 0.037165407 0.90200007
0.054622471 0.037206609 0.90300006
0.056330215 0.037289016 0.90500003
0.058108974 0.037412625 0.90800005
0.05989825 0.037536237 0.91100007
0.061495535 0.037536237 0.91100007
0.06309282 0.037536237 0.91100007
0.064832129 0.037618645 0.91300005
0.066723973 0.037783455 0.91700006
0.06877888 0.038030677 0.92300004
0.070778556 0.038236693 0.92800003
0.072405651 0.038236693 0.92800003
0.10052649 0.05080371 1.233
0.10651939 0.052699063 1.279
0.10893197 0.05278147 1.281
-0.020601667 0.040379267 0.94000006
-0.018933371 0.040336311 0.93900007
-0.01728699 0.040336311 0.93900007
-0.015657267 0.040379267 0.94000006
-0.013964423 0.040250398 0.93700004
-0.0123347 0.040293355 0.93800002
-0.01066728 0.040207438 0.93600005
-0.0089875869 0.040035613 0.93200004
-0.00724302 0.039434221 0.91800004
-0.00561505 0.039305348 0.91500002
-0.0039976002 0.039176479 0.91200006
-0.0023985601 0.039176479 0.91200006
-0.00079776667 0.039090566 0.91000003
0.00079776667 0.039090566 0.91000003
0.0023932999 0.039090566 0.91000003
0.0039756834 0.038961697 0.90700006
0.0055659567 0.038961697 0.90700006
0.0071167802 0.038746912 0.90200007
0.0086789997 0.038660999 0.90000004
0.010257 0.038660999 0.90000004
0.011835 0.038660999 0.90000004
0.013413 0.038660999 0.90000004
0.014991 0.038660999 0.90000004
0.016532179 0.038575087 0.89800006
0.018106673 0.038575087 0.89800006
0.019659249 0.03853213 0.89700001
0.02120832 0.038489174 0.89600003
0.022779306 0.038489174 0.89600003
0.024295939 0.038403261 0.89400005
0.025892349 0.038446218 0.89500004
0.027492266 0.038489174 0.89600003
0.029063253 0.038489174 0.89600003
0.030634239 0.038489174 0.89600003
0.032277115 0.038575087 0.89800006
0.033851605 0.038575087 0.89800006
0.035426099 0.038575087 0.89800006
0.037000593 0.038575087 0.89800006
0.038575087 0.038575087 0.89800006
0.040149581 0.038575087 0.89800006
0.041816998 0.038660999 0.90000004
0.043395001 0.038660999 0.90000004
0.04492303 0.038618043 0.89900005
0.046499275 0.038618043 0.89900005
0.048075523 0.038618043 0.89900005
0.04976223 0.038703956 0.90100002
0.051512934 0.038832825 0.90400004
0.053097945 0.038832825 0.90400004
0.054622471 0.038789868 0.90300006
0.056267973 0.038832825 0.90400004
0.058044977 0.038961697 0.90700006
0.059766751 0.03904761 0.90900004
0.061428033 0.039090566 0.91000003
0.063162081 0.039176479 0.91200006
0.065045163 0.039348308 0.91600007
0.066942267 0.039520133 0.92000002
0.068555333 0.039520133 0.92000002
0.070549749 0.039734915 0.92500007
0.072171584 0.039734915 0.92500007
0.098524183 0.053051483 1.235
0.10052649 0.05296557 1.233
0.10268835 0.05296557 1.233
0.10502028 0.053051483 1.235
-0.017323811 0.04207211 0.94100004
-0.015657267 0.042027399 0.94000006
-0.013964423 0.04189327 0.93700004
-0.012321549 0.04189327 0.93700004
-0.010655884 0.041803848 0.93500006
-0.0089779431 0.041625008 0.93100005
-0.00726669 0.04117791 0.92100006
-0.0056211865 0.040954359 0.91600007
-0.0040151333 0.040954359 0.91600007
-0.0024011899 0.04082023 0.91300005
-0.00079864333 0.040730808 0.91100007
0.00079864333 0.040730808 0.91100007
0.0023906699 0.04064139 0.90900004
0.0039844499 0.04064139 0.90900004
0.0055659567 0.040551968 0.90700006
0.0071404502 0.04046255 0.90500003
0.0086982865 0.040328421 0.90200007
0.010279793 0.040328421 0.90200007
0.011835 0.040238999 0.90000004
0.013413 0.040238999 0.90000004
0.014991 0.040238999 0.90000004
0.016569 0.040238999 0.90000004
0.018106673 0.040149581 0.89800006
0.019659249 0.04010487 0.89700001
0.02120832 0.040060159 0.89600003
0.022779306 0.040060159 0.89600003
0.024350293 0.040060159 0.89600003
0.025892349 0.040015448 0.89500004
0.027492266 0.040060159 0.89600003
0.029128127 0.040149581 0.89800006
0.030702619 0.040149581 0.89800006
0.032277115 0.040149581 0.89800006
0.033851605 0.040149581 0.89800006
0.035426099 0.040149581 0.89800006
0.037000593 0.040149581 0.89800006
0.038575087 0.040149581 0.89800006
0.040149581 0.040149581 0.89800006
0.041816998 0.040238999 0.90000004
0.043395001 0.040238999 0.90000004
0.044973001 0.040238999 0.90000004
0.046499275 0.040194288 0.89900005
0.048075523 0.040194288 0.89900005
0.04976223 0.04028371 0.90100002
0.051512934 0.040417839 0.90400004
0.053097945 0.040417839 0.90400004
0.054682959 0.040417839 0.90400004
0.056392461 0.040507261 0.90600002
0.057980981 0.040507261 0.90600002
0.059766751 0.04064139 0.90900004
0.061495535 0.040730808 0.91100007
0.063300595 0.040864941 0.91400003
0.06490314 0.040864941 0.91400003
0.066869505 0.041088488 0.91900003
0.068480819 0.041088488 0.91900003
0.070473477 0.041312039 0.92400002
0.096358813 0.055216849 1.235
0.098524183 0.055216849 1.235
0.10060802 0.055172138 1.2340001
0.10235522 0.054948591 1.2290001
0.10416991 0.054769751 1.225
-0.015657267 0.043675534 0.94000006
-0.013964423 0.043536142 0.93700004
-0.012321549 0.043536142 0.93700004
-0.010655884 0.043443218 0.93500006
-0.0089779431 0.043257363 0.93100005
-0.00726669 0.04279273 0.92100006
-0.0056395968 0.042699803 0.91900003
-0.0040195165 0.042606875 0.91700006
-0.0024117101 0.042606875 0.91700006
-0.00080127333 0.042467486 0.91400003
0.00079952 0.042374559 0.91200006
0.0023906699 0.04223517 0.90900004
0.0039844499 0.04223517 0.90900004
0.0055782301 0.04223517 0.90900004
0.0071483399 0.04209578 0.90600002
0.00873686 0.04209578 0.90600002
0.010268397 0.041863464 0.90100002
0.0118613 0.041909926 0.90200007
0.013442807 0.041909926 0.90200007
0.015024313 0.041909926 0.90200007
0.016569 0.041816998 0.90000004
0.018146999 0.041816998 0.90000004
0.019725 0.041816998 0.90000004
0.021279329 0.041770536 0.89900005
0.022830153 0.041724075 0.89800006
0.024377469 0.041677609 0.89700001
0.02595021 0.041677609 0.89700001
0.027553633 0.041724075 0.89800006
0.029128127 0.041724075 0.89800006
0.030702619 0.041724075 0.89800006
0.032277115 0.041724075 0.89800006
0.033813909 0.041677609 0.89700001
0.035386648 0.041677609 0.89700001
0.037000593 0.041724075 0.89800006
0.038660999 0.041816998 0.90000004
0.040238999 0.041816998 0.90000004
0.041816998 0.041816998 0.90000004
0.043395001 0.041816998 0.90000004
0.044973001 0.041816998 0.90000004
0.046654448 0.041909926 0.90200007
0.048182476 0.041863464 0.90100002
0.04992792 0.042002853 0.90400004
0.051512934 0.042002853 0.90400004
0.053097945 0.042002853 0.90400004
0.054682959 0.042002853 0.90400004
0.056392461 0.04209578 0.90600002
0.058172971 0.04223517 0.90900004
0.05989825 0.042328097 0.91100007
0.061495535 0.042328097 0.91100007
0.063300595 0.042467486 0.91400003
0.06490314 0.042467486 0.91400003
0.066578448 0.042513948 0.91500002
0.068182752 0.042513948 0.91500002
0.094193451 0.057382215 1.235
0.096358813 0.057382215 1.235
0.098524183 0.057382215 1.235
0.10068955 0.057382215 1.235
0.1024385 0.057149898 1.23
0.10416991 0.056917582 1.225
-0.015657267 0.045323666 0.94000006
-0.014009133 0.045323666 0.94000006
-0.012321549 0.045179017 0.93700004
-0.010655884 0.045082584 0.93500006
-0.0090068737 0.045034368 0.93400002
-0.0073061399 0.044648632 0.92600006
-0.0056518698 0.04440755 0.92100006
-0.0040282835 0.044311117 0.91900003
-0.0024143399 0.044262901 0.91800004
-0.00080390333 0.044214685 0.91700006
0.00080215 0.044118248 0.91500002
0.0024011899 0.044021815 0.91300005
0.0039888332 0.043877166 0.91000003
0.0055843666 0.043877166 0.91000003
0.00715623 0.043732516 0.90700006
0.00873686 0.0436843 0.90600002
0.010313983 0.043636084 0.90500003
0.01190075 0.043636084 0.90500003
0.013442807 0.043491434 0.90200007
0.015024313 0.043491434 0.90200007
0.016550589 0.043346781 0.89900005
0.018146999 0.043395001 0.90000004
0.019725 0.043395001 0.90000004
0.021279329 0.043346781 0.89900005
0.022830153 0.043298565 0.89800006
0.024431823 0.043346781 0.89900005
0.02595021 0.043250348 0.89700001
0.02752295 0.043250348 0.89700001
0.029128127 0.043298565 0.89800006
0.030702619 0.043298565 0.89800006
0.032205228 0.043202132 0.89600003
0.033776212 0.043202132 0.89600003
0.035426099 0.043298565 0.89800006
0.037000593 0.043298565 0.89800006
0.038660999 0.043395001 0.90000004
0.040238999 0.043395001 0.90000004
0.041770536 0.043346781 0.89900005
0.043491434 0.043491434 0.90200007
0.045072939 0.043491434 0.90200007
0.046654448 0.043491434 0.90200007
0.048342906 0.043587867 0.90400004
0.049983151 0.043636084 0.90500003
0.051569916 0.043636084 0.90500003
0.053097945 0.043587867 0.90400004
0.054803941 0.0436843 0.90600002
0.056392461 0.0436843 0.90600002
0.058172971 0.043828949 0.90900004
0.05989825 0.043925382 0.91100007
0.061495535 0.043925382 0.91100007
0.06309282 0.043925382 0.91100007
0.06490314 0.044070031 0.91400003
0.066578448 0.044118248 0.91500002
0.094193451 0.059547585 1.235
0.096358813 0.059547585 1.235
0.098125301 0.059306499 1.23
0.1002819 0.059306499 1.23
0.10210536 0.059113633 1.2260001
0.10382977 0.058872551 1.2210001
-0.014024037 0.047021769 0.94100004
-0.012321549 0.046821889 0.93700004
-0.010655884 0.04672195 0.93500006
-0.0090068737 0.046671979 0.93400002
-0.0073061399 0.046272218 0.92600006
-0.0056702802 0.04617228 0.92400002
-0.0040282835 0.045922428 0.91900003
-0.0024143399 0.045872461 0.91800004
-0.00080390333 0.04582249 0.91700006
0.00080215 0.045722548 0.91500002
0.0024011899 0.04562261 0.91300005
0.0040019834 0.04562261 0.91300005
0.0055843666 0.0454727 0.91000003
0.0071799001 0.0454727 0.91000003
0.0087465029 0.045322791 0.90700006
0.010336776 0.045322791 0.90700006
0.01190075 0.045222849 0.90500003
0.013442807 0.045072939 0.90200007
0.015024313 0.045072939 0.90200007
0.016605821 0.045072939 0.90200007
0.018146999 0.044973001 0.90000004
0.019725 0.044973001 0.90000004
0.021279329 0.04492303 0.89900005
0.022830153 0.044873059 0.89800006
0.024404647 0.044873059 0.89800006
0.025979139 0.044873059 0.89800006
0.027492266 0.04477312 0.89600003
0.029095691 0.044823091 0.89700001
0.03066843 0.044823091 0.89700001
0.032241169 0.044823091 0.89700001
0.033889305 0.04492303 0.89900005
0.035426099 0.044873059 0.89800006
0.037000593 0.044873059 0.89800006
0.038618043 0.04492303 0.89900005
0.04028371 0.045022968 0.90100002
0.041863464 0.045022968 0.90100002
0.043395001 0.044973001 0.90000004
0.044973001 0.044973001 0.90000004
0.046757892 0.045172881 0.90400004
0.048396382 0.045222849 0.90500003
0.04992792 0.045172881 0.90400004
0.051569916 0.045222849 0.90500003
0.053274155 0.045322791 0.90700006
0.054803941 0.04527282 0.90600002
0.056579191 0.045422729 0.90900004
0.058172971 0.045422729 0.90900004
0.05989825 0.045522671 0.91100007
0.061495535 0.045522671 0.91100007
0.06309282 0.045522671 0.91100007
0.06490314 0.045672581 0.91400003
0.066578448 0.045722548 0.91500002
0.09343075 0.061213251 1.225
0.095578581 0.061213251 1.225
0.097407311 0.061013371 1.2210001
0.099629663 0.061063338 1.222
0.10135581 0.06081349 1.217
0.10348962 0.06081349 1.217
-0.014024037 0.048671655 0.94100004
-0.012321549 0.048464764 0.93700004
-0.010678677 0.048464764 0.93700004
-0.0090068737 0.048309594 0.93400002
-0.0073298099 0.048050977 0.92900002
-0.0056825532 0.047895808 0.92600006
-0.0040282835 0.047533743 0.91900003
-0.00241697 0.047533743 0.91900003
-0.00080477999 0.047482021 0.91800004
0.00080215 0.047326848 0.91500002
0.0024011899 0.047223404 0.91300005
0.0040019834 0.047223404 0.91300005
0.0056027765 0.047223404 0.91300005
0.0071799001 0.047068235 0.91000003
0.0087657897 0.047016509 0.90900004
0.010336776 0.046913061 0.90700006
0.01192705 0.046913061 0.90700006
0.013487517 0.046809617 0.90500003
0.015024313 0.046654448 0.90200007
0.016605821 0.046654448 0.90200007
0.018187327 0.046654448 0.90200007
0.019725 0.046551 0.90000004
0.021279329 0.046499275 0.89900005
0.022855576 0.046499275 0.89900005
0.024431823 0.046499275 0.89900005
0.02600807 0.046499275 0.89900005
0.027553633 0.046447553 0.89800006
0.029160563 0.046499275 0.89900005
0.03073681 0.046499275 0.89900005
0.032313056 0.046499275 0.89900005
0.033889305 0.046499275 0.89900005
0.03546555 0.046499275 0.89900005
0.037083 0.046551 0.90000004
0.038703956 0.046602722 0.90100002
0.040373128 0.04670617 0.90300006
0.041863464 0.046602722 0.90100002
0.043587867 0.046757892 0.90400004
0.04512291 0.04670617 0.90300006
0.046861339 0.046861339 0.90600002
0.048396382 0.046809617 0.90500003
0.049983151 0.046809617 0.90500003
0.051569916 0.046809617 0.90500003
0.053274155 0.046913061 0.90700006
0.054803941 0.046861339 0.90600002
0.056579191 0.047016509 0.90900004
0.058172971 0.047016509 0.90900004
0.05989825 0.047119956 0.91100007
0.061698046 0.047275126 0.91400003
0.063300595 0.047275126 0.91400003
0.06490314 0.047275126 0.91400003
0.066505685 0.047275126 0.91400003
0.091447726 0.062016275 1.199
0.093549974 0.062016275 1.199
0.095652223 0.062016275 1.199
0.097836003 0.062068 1.2
0.099940002 0.062068 1.2
0.10306444 0.062688679 1.212
-0.014024037 0.050321542 0.94100004
-0.012321549 0.050107636 0.93700004
-0.010678677 0.050107636 0.93700004
-0.0090068737 0.049947206 0.93400002
-0.0073298099 0.049679823 0.92900002
-0.0056825532 0.049519394 0.92600006
-0.0040370501 0.049252011 0.92100006
-0.0024143399 0.049091581 0.91800004
-0.00080390333 0.049038105 0.91700006
0.00080477999 0.049091581 0.91800004
0.00240645 0.048931148 0.91500002
0.00401075 0.048931148 0.91500002
0.0056027765 0.048824195 0.91300005
0.0071720099 0.048610289 0.90900004
0.0087657897 0.048610289 0.90900004
0.010336776 0.048503336 0.90700006
0.01192705 0.048503336 0.90700006
0.013487517 0.048396382 0.90500003
0.015074283 0.048396382 0.90500003
0.016605821 0.048235953 0.90200007
0.018187327 0.048235953 0.90200007
0.019725 0.048129 0.90000004
0.021303 0.048129 0.90000004
0.022880999 0.048129 0.90000004
0.024459001 0.048129 0.90000004
0.026037 0.048129 0.90000004
0.027584316 0.048075523 0.89900005
0.029160563 0.048075523 0.89900005
0.03073681 0.048075523 0.89900005
0.032349002 0.048129 0.90000004
0.033927001 0.048129 0.90000004
0.035505001 0.048129 0.90000004
0.037124202 0.048182476 0.90100002
0.038703956 0.048182476 0.90100002
0.040373128 0.048289429 0.90300006
0.042049315 0.048396382 0.90500003
0.043587867 0.048342906 0.90400004
0.045222849 0.048396382 0.90500003
0.046861339 0.048449859 0.90600002
0.048449859 0.048449859 0.90600002
0.050148841 0.048556812 0.90800005
0.051683884 0.048503336 0.90700006
0.053274155 0.048503336 0.90700006
0.054864429 0.048503336 0.90700006
0.056579191 0.048610289 0.90900004
0.058300965 0.048717242 0.91100007
0.0600955 0.048877671 0.91400003
0.061698046 0.048877671 0.91400003
0.063369848 0.048931148 0.91500002
0.06490314 0.048877671 0.91400003
0.066505685 0.048877671 0.91400003
0.088749349 0.063690707 1.1910001
0.090837568 0.063690707 1.1910001
0.092925787 0.063690707 1.1910001
0.095014006 0.063690707 1.1910001
0.097183757 0.063744187 1.192
0.099606864 0.063958094 1.1960001
0.10170385 0.063958094 1.1960001
-0.01237415 0.051971428 0.94100004
-0.010678677 0.051750511 0.93700004
-0.0090068737 0.051584821 0.93400002
-0.0073219198 0.051253438 0.92800003
-0.0056764167 0.051087748 0.92500007
-0.0040458166 0.05097729 0.92300004
-0.0024196 0.0508116 0.92000002
-0.00080565666 0.050756369 0.91900003
0.00080390333 0.05064591 0.91700006
0.0024143399 0.050701141 0.91800004
0.00401075 0.050535448 0.91500002
0.0056027765 0.050424989 0.91300005
0.0071799001 0.0502593 0.91000003
0.0087657897 0.050204068 0.90900004
0.010336776 0.05009361 0.90700006
0.01192705 0.05009361 0.90700006
0.013517323 0.05009361 0.90700006
0.015074283 0.049983151 0.90500003
0.016605821 0.049817462 0.90200007
0.018187327 0.049817462 0.90200007
0.019725 0.049706999 0.90000004
0.021303 0.049706999 0.90000004
0.022880999 0.049706999 0.90000004
0.024459001 0.049706999 0.90000004
0.026037 0.049706999 0.90000004
0.027584316 0.049651768 0.89900005
0.029160563 0.049651768 0.89900005
0.030702619 0.049596541 0.89800006
0.032349002 0.049706999 0.90000004
0.033927001 0.049706999 0.90000004
0.035505001 0.049706999 0.90000004
0.037124202 0.04976223 0.90100002
0.038703956 0.04976223 0.90100002
0.040373128 0.049872689 0.90300006
0.042049315 0.049983151 0.90500003
0.043587867 0.04992792 0.90400004
0.045222849 0.049983151 0.90500003
0.046861339 0.050038379 0.90600002
0.048449859 0.050038379 0.90600002
0.050148841 0.050148841 0.90800005
0.051740866 0.050148841 0.90800005
0.053274155 0.05009361 0.90700006
0.054864429 0.05009361 0.90700006
0.056579191 0.050204068 0.90900004
0.058300965 0.050314531 0.91100007
0.0600955 0.05048022 0.91400003
0.061698046 0.05048022 0.91400003
0.063369848 0.050535448 0.91500002
0.06490314 0.05048022 0.91400003
0.066505685 0.05048022 0.91400003
0.088749349 0.065778926 1.1910001
0.090837568 0.065778926 1.1910001
0.092925787 0.065778926 1.1910001
0.095014006 0.065778926 1.1910001
0.097183757 0.065834157 1.192
0.099273734 0.065834157 1.192
0.1013637 0.065834157 1.192
-0.010678677 0.053393383 0.93700004
-0.0090068737 0.053222433 0.93400002
-0.0073219198 0.052880533 0.92800003
-0.0056764167 0.052709583 0.92500007
-0.0040370501 0.052481651 0.92100006
-0.0024222301 0.052481651 0.92100006
-0.00080565666 0.052367684 0.91900003
0.00080565666 0.052367684 0.91900003
0.0024117101 0.052253716 0.91700006
0.00401075 0.052139748 0.91500002
0.00561505 0.052139748 0.91500002
0.0071799001 0.051854834 0.91000003
0.0087754335 0.051854834 0.91000003
0.01035957 0.051797848 0.90900004
0.01192705 0.051683884 0.90700006
0.013517323 0.051683884 0.90700006
0.015074283 0.051569916 0.90500003
0.01666105 0.051569916 0.90500003
0.018187327 0.051398966 0.90200007
0.019768834 0.051398966 0.90200007
0.021303 0.051284999 0.90000004
0.022880999 0.051284999 0.90000004
0.024459001 0.051284999 0.90000004
0.02600807 0.051228017 0.89900005
0.027553633 0.051171035 0.89800006
0.029128127 0.051171035 0.89800006
0.030702619 0.051171035 0.89800006
0.032349002 0.051284999 0.90000004
0.033927001 0.051284999 0.90000004
0.035505001 0.051284999 0.90000004
0.037124202 0.051341984 0.90100002
0.038703956 0.051341984 0.90100002
0.040507261 0.051626898 0.90600002
0.042002853 0.051512934 0.90400004
0.0436843 0.051626898 0.90600002
0.045222849 0.051569916 0.90500003
0.046861339 0.051626898 0.90600002
0.048503336 0.051683884 0.90700006
0.05009361 0.051683884 0.90700006
0.051683884 0.051683884 0.90700006
0.053215418 0.051626898 0.90600002
0.054985411 0.051797848 0.90900004
0.056641433 0.051854834 0.91000003
0.058300965 0.051911816 0.91100007
0.0600955 0.052082766 0.91400003
0.061698046 0.052082766 0.91400003
0.063300595 0.052082766 0.91400003
0.06490314 0.052082766 0.91400003
0.086006261 0.067354299 1.182
0.088376768 0.067582235 1.1860001
0.090456218 0.067582235 1.1860001
0.092535675 0.067582235 1.1860001
0.094615124 0.067582235 1.1860001
0.096449986 0.067411281 1.1830001
0.098524183 0.067411281 1.1830001
0.10068341 0.067468263 1.184
-0.010678677 0.055036258 0.93700004
-0.0090165166 0.054918785 0.93500006
-0.0073219198 0.054507628 0.92800003
-0.0056641432 0.054213945 0.92300004
-0.0040370501 0.054096468 0.92100006
-0.0024222301 0.054096468 0.92100006
-0.00080653332 0.054037731 0.92000002
0.00080477999 0.053920258 0.91800004
0.0024143399 0.053920258 0.91800004
0.0040151333 0.053802785 0.91600007
0.00561505 0.053744048 0.91500002
0.0072035701 0.053626575 0.91300005
0.0088043632 0.053626575 0.91300005
0.01035957 0.053391628 0.90900004
0.01195335 0.053391628 0.90900004
0.013517323 0.053274155 0.90700006
0.015074283 0.053156681 0.90500003
0.01666105 0.053156681 0.90500003
0.018187327 0.052980471 0.90200007
0.019768834 0.052980471 0.90200007
0.021303 0.052862998 0.90000004
0.022880999 0.052862998 0.90000004
0.024486177 0.052921735 0.90100002
0.026037 0.052862998 0.90000004
0.027584316 0.052804261 0.89900005
0.029160563 0.052804261 0.89900005
0.03073681 0.052804261 0.89900005
0.032349002 0.052862998 0.90000004
0.033927001 0.052862998 0.90000004
0.035583898 0.052980471 0.90200007
0.037206609 0.053039208 0.90300006
0.038789868 0.053039208 0.90300006
0.040507261 0.053215418 0.90600002
0.04209578 0.053215418 0.90600002
0.0436843 0.053215418 0.90600002
0.045322791 0.053274155 0.90700006
0.046964787 0.053332891 0.90800005
0.048503336 0.053274155 0.90700006
0.05009361 0.053274155 0.90700006
0.051683884 0.053274155 0.90700006
0.053391628 0.053391628 0.90900004
0.054985411 0.053391628 0.90900004
0.056765921 0.053567838 0.91200006
0.058556948 0.053744048 0.91500002
0.060161248 0.053744048 0.91500002
0.061900556 0.053861521 0.91700006
0.063508362 0.053861521 0.91700006
0.065116167 0.053861521 0.91700006
0.086006261 0.069426738 1.182
0.0880787 0.069426738 1.182
0.090151139 0.069426738 1.182
0.092223577 0.069426738 1.182
0.094296016 0.069426738 1.182
0.096042342 0.069191791 1.1780001
0.098191053 0.069250531 1.179
0.10025823 0.069250531 1.179
-0.0090165166 0.056558151 0.93500006
-0.0073219198 0.056134719 0.92800003
-0.0056457333 0.0556508 0.92000002
-0.0040370501 0.055711288 0.92100006
-0.00241697 0.055590309 0.91900003
-0.00080740999 0.055711288 0.92100006
0.00080565666 0.055590309 0.91900003
0.0024196 0.0556508 0.92000002
0.0040238998 0.055529818 0.91800004
0.0056211865 0.055408839 0.91600007
0.0072035701 0.055227369 0.91300005
0.0087754335 0.055045899 0.91000003
0.01035957 0.054985411 0.90900004
0.01195335 0.054985411 0.90900004
0.013517323 0.054864429 0.90700006
0.015107596 0.054864429 0.90700006
0.01666105 0.05474345 0.90500003
0.018247817 0.05474345 0.90500003
0.019768834 0.05456198 0.90200007
0.021350339 0.05456198 0.90200007
0.022931846 0.05456198 0.90200007
0.024513353 0.05456198 0.90200007
0.026037 0.054441001 0.90000004
0.027584316 0.05438051 0.89900005
0.029160563 0.05438051 0.89900005
0.030805189 0.054501489 0.90100002
0.032420885 0.05456198 0.90200007
0.034002393 0.05456198 0.90200007
0.035583898 0.05456198 0.90200007
0.037206609 0.054622471 0.90300006
0.038918741 0.054803941 0.90600002
0.040507261 0.054803941 0.90600002
0.042142242 0.054864429 0.90700006
0.043636084 0.05474345 0.90500003
0.045322791 0.054864429 0.90700006
0.046913061 0.054864429 0.90700006
0.048503336 0.054864429 0.90700006
0.05009361 0.054864429 0.90700006
0.051683884 0.054864429 0.90700006
0.053450365 0.055045899 0.91000003
0.055166878 0.055166878 0.91200006
0.056828164 0.055227369 0.91300005
0.058620945 0.055408839 0.91600007
0.060358498 0.055529818 0.91800004
0.061968058 0.055529818 0.91800004
0.063716136 0.0556508 0.92000002
0.06525819 0.055590309 0.91900003
0.086006261 0.071499176 1.182
0.088004179 0.071438693 1.1810001
0.090074867 0.071438693 1.1810001
0.092145555 0.071438693 1.1810001
0.093338698 0.070773296 1.1700001
0.094737858 0.070289381 1.1620001
0.096775234 0.070289381 1.1620001
0.099152751 0.070531338 1.166
-0.0073298099 0.057824057 0.92900002
-0.0056457333 0.057263866 0.92000002
-0.0040414333 0.057388354 0.92200005
-0.00241697 0.057201624 0.91900003
-0.00080828666 0.057388354 0.92200005
0.00080653332 0.057263866 0.92000002
0.0024222301 0.057326108 0.92100006
0.0040238998 0.057139378 0.91800004
0.0056211865 0.057014894 0.91600007
0.0072035701 0.056828164 0.91300005
0.0087754335 0.056641433 0.91000003
0.01035957 0.056579191 0.90900004
0.01195335 0.056579191 0.90900004
0.013517323 0.056454703 0.90700006
0.015107596 0.056454703 0.90700006
0.01666105 0.056330215 0.90500003
0.018247817 0.056330215 0.90500003
0.019834584 0.056330215 0.90500003
0.021350339 0.056143485 0.90200007
0.022931846 0.056143485 0.90200007
0.024513353 0.056143485 0.90200007
0.026037 0.056019001 0.90000004
0.027615 0.056019001 0.90000004
0.029192999 0.056019001 0.90000004
0.03083938 0.056143485 0.90200007
0.032420885 0.056143485 0.90200007
0.034002393 0.056143485 0.90200007
0.035583898 0.056143485 0.90200007
0.037165407 0.056143485 0.90200007
0.038875785 0.056330215 0.90500003
0.04046255 0.056330215 0.90500003
0.04209578 0.056392461 0.90600002
0.043636084 0.056330215 0.90500003
0.045322791 0.056454703 0.90700006
0.046913061 0.056454703 0.90700006
0.048503336 0.056454703 0.90700006
0.0502593 0.056641433 0.91000003
0.051854834 0.056641433 0.91000003
0.053450365 0.056641433 0.91000003
0.055166878 0.056765921 0.91200006
0.057014894 0.057014894 0.91600007
0.058748938 0.057139378 0.91800004
0.060358498 0.057139378 0.91800004
0.062103067 0.057263866 0.92000002
0.063923903 0.057450596 0.92300004
0.065471217 0.057388354 0.92200005
0.067160554 0.057450596 0.92300004
0.085917719 0.071766563 1.153
0.087939307 0.071766563 1.153
0.089726835 0.071579836 1.1500001
0.091743164 0.071579836 1.1500001
0.093841031 0.071642078 1.151
0.095859118 0.071642078 1.151
0.098132312 0.071828805 1.154
-0.0073377001 0.059516899 0.93000007
-0.0056580068 0.059004925 0.92200005
-0.0040414333 0.059004925 0.92200005
-0.0024222301 0.058940928 0.92100006
-0.00080916332 0.059068922 0.92300004
0.00080653332 0.058876932 0.92000002
0.00241697 0.058812935 0.91900003
0.0040195165 0.058684941 0.91700006
0.0056211865 0.058620945 0.91600007
0.0072035701 0.058428958 0.91300005
0.0087947203 0.058364961 0.91200006
0.01035957 0.058172971 0.90900004
0.01195335 0.058172971 0.90900004
0.013517323 0.058044977 0.90700006
0.015107596 0.058044977 0.90700006
0.016697871 0.058044977 0.90700006
0.018247817 0.057916984 0.90500003
0.019834584 0.057916984 0.90500003
0.021421351 0.057916984 0.90500003
0.022931846 0.057724994 0.90200007
0.024513353 0.057724994 0.90200007
0.026037 0.057597 0.90000004
0.027615 0.057597 0.90000004
0.029192999 0.057597 0.90000004
0.03083938 0.057724994 0.90200007
0.032349002 0.057597 0.90000004
0.033927001 0.057597 0.90000004
0.035583898 0.057724994 0.90200007
0.037289016 0.057916984 0.90500003
0.038875785 0.057916984 0.90500003
0.040417839 0.057852987 0.90400004
0.04209578 0.057980981 0.90600002
0.043732516 0.058044977 0.90700006
0.045322791 0.058044977 0.90700006
0.046964787 0.058108974 0.90800005
0.048556812 0.058108974 0.90800005
0.0502593 0.058236968 0.91000003
0.051854834 0.058236968 0.91000003
0.053450365 0.058236968 0.91000003
0.055227369 0.058428958 0.91300005
0.057201624 0.058812935 0.91900003
0.058940928 0.058940928 0.92100006
0.060555749 0.058940928 0.92100006
0.062305577 0.059068922 0.92300004
0.063923903 0.059068922 0.92300004
0.06561324 0.059132919 0.92400002
0.067233317 0.059132919 0.92400002
0.085470617 0.073404178 1.1470001
0.087481692 0.073404178 1.1470001
0.089414738 0.073340178 1.146
0.091424063 0.073340178 1.146
0.093514912 0.073404178 1.1470001
0.094526581 0.072636217 1.1350001
0.096516617 0.072636217 1.1350001
-0.0056580068 0.0606215 0.92200005
-0.0040414333 0.0606215 0.92200005
-0.0024222301 0.060555749 0.92100006
-0.00080916332 0.060687251 0.92300004
0.00080740999 0.060555749 0.92100006
0.0024196 0.060490001 0.92000002
0.0040238998 0.060358498 0.91800004
0.00561505 0.060161248 0.91500002
0.0071956799 0.059964001 0.91200006
0.0087657897 0.059766751 0.90900004
0.01035957 0.059766751 0.90900004
0.01195335 0.059766751 0.90900004
0.013517323 0.059635248 0.90700006
0.015107596 0.059635248 0.90700006
0.016697871 0.059635248 0.90700006
0.018288143 0.059635248 0.90700006
0.019834584 0.059503749 0.90500003
0.021421351 0.059503749 0.90500003
0.023008116 0.059503749 0.90500003
0.024513353 0.059306499 0.90200007
0.026037 0.059175 0.90000004
0.027584316 0.059109248 0.89900005
0.029160563 0.059109248 0.89900005
0.03083938 0.059306499 0.90200007
0.032349002 0.059175 0.90000004
0.033927001 0.059175 0.90000004
0.035583898 0.059306499 0.90200007
0.037289016 0.059503749 0.90500003
0.038789868 0.05937225 0.90300006
0.04046255 0.059503749 0.90500003
0.042049315 0.059503749 0.90500003
0.0436843 0.0595695 0.90600002
0.045322791 0.059635248 0.90700006
0.046964787 0.059700999 0.90800005
0.048556812 0.059700999 0.90800005
0.0502593 0.059832498 0.91000003
0.051854834 0.059832498 0.91000003
0.053802785 0.060226999 0.91600007
0.055408839 0.060226999 0.91600007
0.057201624 0.06042425 0.91900003
0.058940928 0.060555749 0.92100006
0.060752999 0.060752999 0.92400002
0.062305577 0.060687251 0.92300004
0.064062417 0.06081875 0.92500007
0.06561324 0.060752999 0.92400002
0.067233317 0.060752999 0.92400002
0.084799968 0.074823499 1.138
0.086795263 0.074823499 1.138
0.088244386 0.074363247 1.131
0.09022741 0.074363247 1.131
0.092210427 0.074363247 1.131
0.094193451 0.074363247 1.131
0.096176468 0.074363247 1.131
-0.0056518698 0.062170569 0.92100006
-0.0040414333 0.062238071 0.92200005
-0.0024248599 0.062238071 0.92200005
-0.00080916332 0.062305577 0.92300004
0.00080740999 0.062170569 0.92100006
0.0024196 0.062103067 0.92000002
0.0040238998 0.061968058 0.91800004
0.00561505 0.061765548 0.91500002
0.0071956799 0.061563041 0.91200006
0.0087657897 0.061360531 0.90900004
0.01035957 0.061360531 0.90900004
0.01195335 0.061360531 0.90900004
0.013517323 0.061225522 0.90700006
0.015124253 0.061293025 0.90800005
0.016697871 0.061225522 0.90700006
0.018288143 0.061225522 0.90700006
0.019834584 0.061090518 0.90500003
0.021421351 0.061090518 0.90500003
0.023008116 0.061090518 0.90500003
0.02462206 0.06115802 0.90600002
0.026094859 0.060888007 0.90200007
0.027645683 0.060820501 0.90100002
0.029225437 0.060820501 0.90100002
0.03083938 0.060888007 0.90200007
0.032420885 0.060888007 0.90200007
0.033927001 0.060752999 0.90000004
0.035623349 0.06095551 0.90300006
0.037206609 0.06095551 0.90300006
0.038918741 0.06115802 0.90600002
0.04046255 0.061090518 0.90500003
0.04209578 0.06115802 0.90600002
0.0436843 0.06115802 0.90600002
0.045322791 0.061225522 0.90700006
0.046964787 0.061293025 0.90800005
0.048717242 0.061495535 0.91100007
0.0502593 0.061428033 0.91000003
0.051968798 0.061563041 0.91200006
0.053802785 0.061833054 0.91600007
0.055529818 0.061968058 0.91800004
0.057139378 0.061968058 0.91800004
0.058940928 0.062170569 0.92100006
0.060752999 0.062373079 0.92400002
0.062440582 0.062440582 0.92500007
0.064062417 0.062440582 0.92500007
0.06561324 0.062373079 0.92400002
0.082004279 0.076076254 1.1270001
0.083980285 0.076076254 1.1270001
0.08595629 0.076076254 1.1270001
0.087698229 0.075873747 1.1240001
0.089668974 0.075873747 1.1240001
0.091884308 0.076076254 1.1270001
0.093860313 0.076076254 1.1270001
0.095836319 0.076076254 1.1270001
-0.0056518698 0.063785389 0.92100006
-0.0040414333 0.06385465 0.92200005
-0.0024248599 0.06385465 0.92200005
-0.00080916332 0.063923903 0.92300004
0.00080653332 0.063716136 0.92000002
0.00241697 0.063646875 0.91900003
0.0040151333 0.063439108 0.91600007
0.0056089135 0.063300595 0.91400003
0.0071956799 0.063162081 0.91200006
0.0087947203 0.063162081 0.91200006
0.01035957 0.062954307 0.90900004
0.01195335 0.062954307 0.90900004
0.013517323 0.062815793 0.90700006
0.015124253 0.062885053 0.90800005
0.016697871 0.062815793 0.90700006
0.018288143 0.062815793 0.90700006
0.019878417 0.062815793 0.90700006
0.02149236 0.062885053 0.90800005
0.023033541 0.06274654 0.90600002
0.02462206 0.06274654 0.90600002
0.026181649 0.062677287 0.90500003
0.027645683 0.062400255 0.90100002
0.029257873 0.062469512 0.90200007
0.03083938 0.062469512 0.90200007
0.032420885 0.062469512 0.90200007
0.033927001 0.062330998 0.90000004
0.035623349 0.062538773 0.90300006
0.037206609 0.062538773 0.90300006
0.038918741 0.06274654 0.90600002
0.040551968 0.062815793 0.90700006
0.04209578 0.06274654 0.90600002
0.0436843 0.06274654 0.90600002
0.045322791 0.062815793 0.90700006
0.046964787 0.062885053 0.90800005
0.048717242 0.06309282 0.91100007
0.050535448 0.063369848 0.91500002
0.052139748 0.063369848 0.91500002
0.053861521 0.063508362 0.91700006
0.05546933 0.063508362 0.91700006
0.057139378 0.063577622 0.91800004
0.058876932 0.063716136 0.92000002
0.060687251 0.063923903 0.92300004
0.062373079 0.063993156 0.92400002
0.063993156 0.063993156 0.92400002
0.06561324 0.063993156 0.92400002
0.067233317 0.063993156 0.92400002
0.083980285 0.07805226 1.1270001
0.08595629 0.07805226 1.1270001
0.087698229 0.077844493 1.1240001
0.089668974 0.077844493 1.1240001
0.09163972 0.077844493 1.1240001
0.093610466 0.077844493 1.1240001
0.095581211 0.077844493 1.1240001
-0.0056580068 0.065471217 0.92200005
-0.0040370501 0.065400213 0.92100006
-0.0024222301 0.065400213 0.92100006
-0.00080828666 0.065471217 0.92200005
0.00080828666 0.065471217 0.92200005
0.00241697 0.06525819 0.91900003
0.0040151333 0.065045163 0.91600007
0.0056089135 0.06490314 0.91400003
0.0071956799 0.064761117 0.91200006
0.0087947203 0.064761117 0.91200006
0.01035957 0.06454809 0.90900004
0.01195335 0.06454809 0.90900004
0.01354713 0.06454809 0.90900004
0.015107596 0.064406067 0.90700006
0.016697871 0.064406067 0.90700006
0.018288143 0.064406067 0.90700006
0.019878417 0.064406067 0.90700006
0.02146869 0.064406067 0.90700006
0.023084387 0.064477079 0.90800005
0.024594883 0.064264052 0.90500003
0.026181649 0.064264052 0.90500003
0.027737733 0.06419304 0.90400004
0.029355183 0.064264052 0.90500003
0.03094195 0.064264052 0.90500003
0.032528717 0.064264052 0.90500003
0.03404009 0.064122029 0.90300006
0.035623349 0.064122029 0.90300006
0.037289016 0.064264052 0.90500003
0.038875785 0.064264052 0.90500003
0.040507261 0.064335063 0.90600002
0.04209578 0.064335063 0.90600002
0.0436843 0.064335063 0.90600002
0.045322791 0.064406067 0.90700006
0.046913061 0.064406067 0.90700006
0.048663765 0.064619102 0.91000003
0.050535448 0.064974152 0.91500002
0.052139748 0.064974152 0.91500002
0.053861521 0.065116167 0.91700006
0.05546933 0.065116167 0.91700006
0.057077136 0.065116167 0.91700006
0.058812935 0.06525819 0.91900003
0.0606215 0.065471217 0.92200005
0.062305577 0.065542229 0.92300004
0.063923903 0.065542229 0.92300004
0.06561324 0.06561324 0.92400002
0.067524374 0.065897278 0.92800003
0.069076948 0.065826267 0.92700005
0.085422397 0.0795312 1.12
0.086839966 0.079034127 1.113
0.08879143 0.079034127 1.113
0.090742886 0.079034127 1.113
0.092111364 0.078537062 1.1060001
0.094050556 0.078537062 1.1060001
-0.0056764167 0.067306086 0.92500007
-0.0040458166 0.067160554 0.92300004
-0.00242749 0.067160554 0.92300004
-0.00080740999 0.067015029 0.92100006
0.00080740999 0.067015029 0.92100006
0.0024196 0.066942267 0.92000002
0.00401075 0.066578448 0.91500002
0.0056089135 0.066505685 0.91400003
0.0072035701 0.066432923 0.91300005
0.0087850764 0.066287398 0.91100007
0.010348173 0.066069104 0.90800005
0.01195335 0.066141866 0.90900004
0.013562033 0.066214636 0.91000003
0.015124253 0.066069104 0.90800005
0.016716279 0.066069104 0.90800005
0.018288143 0.065996341 0.90700006
0.019878417 0.065996341 0.90700006
0.021445019 0.065923579 0.90600002
0.023033541 0.065923579 0.90600002
0.024567707 0.065778054 0.90400004
0.026152721 0.065778054 0.90400004
0.0277991 0.065923579 0.90600002
0.029387619 0.065923579 0.90600002
0.030976139 0.065923579 0.90600002
0.032528717 0.065850817 0.90500003
0.034077786 0.065778054 0.90400004
0.035583898 0.06563253 0.90200007
0.037165407 0.06563253 0.90200007
0.038832825 0.065778054 0.90400004
0.040507261 0.065923579 0.90600002
0.04209578 0.065923579 0.90600002
0.0436843 0.065923579 0.90600002
0.045322791 0.065996341 0.90700006
0.047068235 0.066214636 0.91000003
0.048770718 0.066360161 0.91200006
0.050535448 0.066578448 0.91500002
0.052139748 0.066578448 0.91500002
0.053861521 0.066723973 0.91700006
0.05546933 0.066723973 0.91700006
0.057077136 0.066723973 0.91700006
0.059068922 0.067160554 0.92300004
0.0606215 0.067087792 0.92200005
0.062508084 0.067378849 0.92600006
0.063923903 0.067160554 0.92300004
0.06561324 0.067233317 0.92400002
0.067524374 0.067524374 0.92800003
0.069151469 0.067524374 0.92800003
0.085422397 0.081494935 1.12
0.086293809 0.080476247 1.1060001
0.087913886 0.08018519 1.102
0.08984606 0.08018519 1.102
0.091778234 0.08018519 1.102
0.0934553 0.079966903 1.0990001
-0.0056825532 0.069002435 0.92600006
-0.0040545831 0.068927914 0.92500007
-0.0024248599 0.068704367 0.92200005
-0.00080828666 0.068704367 0.92200005
0.00080653332 0.068555333 0.92000002
0.0024143399 0.068406299 0.91800004
0.0040195165 0.068331786 0.91700006
0.0056089135 0.068108231 0.91400003
0.0072035701 0.068033718 0.91300005
0.0088043632 0.068033718 0.91300005
0.010382364 0.067884684 0.91100007
0.0119928 0.067959197 0.91200006
0.013562033 0.067810163 0.91000003
0.015174223 0.067884684 0.91100007
0.016734689 0.06773565 0.90900004
0.018308306 0.067661136 0.90800005
0.019900333 0.067661136 0.90800005
0.02149236 0.067661136 0.90800005
0.023058964 0.067586616 0.90700006
0.024649236 0.067586616 0.90700006
0.026239511 0.067586616 0.90700006
0.0277991 0.067512102 0.90600002
0.029387619 0.067512102 0.90600002
0.030976139 0.067512102 0.90600002
0.032420885 0.067214034 0.90200007
0.034002393 0.067214034 0.90200007
0.035583898 0.067214034 0.90200007
0.037165407 0.067214034 0.90200007
0.038918741 0.067512102 0.90600002
0.040507261 0.067512102 0.90600002
0.04209578 0.067512102 0.90600002
0.0436843 0.067512102 0.90600002
0.04527282 0.067512102 0.90600002
0.047068235 0.067810163 0.91000003
0.048770718 0.067959197 0.91200006
0.05048022 0.068108231 0.91400003
0.052139748 0.068182752 0.91500002
0.053861521 0.068331786 0.91700006
0.05546933 0.068331786 0.91700006
0.057077136 0.068331786 0.91700006
0.058940928 0.068629846 0.92100006
0.0606215 0.068704367 0.92200005
0.062373079 0.068853401 0.92400002
0.063993156 0.068853401 0.92400002
0.065684251 0.068927914 0.92500007
0.067669898 0.069300503 0.93000007
0.069300503 0.069300503 0.93000007
0.083591923 0.081670269 1.0960001
0.085201479 0.081372201 1.092
0.087036341 0.081297681 1.0910001
0.088949226 0.081297681 1.0910001
0.090862118 0.081297681 1.0910001
0.092519894 0.081074134 1.0880001
-0.00572551 0.071159907 0.93300003
-0.0040589664 0.07062602 0.92600006
-0.0024353799 0.07062602 0.92600006
-0.00081179332 0.07062602 0.92600006
0.00080828666 0.070320942 0.92200005
0.0024196 0.070168398 0.92000002
0.0040195165 0.069939591 0.91700006
0.0056273234 0.069939591 0.91700006
0.0072114598 0.069710776 0.91400003
0.0088043632 0.069634512 0.91300005
0.010382364 0.069481969 0.91100007
0.0119928 0.06955824 0.91200006
0.01354713 0.069329433 0.90900004
0.015174223 0.069481969 0.91100007
0.01677151 0.069481969 0.91100007
0.018348632 0.069405697 0.91000003
0.019900333 0.069253162 0.90800005
0.02149236 0.069253162 0.90800005
0.023084387 0.069253162 0.90800005
0.024649236 0.06917689 0.90700006
0.026239511 0.06917689 0.90700006
0.027829783 0.06917689 0.90700006
0.029420057 0.06917689 0.90700006
0.03101033 0.06917689 0.90700006
0.032420885 0.068795539 0.90200007
0.034002393 0.068795539 0.90200007
0.035583898 0.068795539 0.90200007
0.037165407 0.068795539 0.90200007
0.038918741 0.069100618 0.90600002
0.040551968 0.06917689 0.90700006
0.042142242 0.06917689 0.90700006
0.043828949 0.069329433 0.90900004
0.045422729 0.069329433 0.90900004
0.047119956 0.069481969 0.91100007
0.048717242 0.069481969 0.91100007
0.05048022 0.069710776 0.91400003
0.052139748 0.069787048 0.91500002
0.053802785 0.069863319 0.91600007
0.055408839 0.069863319 0.91600007
0.057139378 0.070015863 0.91800004
0.058940928 0.07024467 0.92100006
0.060687251 0.070397213 0.92300004
0.062373079 0.070473477 0.92400002
0.063993156 0.070473477 0.92400002
0.06561324 0.070473477 0.92400002
0.067233317 0.070473477 0.92400002
0.081372201 0.083286837 1.092
0.083286837 0.083286837 1.092
0.084967412 0.083058029 1.0890001
0.086797014 0.082981758 1.0880001
0.088378519 0.082676679 1.0840001
0.090279132 0.082676679 1.0840001
0.091924638 0.082447872 1.0810001
-0.0057009631 0.072483674 0.92900002
-0.0040545831 0.072171584 0.92500007
-0.0024353799 0.072249606 0.92600006
-0.00081091665 0.072171584 0.92500007
0.00081003999 0.072093561 0.92400002
0.00241697 0.071703441 0.91900003
0.0040195165 0.071547396 0.91700006
0.0056273234 0.071547396 0.91700006
0.0072351298 0.071547396 0.91700006
0.0088429367 0.071547396 0.91700006
0.010416553 0.071313329 0.91400003
0.0119928 0.071157277 0.91200006
0.01354713 0.070923209 0.90900004
0.015157566 0.071001232 0.91000003
0.0167531 0.071001232 0.91000003
0.018368797 0.071079254 0.91100007
0.019922249 0.070923209 0.90900004
0.02149236 0.070845187 0.90800005
0.023084387 0.070845187 0.90800005
0.024649236 0.070767164 0.90700006
0.02621058 0.070689142 0.90600002
0.0277991 0.070689142 0.90600002
0.029420057 0.070767164 0.90700006
0.030976139 0.070689142 0.90600002
0.032528717 0.070611119 0.90500003
0.034115482 0.070611119 0.90500003
0.035702251 0.070611119 0.90500003
0.037371423 0.070767164 0.90700006
0.038961697 0.070767164 0.90700006
0.040596679 0.070845187 0.90800005
0.042188708 0.070845187 0.90800005
0.043828949 0.070923209 0.90900004
0.045572639 0.071157277 0.91200006
0.047171678 0.071157277 0.91200006
0.048931148 0.071391352 0.91500002
0.050590679 0.071469374 0.91600007
0.052196734 0.071469374 0.91600007
0.053802785 0.071469374 0.91600007
0.055408839 0.071469374 0.91600007
0.057139378 0.071625419 0.91800004
0.058940928 0.071859486 0.92100006
0.060555749 0.071859486 0.92100006
0.062373079 0.072093561 0.92400002
0.063993156 0.072093561 0.92400002
0.06561324 0.072093561 0.92400002
0.067233317 0.072093561 0.92400002
0.081148647 0.084967412 1.0890001
0.082676679 0.084577292 1.0840001
0.084343225 0.084343225 1.0810001
0.086238578 0.084343225 1.0810001
0.088133931 0.084343225 1.0810001
0.090029284 0.084343225 1.0810001
0.091754563 0.08418718 1.079
-0.042329852 0.085600361 1.0730001
-0.02899575 0.075388953 0.94500005
-0.027338849 0.075388953 0.94500005
-0.02568195 0.075388953 0.94500005
-0.024101321 0.075628281 0.94800007
-0.022439159 0.075628281 0.94800007
-0.020798916 0.075708054 0.94900006
-0.019135004 0.075708054 0.94900006
-0.01747109 0.075708054 0.94900006
-0.0073613701 0.074431628 0.93300003
-0.0056886901 0.073952973 0.92700005
-0.0040633501 0.073952973 0.92700005
-0.00244064 0.074032746 0.92800003
-0.00081091665 0.073793419 0.92500007
0.00080916332 0.073633865 0.92300004
0.0024143399 0.073234983 0.91800004
0.0040282835 0.073314756 0.91900003
0.0056273234 0.073155202 0.91700006
0.0072351298 0.073155202 0.91700006
0.0088429367 0.073155202 0.91700006
0.010416553 0.072915874 0.91400003
0.0120191 0.072915874 0.91400003
0.013606743 0.072836094 0.91300005
0.015207537 0.072836094 0.91300005
0.0167531 0.072596766 0.91000003
0.018348632 0.072596766 0.91000003
0.019944167 0.072596766 0.91000003
0.021539699 0.072596766 0.91000003
0.023135234 0.072596766 0.91000003
0.024649236 0.072357439 0.90700006
0.02621058 0.072277658 0.90600002
0.0277991 0.072277658 0.90600002
0.029387619 0.072277658 0.90600002
0.030976139 0.072277658 0.90600002
0.032528717 0.072197884 0.90500003
0.034153178 0.072277658 0.90600002
0.035741698 0.072277658 0.90600002
0.037371423 0.072357439 0.90700006
0.038961697 0.072357439 0.90700006
0.04064139 0.072516993 0.90900004
0.042188708 0.072437212 0.90800005
0.043877166 0.072596766 0.91000003
0.045572639 0.07275632 0.91200006
0.047171678 0.07275632 0.91200006
0.048931148 0.072995648 0.91500002
0.050590679 0.073075429 0.91600007
0.052310701 0.073234983 0.91800004
0.053802785 0.073075429 0.91600007
0.055529818 0.073234983 0.91800004
0.057139378 0.073234983 0.91800004
0.058940928 0.07347431 0.92100006
0.060555749 0.07347431 0.92100006
0.062305577 0.073633865 0.92300004
0.063923903 0.073633865 0.92300004
0.065542229 0.073633865 0.92300004
0.067160554 0.073633865 0.92300004
0.081074134 0.086797014 1.0880001
0.082447872 0.086238578 1.0810001
0.084343225 0.086238578 1.0810001
0.085999243 0.085999243 1.0780001
0.087889336 0.085999243 1.0780001
0.089779429 0.085999243 1.0780001
0.091499455 0.085839696 1.0760001
-0.042329852 0.087481692 1.0730001
-0.02899575 0.07704585 0.94500005
-0.027338849 0.07704585 0.94500005
-0.02568195 0.07704585 0.94500005
-0.024101321 0.077290438 0.94800007
-0.022439159 0.077290438 0.94800007
-0.020798916 0.07737197 0.94900006
-0.019135004 0.07737197 0.94900006
-0.01747109 0.07737197 0.94900006
-0.0090261595 0.07631208 0.93600005
-0.0073613701 0.076067492 0.93300003
-0.0056948266 0.075659841 0.92800003
-0.0040677334 0.075659841 0.92800003
-0.00244064 0.075659841 0.92800003
-0.00081091665 0.075415246 0.92500007
0.00081003999 0.075333722 0.92400002
0.0024222301 0.075089127 0.92100006
0.0040282835 0.074926071 0.91900003
0.0056395968 0.074926071 0.91900003
0.0072351298 0.074763007 0.91700006
0.0088429367 0.074763007 0.91700006
0.010416553 0.07451842 0.91400003
0.0120191 0.07451842 0.91400003
0.013606743 0.074436888 0.91300005
0.015207537 0.074436888 0.91300005
0.0167531 0.0741923 0.91000003
0.018308306 0.074029237 0.90800005
0.019922249 0.074110769 0.90900004
0.021516031 0.074110769 0.90900004
0.02310981 0.074110769 0.90900004
0.02470359 0.074110769 0.90900004
0.02629737 0.074110769 0.90900004
0.02789115 0.074110769 0.90900004
0.029452493 0.074029237 0.90800005
0.03094195 0.073784649 0.90500003
0.032564659 0.073866181 0.90600002
0.034190878 0.073947713 0.90700006
0.035781149 0.073947713 0.90700006
0.037371423 0.073947713 0.90700006
0.038961697 0.073947713 0.90700006
0.04064139 0.074110769 0.90900004
0.042188708 0.074029237 0.90800005
0.044021815 0.074436888 0.91300005
0.045572639 0.074355356 0.91200006
0.047326848 0.074599952 0.91500002
0.048877671 0.07451842 0.91400003
0.050535448 0.074599952 0.91500002
0.052253716 0.074763007 0.91700006
0.053802785 0.074681483 0.91600007
0.055408839 0.074681483 0.91600007
0.057201624 0.074926071 0.91900003
0.058748938 0.074844539 0.91800004
0.060687251 0.07525219 0.92300004
0.062305577 0.07525219 0.92300004
0.063923903 0.07525219 0.92300004
0.072856262 0.083649777 1.026
0.074655183 0.083649777 1.026
0.080552518 0.088133931 1.0810001
0.082447872 0.088133931 1.0810001
0.08410915 0.087889336 1.0780001
0.085999243 0.087889336 1.0780001
0.087563217 0.087563217 1.074
0.089363016 0.087481692 1.0730001
0.091074273 0.087318629 1.0710001
-0.041935351 0.088530183 1.0630001
-0.02899575 0.078702748 0.94500005
-0.027338849 0.078702748 0.94500005
-0.02568195 0.078702748 0.94500005
-0.024126744 0.079035886 0.94900006
-0.02246283 0.079035886 0.94900006
-0.02084275 0.079202451 0.95100003
-0.019135004 0.079035886 0.94900006
-0.01747109 0.079035886 0.94900006
-0.015857147 0.079285733 0.95200002
-0.0090165166 0.077869914 0.93500006
-0.0073613701 0.077703349 0.93300003
-0.0056948266 0.077286936 0.92800003
-0.0040677334 0.077286936 0.92800003
-0.00244064 0.077286936 0.92800003
-0.00081091665 0.077037081 0.92500007
0.00081179332 0.077120364 0.92600006
0.00243012 0.076953799 0.92400002
0.0040370501 0.076703951 0.92100006
