# .PCD v0.7 - Point Cloud Data file format
VERSION 0.7
FIELDS x y z
SIZE 4 4 4
TYPE F F F
COUNT 1 1 1
WIDTH 255
HEIGHT 1
VIEWPOINT 0 0 0 1 0 0 0
POINTS 255
DATA ascii
-0.10487475 0.052206375 0.52700001
-0.10395075 0.052206375 0.52700001
-0.10341774 0.052404504 0.52900004
-0.10249022 0.052404504 0.52900004
-0.1017547 0.052503567 0.53000003
-0.096867286 0.053395137 0.53900003
-0.09556631 0.053197011 0.537
-0.094206601 0.0534942 0.54000002
-0.093259797 0.0534942 0.54000002
-0.092312999 0.0534942 0.54000002
-0.091366202 0.0534942 0.54000002
-0.090586841 0.053593263 0.54100001
-0.089638293 0.053593263 0.54100001
-0.088689737 0.053593263 0.54100001
-0.087903365 0.053692326 0.54200006
-0.089638293 0.054541815 0.54100001
-0.088689737 0.054541815 0.54100001
-0.087903365 0.054642633 0.54200006
-0.086953059 0.054642633 0.54200006
-0.087903365 0.055592939 0.54200006
-0.086953059 0.055592939 0.54200006
0.05992455 0.20260204 0.65100002
0.05992455 0.20374347 0.65100002
0.054677699 0.20152637 0.59400004
0.050426744 0.20222683 0.59300005
0.051466469 0.20222683 0.59300005
0.052506197 0.20222683 0.59300005
0.054677699 0.20256786 0.59400004
0.050341707 0.20292379 0.59200001
0.051379681 0.20292379 0.59200001
0.052506197 0.20326656 0.59300005
0.053636219 0.20360933 0.59400004
0.054769751 0.20395212 0.59500003
0.048184231 0.20361723 0.59100002
0.04922045 0.20361723 0.59100002
0.050341707 0.20396176 0.59200001
0.051379681 0.20396176 0.59200001
0.052506197 0.20430629 0.59300005
0.053636219 0.20465082 0.59400004
0.054769751 0.20499535 0.59500003
0.047068235 0.20430717 0.59000003
0.048102699 0.20430717 0.59000003
0.049303733 0.20499973 0.59200001
0.050426744 0.20534602 0.59300005
0.051553261 0.20569229 0.59400004
0.05259474 0.20569229 0.59400004
0.053726517 0.20603858 0.59500003
0.054861799 0.20638487 0.59600002
0.046111789 0.20568967 0.59100002
0.047148008 0.20568967 0.59100002
0.048102699 0.20534164 0.59000003
0.04922045 0.20568967 0.59100002
0.050426744 0.20638575 0.59300005
0.051466469 0.20638575 0.59300005
0.05259474 0.20673378 0.59400004
0.053636219 0.20673378 0.59400004
0.054769751 0.20708181 0.59500003
0.046111789 0.2067259 0.59100002
0.047148008 0.2067259 0.59100002
0.048102699 0.20637611 0.59000003
0.04922045 0.2067259 0.59100002
0.050341707 0.20707569 0.59200001
0.051466469 0.20742548 0.59300005
0.052506197 0.20742548 0.59300005
0.053545922 0.20742548 0.59300005
0.054769751 0.20812505 0.59500003
0.045075569 0.20776211 0.59100002
0.046111789 0.20776211 0.59100002
0.047148008 0.20776211 0.59100002
0.048184231 0.20776211 0.59100002
0.04922045 0.20776211 0.59100002
0.050341707 0.20811366 0.59200001
0.051379681 0.20811366 0.59200001
0.052506197 0.20846519 0.59300005
0.053636219 0.20881674 0.59400004
0.054677699 0.20881674 0.59400004
0.038989749 0.20950492 0.59300005
0.039894469 0.20879833 0.59100002
0.040930688 0.20879833 0.59100002
0.041824888 0.20809174 0.58900005
0.042930365 0.20844503 0.59000003
0.04403935 0.20879833 0.59100002
0.044999301 0.20844503 0.59000003
0.045955744 0.20809174 0.58900005
0.04690868 0.20773844 0.588
0.048102699 0.20844503 0.59000003
0.04922045 0.20879833 0.59100002
0.050341707 0.20915163 0.59200001
0.051379681 0.20915163 0.59200001
0.052506197 0.20950492 0.59300005
0.053636219 0.20985822 0.59400004
0.054677699 0.20985822 0.59400004
0.038078018 0.21125475 0.59500003
0.038924001 0.2101896 0.59200001
0.039894469 0.20983455 0.59100002
0.040861432 0.2094795 0.59000003
0.041824888 0.20912445 0.58900005
0.042857602 0.20912445 0.58900005
0.043964833 0.2094795 0.59000003
0.044999301 0.2094795 0.59000003
0.046033766 0.2094795 0.59000003
0.04690868 0.2087694 0.588
0.048021171 0.20912445 0.58900005
0.04922045 0.20983455 0.59100002
0.050341707 0.2101896 0.59200001
0.051292889 0.20983455 0.59100002
0.052329108 0.20983455 0.59100002
0.053365331 0.20983455 0.59100002
0.05440155 0.20983455 0.59100002
-0.16772211 0.20623232 0.57800001
0.038014021 0.21194118 0.59400004
0.038924001 0.21122757 0.59200001
0.039961971 0.21122757 0.59200001
0.040861432 0.21051396 0.59000003
0.041824888 0.21015716 0.58900005
0.042857602 0.21015716 0.58900005
0.043815799 0.20980036 0.588
0.044846758 0.20980036 0.588
0.045955744 0.21015716 0.58900005
0.046828903 0.20944355 0.58700001
0.047858108 0.20944355 0.58700001
0.050171632 0.21051396 0.59000003
0.051206101 0.21051396 0.59000003
0.05206348 0.20980036 0.588
0.053004142 0.20944355 0.58700001
0.054125398 0.20980036 0.588
-0.16627122 0.20545296 0.57300001
-0.16526657 0.20545296 0.57300001
0.039961971 0.21226555 0.59200001
0.040999945 0.21226555 0.59200001
0.053004142 0.21047276 0.58700001
0.054125398 0.21083131 0.588
-0.16627122 0.20645763 0.57300001
-0.16526657 0.20645763 0.57300001
0.053573098 0.20970042 0.58200002
-0.16714177 0.20854847 0.57600003
-0.16584341 0.20818642 0.57500005
0.053573098 0.21072085 0.58200002
-0.16714177 0.2095584 0.57600003
-0.16584341 0.20919459 0.57500005
-0.16454858 0.20883076 0.574
0.053573098 0.2117413 0.58200002
-0.16714177 0.21056832 0.57600003
-0.16613184 0.21056832 0.57600003
-0.16454858 0.20983718 0.574
-0.16336946 0.20680304 0.56300002
0.049643878 0.21111186 0.57200003
0.050646786 0.21111186 0.57200003
0.051649693 0.21111186 0.57200003
0.052192349 0.20926647 0.56700003
-0.16307929 0.20840646 0.56200004
0.04973067 0.21248558 0.57300001
0.050115526 0.20988978 0.56600004
0.051017616 0.20951895 0.565
0.052284401 0.21063145 0.56800002
-0.16249894 0.20864667 0.56
-0.16151707 0.20864667 0.56
0.050026983 0.21050958 0.565
0.050927319 0.21013699 0.56400001
0.052192349 0.21125475 0.56700003
-0.16191858 0.20887986 0.55800003
-0.16094021 0.20887986 0.55800003
0.04993844 0.21112588 0.56400001
0.050746728 0.2103772 0.56200004
0.052008249 0.21150021 0.565
-0.16133823 0.20910604 0.55600005
-0.1606518 0.20948213 0.55700004
0.049849898 0.21173868 0.56300002
0.050385538 0.20985822 0.55800003
0.051732101 0.21136259 0.56200004
-0.16075787 0.20932521 0.55400002
-0.16007495 0.20970304 0.55500001
0.04834203 0.21045874 0.55700004
0.049141549 0.20970304 0.55500001
0.050204948 0.21008089 0.55600005
0.051548 0.21159227 0.56
-0.16017751 0.20953736 0.55200005
-0.16007495 0.21067615 0.55500001
-0.15623514 0.20688018 0.54500002
-0.15527958 0.20688018 0.54500002
0.047365423 0.21143535 0.55700004
0.04834203 0.21143535 0.55700004
0.049141549 0.21067615 0.55500001
0.050204948 0.21105574 0.55600005
0.0513639 0.21181494 0.55800003
-0.15872663 0.20859845 0.54700005
-0.15805599 0.2089798 0.54800004
-0.15652181 0.2082171 0.546
-0.1555645 0.2082171 0.546
0.047365423 0.21241195 0.55700004
0.048428819 0.21279331 0.55800003
0.049230091 0.2120306 0.55600005
0.050024353 0.2112679 0.55400002
0.0511798 0.2120306 0.55600005
-0.15872663 0.20955752 0.54700005
-0.15776756 0.20955752 0.54700005
-0.15652181 0.20917442 0.546
-0.1555645 0.20917442 0.546
0.04745046 0.21377166 0.55800003
0.04851561 0.21415477 0.55900002
0.049230091 0.21300545 0.55600005
0.049843758 0.21147303 0.55200005
0.051087748 0.21262234 0.55500001
-0.15843646 0.21013173 0.546
-0.15747914 0.21013173 0.546
-0.15652181 0.21013173 0.546
-0.1555645 0.21013173 0.546
0.047535498 0.21513487 0.55900002
0.048602398 0.21551973 0.56
0.04940718 0.21475002 0.55800003
0.049392276 0.2105166 0.54700005
0.050535448 0.21128631 0.54900002
-0.15843646 0.21108906 0.546
-0.15747914 0.21108906 0.546
-0.15652181 0.21108906 0.546
0.048521746 0.21186228 0.54800004
0.049392276 0.21147567 0.54700005
0.0504434 0.21186228 0.54800004
-0.1566954 0.2097162 0.54000002
-0.15517175 0.20893948 0.53800005
-0.1539418 0.20855111 0.537
-0.15300025 0.20855111 0.537
0.048521746 0.21282311 0.54800004
0.049301978 0.21204638 0.546
0.050351351 0.21243474 0.54700005
-0.15582487 0.20949265 0.537
-0.15488333 0.20949265 0.537
-0.15365511 0.20910253 0.53600001
-0.15271533 0.20910253 0.53600001
0.048256118 0.21261358 0.54500002
0.049211685 0.21261358 0.54500002
0.050167251 0.21261358 0.54500002
-0.15582487 0.21043418 0.537
-0.15430649 0.20965044 0.53500003
-0.15336844 0.20965044 0.53500003
-0.1521455 0.20925857 0.53400004
-0.15120922 0.20925857 0.53400004
-0.15027294 0.20925857 0.53400004
0.047990486 0.21239354 0.54200006
0.048669904 0.21121792 0.53900003
0.049706999 0.2116098 0.54000002
-0.15524451 0.21058849 0.53500003
-0.15430649 0.21058849 0.53500003
-0.15336844 0.21058849 0.53500003
-0.1521455 0.21019486 0.53400004
-0.15120922 0.21019486 0.53400004
-0.15027294 0.21019486 0.53400004
0.047990486 0.21334384 0.54200006
0.048669904 0.21216297 0.53900003
0.049706999 0.2125566 0.54000002
-0.15495434 0.21113114 0.53400004
-0.15430649 0.21152651 0.53500003
-0.15336844 0.21152651 0.53500003
-0.1521455 0.21113114 0.53400004
-0.15064289 0.21034038 0.53200001
