# .PCD v0.7 - Point Cloud Data file format
VERSION 0.7
FIELDS x y z
SIZE 4 4 4
TYPE F F F
COUNT 1 1 1
WIDTH 1488
HEIGHT 1
VIEWPOINT 0 0 0 1 0 0 0
POINTS 1488
DATA ascii
0.51455951 -0.032343742 1.118
0.51420969 -0.032199088 1.113
0.51476991 -0.0321123 1.11
0.51485407 -0.031996578 1.1060001
0.51492417 -0.031880859 1.102
0.51544929 -0.031794071 1.0990001
0.51549315 -0.031678349 1.095
0.5159955 -0.031591561 1.092
0.51601303 -0.031475838 1.0880001
0.51792061 -0.031475838 1.0880001
0.51648378 -0.031273331 1.0810001
0.51837915 -0.031273331 1.0810001
0.51834935 -0.031157609 1.077
0.51878852 -0.031070819 1.074
0.51921725 -0.030984029 1.0710001
0.51914883 -0.03086831 1.067
0.51955473 -0.030781521 1.064
0.52191037 -0.030810449 1.0650001
0.52082676 -0.030636869 1.059
0.51774794 -0.030347569 1.049
0.51958716 -0.030347569 1.049
1.2197765 -0.10359745 3.8120003
1.2155211 -0.10267345 3.7780001
1.2156754 -0.10212991 3.7580001
1.2222644 -0.10212991 3.7580001
0.45117387 -0.035954729 1.3230001
0.45177963 -0.035818845 1.3180001
0.45409054 -0.035818845 1.3180001
0.45640144 -0.035818845 1.3180001
0.45697215 -0.035682961 1.3130001
0.45927426 -0.035682961 1.3130001
0.45981869 -0.035547081 1.3080001
0.46211204 -0.035547081 1.3080001
0.46227509 -0.035384018 1.302
0.46491474 -0.035411198 1.3030001
0.46540654 -0.035275314 1.2980001
0.46768239 -0.035275314 1.2980001
0.46959615 -0.035248138 1.2970001
0.47223404 -0.035275314 1.2980001
0.47450987 -0.035275314 1.2980001
0.47862229 -0.035411198 1.3030001
0.48164505 -0.03546555 1.3050001
0.48393315 -0.03546555 1.3050001
0.48622125 -0.03546555 1.3050001
0.49000669 -0.035574257 1.309
0.49380615 -0.035682961 1.3130001
1.3090614 -0.092020191 3.3860002
1.3165517 -0.092128903 3.3900001
1.3224955 -0.092128903 3.3900001
1.3280474 -0.092101723 3.3890002
1.3332022 -0.092047371 3.3870001
0.48670867 -0.033454478 1.2310001
0.48688138 -0.033318594 1.2260001
0.48823321 -0.033264238 1.2240001
0.49037927 -0.033264238 1.2240001
0.49252537 -0.033264238 1.2240001
0.49305487 -0.033155534 1.22
0.49275854 -0.032992475 1.2140001
0.49325651 -0.032883767 1.21
0.49292162 -0.032720707 1.2040001
0.49215454 -0.032530468 1.197
0.49425328 -0.032530468 1.197
0.49593735 -0.032503292 1.1960001
0.49428657 -0.032258704 1.187
0.49678597 -0.03228588 1.1880001
0.49718922 -0.032177173 1.184
0.49926516 -0.032177173 1.184
0.49922398 -0.032041289 1.179
0.49959043 -0.031932585 1.1750001
0.49994284 -0.031823877 1.171
0.50028121 -0.03171517 1.1670001
0.50232738 -0.03171517 1.1670001
0.50005156 -0.031443402 1.1570001
0.50077832 -0.031361874 1.154
0.50280166 -0.031361874 1.154
0.50307518 -0.031253166 1.1500001
0.50509149 -0.031253166 1.1500001
0.50578493 -0.031171637 1.1470001
0.50602514 -0.031062929 1.143
0.50714028 -0.031008577 1.141
0.50869459 -0.030981399 1.1400001
0.50890148 -0.030872693 1.136
0.51089329 -0.030872693 1.136
0.50972468 -0.030682456 1.1290001
0.50989127 -0.03057375 1.125
0.5100438 -0.030465042 1.1210001
0.51155251 -0.030437866 1.12
0.51214075 -0.030356336 1.1170001
0.51225823 -0.030247631 1.113
0.51420969 -0.030247631 1.113
0.51476991 -0.030166101 1.11
0.51485407 -0.030057393 1.1060001
0.51492417 -0.029948687 1.102
0.51544929 -0.029867157 1.0990001
0.51549315 -0.02975845 1.095
0.5159955 -0.02967692 1.092
0.51601303 -0.029568214 1.0880001
0.51792061 -0.029568214 1.0880001
0.51648378 -0.029377976 1.0810001
0.51837915 -0.029377976 1.0810001
0.51690543 -0.029187739 1.074
0.51733941 -0.029106209 1.0710001
0.51921725 -0.029106209 1.0710001
0.51914883 -0.028997503 1.067
0.51906645 -0.028888797 1.0630001
0.52044016 -0.02886162 1.062
0.51984316 -0.028725736 1.057
0.51774794 -0.028508322 1.049
0.51958716 -0.028508322 1.049
1.2319359 -0.097879834 3.8500001
1.2380427 -0.097828984 3.8480003
0.45117387 -0.033635069 1.3230001
0.45177963 -0.033507954 1.3180001
0.45409054 -0.033507954 1.3180001
0.45640144 -0.033507954 1.3180001
0.45697215 -0.033380836 1.3130001
0.45927426 -0.033380836 1.3130001
0.46087331 -0.03332999 1.3110001
0.46211204 -0.033253718 1.3080001
0.46369529 -0.033202872 1.3060001
0.46491474 -0.033126604 1.3030001
0.46719933 -0.033126604 1.3030001
0.46768239 -0.032999486 1.2980001
0.46959615 -0.032974064 1.2970001
0.47223404 -0.032999486 1.2980001
0.47450987 -0.032999486 1.2980001
0.47862229 -0.033126604 1.3030001
0.48127598 -0.033152025 1.304
0.48356232 -0.033152025 1.304
0.48733899 -0.033253718 1.3080001
0.49187839 -0.033406261 1.314
0.49418226 -0.033406261 1.314
1.3142215 -0.086032562 3.3840001
1.3224955 -0.086185098 3.3900001
1.3256962 -0.086007133 3.3830001
1.3316277 -0.086007133 3.3830001
1.3407223 -0.086210519 3.3910003
0.48688138 -0.031169007 1.2260001
0.48823321 -0.03111816 1.2240001
0.49037927 -0.03111816 1.2240001
0.49252537 -0.03111816 1.2240001
0.49305487 -0.031016467 1.22
0.49275854 -0.030863926 1.2140001
0.49325651 -0.030762233 1.21
0.49292162 -0.030609693 1.2040001
0.493388 -0.030508 1.2
0.49384037 -0.030406306 1.1960001
0.49510801 -0.030355459 1.194
0.49428657 -0.030177496 1.187
0.49678597 -0.03020292 1.1880001
0.49718922 -0.030101227 1.184
0.49926516 -0.030101227 1.184
0.49922398 -0.02997411 1.179
0.49959043 -0.029872416 1.1750001
0.49908897 -0.029719876 1.169
0.50113863 -0.029719876 1.169
0.50146645 -0.029618183 1.1650001
0.50005156 -0.029414797 1.1570001
0.50077832 -0.029338526 1.154
0.50280166 -0.029338526 1.154
0.50307518 -0.029236833 1.1500001
0.50289547 -0.029109716 1.1450001
0.50446206 -0.029084293 1.1440001
0.50602514 -0.02905887 1.143
0.50714028 -0.029008023 1.141
0.50690973 -0.028880907 1.136
0.50890148 -0.028880907 1.136
0.50909436 -0.028779212 1.1320001
0.50972468 -0.028702943 1.1290001
0.50989127 -0.02860125 1.125
0.5100438 -0.028499557 1.1210001
0.51155251 -0.028474133 1.12
0.51214075 -0.028397864 1.1170001
0.51225823 -0.028296169 1.113
0.51420969 -0.028296169 1.113
0.51430613 -0.028194476 1.1090001
0.51438856 -0.028092783 1.105
0.51445693 -0.02799109 1.1010001
0.51544929 -0.027940243 1.0990001
0.51549315 -0.027838551 1.095
0.5159955 -0.027762279 1.092
0.51601303 -0.027660586 1.0880001
0.51792061 -0.027660586 1.0880001
0.51648378 -0.027482623 1.0810001
0.51837915 -0.027482623 1.0810001
0.51642418 -0.027279237 1.0730001
0.51685637 -0.027202966 1.0700001
0.51630843 -0.027075849 1.0650001
0.51671612 -0.02699958 1.062
0.51857811 -0.02699958 1.062
0.51946008 -0.026948733 1.0600001
0.51689231 -0.026719924 1.051
0.51626724 -0.026592806 1.046
0.5176059 -0.026567383 1.0450001
1.2312958 -0.091082156 3.8480003
1.2335384 -0.090750776 3.8340001
0.4515149 -0.031339079 1.3240001
0.45177963 -0.03119706 1.3180001
0.45409054 -0.03119706 1.3180001
0.45432374 -0.031055041 1.312
0.45627606 -0.03103137 1.3110001
0.45857468 -0.03103137 1.3110001
0.46052176 -0.0310077 1.3100001
0.46069884 -0.03086568 1.304
0.46334025 -0.030889349 1.3050001
0.46598515 -0.03091302 1.3060001
0.46684077 -0.030818339 1.302
0.46912363 -0.030818339 1.302
0.47176853 -0.03084201 1.3030001
0.47405311 -0.03084201 1.3030001
0.4763377 -0.03084201 1.3030001
0.47862229 -0.03084201 1.3030001
0.48238319 -0.03093669 1.307
0.48467481 -0.03093669 1.307
0.48733899 -0.030960361 1.3080001
0.49187839 -0.03110238 1.314
0.49418226 -0.03110238 1.314
1.3051953 -0.079909921 3.3760002
1.3142215 -0.080099277 3.3840001
1.3224955 -0.0802413 3.3900001
1.3253044 -0.080051936 3.3820002
1.3316277 -0.080075607 3.3830001
1.3407223 -0.080264971 3.3910003
1.3466678 -0.080264971 3.3910003
1.3450346 -0.079815239 3.3720002
1.3509468 -0.079815239 3.3720002
1.3568591 -0.079815239 3.3720002
0.49265072 -0.028853729 1.2190001
0.49438214 -0.028830061 1.2180001
1.3232319 -0.076832816 3.2460001
1.3252386 -0.076619789 3.2370002
1.330503 -0.076596119 3.2360001
1.298602 -0.074442148 3.1450002
1.2900176 -0.073637366 3.1110001
1.2971379 -0.073732048 3.1150002
1.3046904 -0.073850401 3.1200001
0.49592945 -0.027954269 1.1810001
0.49631342 -0.027859589 1.177
0.49668339 -0.027764909 1.1730001
0.49874005 -0.027764909 1.1730001
0.49908897 -0.027670231 1.169
0.50113863 -0.027670231 1.169
0.50146645 -0.027575551 1.1650001
0.50005156 -0.02738619 1.1570001
0.50077832 -0.027315181 1.154
0.50280166 -0.027315181 1.154
0.50307518 -0.027220501 1.1500001
0.50289547 -0.02710215 1.1450001
0.50446206 -0.02707848 1.1440001
0.50646788 -0.02707848 1.1440001
0.50714028 -0.02700747 1.141
0.50735593 -0.02691279 1.1370001
0.50934947 -0.02691279 1.1370001
0.50954407 -0.02681811 1.133
0.50791878 -0.026628749 1.125
0.50989127 -0.026628749 1.125
0.5100438 -0.026534069 1.1210001
0.51018232 -0.026439389 1.1170001
0.5098483 -0.02632104 1.1120001
0.51179802 -0.02632104 1.1120001
0.51236171 -0.026250029 1.1090001
0.51245111 -0.026155351 1.105
0.512061 -0.026037 1.1
0.51258785 -0.02596599 1.097
0.5131042 -0.025894979 1.0940001
0.5150224 -0.025894979 1.0940001
0.5159955 -0.02584764 1.092
0.51601303 -0.02575296 1.0880001
0.51601654 -0.02565828 1.0840001
0.51648378 -0.02558727 1.0810001
0.51646101 -0.02549259 1.077
0.51546156 -0.025350571 1.0710001
0.51492417 -0.02523222 1.0660001
0.51679325 -0.02523222 1.0660001
0.51720268 -0.02516121 1.0630001
0.51906645 -0.02516121 1.0630001
0.51946008 -0.025090199 1.0600001
0.51640052 -0.0248535 1.0500001
0.51577365 -0.024735149 1.0450001
0.5176059 -0.024735149 1.0450001
1.2268161 -0.084028497 3.8340001
1.2335384 -0.084028497 3.8340001
0.44946876 -0.028886167 1.3180001
0.45177963 -0.028886167 1.3180001
0.45409054 -0.028886167 1.3180001
0.45432374 -0.028754666 1.312
0.45662409 -0.028754666 1.312
0.45857468 -0.028732751 1.3110001
0.4584125 -0.028579334 1.304
0.46069884 -0.028579334 1.304
0.46334025 -0.02860125 1.3050001
0.46598515 -0.028623166 1.3060001
0.46684077 -0.0285355 1.302
0.46912363 -0.0285355 1.302
0.47176853 -0.028557416 1.3030001
0.47405311 -0.028557416 1.3030001
0.4763377 -0.028557416 1.3030001
0.4800916 -0.028645083 1.307
0.48238319 -0.028645083 1.307
0.48652896 -0.028754666 1.312
0.48882934 -0.028754666 1.312
0.4911297 -0.028754666 1.312
0.49568662 -0.028886167 1.3180001
1.3004307 -0.074056417 3.3790002
1.3063552 -0.074056417 3.3790002
1.3169401 -0.074319415 3.3910003
1.3228856 -0.074319415 3.3910003
1.3096296 -0.073245503 3.3420002
1.3154892 -0.073245503 3.3420002
1.3233258 -0.073355086 3.3470001
1.3331654 -0.073574252 3.3570001
1.3450346 -0.073903002 3.3720002
1.3509468 -0.073903002 3.3720002
1.3303013 -0.072456501 3.3060002
1.3215487 -0.0716675 3.2700002
1.3268762 -0.07164558 3.2690001
1.3248625 -0.071229167 3.2500002
1.3240104 -0.070878498 3.2340002
1.3296807 -0.070878498 3.2340002
1.3229636 -0.070220999 3.2040002
1.3037015 -0.068906002 3.1440001
1.3008857 -0.068467669 3.1240001
1.3201627 -0.069190919 3.1570001
0.49676931 -0.025927417 1.1830001
0.49631342 -0.025795916 1.177
0.49668339 -0.025708251 1.1730001
0.49874005 -0.025708251 1.1730001
0.49908897 -0.025620583 1.169
0.50113863 -0.025620583 1.169
0.50146645 -0.025532916 1.1650001
0.49875495 -0.025291834 1.154
0.50077832 -0.025291834 1.154
0.50280166 -0.025291834 1.154
0.50307518 -0.025204167 1.1500001
0.50289547 -0.025094584 1.1450001
0.50446206 -0.025072666 1.1440001
0.50646788 -0.025072666 1.1440001
0.50758475 -0.025028832 1.1420001
0.50780213 -0.024941167 1.138
0.50979745 -0.024941167 1.138
0.50999379 -0.0248535 1.1340001
0.50837022 -0.024678167 1.126
0.51034451 -0.024678167 1.126
0.51049876 -0.0245905 1.1220001
0.51063907 -0.024502832 1.118
0.51030678 -0.024393249 1.113
0.51225823 -0.024393249 1.113
0.5128237 -0.0243275 1.11
0.51245111 -0.024217917 1.105
0.512061 -0.024108334 1.1
0.51258785 -0.024042584 1.097
0.5131042 -0.023976833 1.0940001
0.5150224 -0.023976833 1.0940001
0.5159955 -0.023932999 1.092
0.51601303 -0.023845334 1.0880001
0.51601654 -0.023757666 1.0840001
0.51648378 -0.023691917 1.0810001
0.51646101 -0.02360425 1.077
0.5140177 -0.023406999 1.0680001
0.5139581 -0.023319334 1.064
0.51582366 -0.023319334 1.064
0.51622957 -0.023253582 1.0610001
0.51808983 -0.023253582 1.0610001
0.51847994 -0.023187833 1.0580001
0.51640052 -0.0230125 1.0500001
0.51528013 -0.022880999 1.044
0.51711059 -0.022880999 1.044
1.2386554 -0.07805226 3.8710003
0.44810465 -0.02649462 1.314
0.45040855 -0.02649462 1.314
0.4523679 -0.026474457 1.3130001
0.45397744 -0.026434129 1.3110001
0.45662409 -0.026454292 1.312
0.45857468 -0.026434129 1.3110001
0.45876405 -0.02631315 1.3050001
0.46069884 -0.026292987 1.304
0.46334025 -0.02631315 1.3050001
0.46598515 -0.026333313 1.3060001
0.46719933 -0.026272824 1.3030001
0.46984425 -0.026292987 1.304
0.47176853 -0.026272824 1.3030001
0.47368929 -0.026252659 1.302
0.4763377 -0.026272824 1.3030001
0.4800916 -0.026353477 1.307
0.48238319 -0.026353477 1.307
0.48467481 -0.026353477 1.307
0.48882934 -0.026454292 1.312
0.49337572 -0.026575273 1.3180001
1.2985064 -0.068031088 3.3740001
1.3082882 -0.068232723 3.3840001
1.3169401 -0.068373866 3.3910003
1.3096217 -0.067688309 3.3570001
1.3096296 -0.06738586 3.3420002
1.3154892 -0.06738586 3.3420002
1.3233258 -0.067486674 3.3470001
1.331974 -0.067627817 3.3540001
1.343838 -0.067930266 3.3690002
1.3505462 -0.067970596 3.3710001
1.3294965 -0.06661965 3.3040001
1.3211446 -0.065913938 3.2690001
1.3268762 -0.065913938 3.2690001
1.3342384 -0.065994591 3.2730002
1.3383394 -0.065913938 3.2690001
1.3309141 -0.06526871 3.2370002
1.3382413 -0.065349363 3.2410002
1.3310694 -0.064724296 3.21
1.3275363 -0.064280704 3.1880002
1.3460892 -0.06490577 3.2190001
1.379868 -0.066256709 3.2860003
1.3839428 -0.066176057 3.2820001
1.3761475 -0.065530837 3.2500002
1.3729169 -0.065107405 3.2290001
0.49908897 -0.023570936 1.169
0.50113863 -0.023570936 1.169
0.50146645 -0.023490284 1.1650001
0.49875495 -0.023268487 1.154
0.50077832 -0.023268487 1.154
0.50280166 -0.023268487 1.154
0.50307518 -0.023187833 1.1500001
0.50289547 -0.023087017 1.1450001
0.50446206 -0.023066854 1.1440001
0.50469702 -0.0229862 1.1400001
0.50758475 -0.023026526 1.1420001
0.50780213 -0.022945873 1.138
0.50979745 -0.022945873 1.138
0.50999379 -0.022865219 1.1340001
0.50882173 -0.022724077 1.1270001
0.50853151 -0.02262326 1.1220001
0.50913382 -0.02256277 1.1190001
0.51063907 -0.022542607 1.118
0.51030678 -0.02244179 1.113
0.51087749 -0.0223813 1.11
0.5128237 -0.0223813 1.11
0.5129149 -0.022300646 1.1060001
0.51299202 -0.022219993 1.102
0.51352239 -0.022159504 1.0990001
0.51357323 -0.022078849 1.095
0.51549315 -0.022078849 1.095
0.51552296 -0.021998197 1.0910001
0.51601303 -0.021937707 1.0880001
0.51601654 -0.021857053 1.0840001
0.51457262 -0.021715909 1.077
0.5150224 -0.02165542 1.074
0.51353645 -0.021514276 1.067
0.5139581 -0.021453787 1.064
0.51533884 -0.021433624 1.0630001
0.51574302 -0.021373134 1.0600001
0.51760155 -0.021373134 1.0600001
0.51847994 -0.021332806 1.0580001
0.51885957 -0.021272317 1.0550001
0.51528013 -0.02105052 1.044
0.51711059 -0.02105052 1.044
1.2533747 -0.072111972 3.9170003
0.44810465 -0.024190741 1.314
0.45040855 -0.024190741 1.314
0.4523679 -0.02417233 1.3130001
0.45467001 -0.02417233 1.3130001
0.45697215 -0.02417233 1.3130001
0.45892447 -0.02415392 1.312
0.45946714 -0.02406187 1.307
0.46105215 -0.024025049 1.3050001
0.46334025 -0.024025049 1.3050001
0.46598515 -0.024043459 1.3060001
0.46719933 -0.02398823 1.3030001
0.46984425 -0.024006641 1.304
0.47176853 -0.02398823 1.3030001
0.47405311 -0.02398823 1.3030001
0.4763377 -0.02398823 1.3030001
0.4800916 -0.02406187 1.307
0.48275226 -0.02408028 1.3080001
0.48504564 -0.02408028 1.3080001
0.48882934 -0.02415392 1.312
0.49337572 -0.02426438 1.3180001
1.2977366 -0.062078521 3.3720002
1.3102213 -0.06239149 3.3890002
1.3169401 -0.062428311 3.3910003
1.3096217 -0.061802369 3.3570001
1.3096296 -0.06152622 3.3420002
1.3154892 -0.06152622 3.3420002
1.3233258 -0.061618268 3.3470001
1.3311797 -0.06171032 3.3520002
1.3254893 -0.06117643 3.3230002
1.3313156 -0.06117643 3.3230002
1.3480065 -0.0616735 3.3500001
1.3579216 -0.0618576 3.3600001
1.3536654 -0.061397351 3.3350003
1.3460603 -0.06078982 3.302
1.3514404 -0.060771409 3.3010001
1.3440711 -0.060182288 3.2690001
1.3514544 -0.06025593 3.2730002
1.3592664 -0.060347978 3.2780001
1.3666795 -0.06042162 3.2820001
1.3636523 -0.060035009 3.2610002
1.36937 -0.060035009 3.2610002
1.3662324 -0.059648398 3.2400002
1.3456606 -0.058506981 3.1780002
1.3495319 -0.058433339 3.1740003
1.3555239 -0.058451749 3.1750002
1.3610908 -0.058451749 3.1750002
1.3662271 -0.058433339 3.1740003
1.3666059 -0.058212418 3.1620002
1.3738858 -0.05828606 3.1660001
1.3794367 -0.05828606 3.1660001
0.50307518 -0.021171499 1.1500001
0.50289547 -0.021079449 1.1450001
0.50269818 -0.020987401 1.1400001
0.50469702 -0.020987401 1.1400001
0.50580686 -0.02095058 1.138
0.50780213 -0.02095058 1.138
0.50979745 -0.02095058 1.138
0.50999379 -0.02087694 1.1340001
0.50701576 -0.02067443 1.123
0.50717181 -0.02060079 1.1190001
0.50731385 -0.02052715 1.115
0.50698507 -0.0204351 1.11
0.50893128 -0.0204351 1.11
0.51087749 -0.0204351 1.11
0.51097566 -0.020361461 1.1060001
0.5129149 -0.020361461 1.1060001
0.51299202 -0.020287819 1.102
0.51305515 -0.02021418 1.098
0.51357323 -0.02015895 1.095
0.5150224 -0.02014054 1.0940001
0.5159955 -0.020103719 1.092
0.5164873 -0.02004849 1.0890001
0.51458842 -0.01990121 1.0810001
0.51313931 -0.01977234 1.074
0.51358378 -0.01971711 1.0710001
0.51353645 -0.019643471 1.067
0.51250899 -0.01953301 1.0610001
0.51388448 -0.0195146 1.0600001
0.51574302 -0.0195146 1.0600001
0.51760155 -0.0195146 1.0600001
0.51847994 -0.019477779 1.0580001
0.51689231 -0.01934891 1.051
0.51528013 -0.019220039 1.044
0.51711059 -0.019220039 1.044
1.2479349 -0.064961001 3.9000001
0.44980976 -0.021970144 1.319
0.45212242 -0.021970144 1.319
0.4523679 -0.021870203 1.3130001
0.45467001 -0.021870203 1.3130001
0.45697215 -0.021870203 1.3130001
0.45892447 -0.021853546 1.312
0.45946714 -0.021770263 1.307
0.46105215 -0.02173695 1.3050001
0.46405035 -0.021770263 1.307
0.46634194 -0.021770263 1.307
0.46827501 -0.021753607 1.3060001
0.47092515 -0.021770263 1.307
0.47321677 -0.021770263 1.307
0.47550839 -0.021770263 1.307
0.47779998 -0.021770263 1.307
0.4800916 -0.021770263 1.307
0.48275226 -0.021786921 1.3080001
0.48504564 -0.021786921 1.3080001
0.48882934 -0.021853546 1.312
0.49337572 -0.021953486 1.3180001
1.3046641 -0.056466099 3.3900001
1.3109945 -0.056482755 3.3910003
1.3169401 -0.056482755 3.3910003
1.3096217 -0.055916429 3.3570001
1.3096296 -0.055666581 3.3420002
1.3154892 -0.055666581 3.3420002
1.3233258 -0.055749863 3.3470001
1.3311797 -0.055833146 3.3520002
1.3254893 -0.055350102 3.3230002
1.3313156 -0.055350102 3.3230002
1.3596758 -0.056282878 3.3790002
1.3538802 -0.055799834 3.3500001
1.3536654 -0.055549983 3.3350003
1.3595127 -0.055549983 3.3350003
1.3526686 -0.055033628 3.3040001
1.3453046 -0.054500613 3.2720001
1.3498027 -0.054450642 3.2690001
1.3555344 -0.054450642 3.2690001
1.3650138 -0.054600552 3.2780001
1.3640705 -0.054334044 3.2620001
1.36937 -0.054317389 3.2610002
1.3759309 -0.054350704 3.2630002
1.3549759 -0.053301334 3.2
1.3516579 -0.052951545 3.1790001
1.3572316 -0.052951545 3.1790001
1.3610908 -0.052884918 3.1750002
1.3666576 -0.052884918 3.1750002
1.375682 -0.053018171 3.1830001
1.3738858 -0.052735005 3.1660001
1.3794367 -0.052735005 3.1660001
1.3849878 -0.052735005 3.1660001
1.3905388 -0.052735005 3.1660001
0.50269818 -0.0189886 1.1400001
0.50469702 -0.0189886 1.1400001
0.50580686 -0.018955287 1.138
0.50780213 -0.018955287 1.138
0.50800556 -0.01888866 1.1340001
0.50999379 -0.01888866 1.1340001
0.50656432 -0.018688779 1.1220001
0.50717181 -0.01863881 1.1190001
0.50685889 -0.018555526 1.1140001
0.50698507 -0.018488901 1.11
0.5070973 -0.018422274 1.1060001
0.50903648 -0.018422274 1.1060001
0.51097566 -0.018422274 1.1060001
0.51105982 -0.018355647 1.102
0.51299202 -0.018355647 1.102
0.51118606 -0.018222393 1.0940001
0.51357323 -0.018239049 1.095
0.51549315 -0.018239049 1.095
0.5159955 -0.01818908 1.092
0.5164873 -0.018139109 1.0890001
0.51458842 -0.018005857 1.0810001
0.51170594 -0.01783929 1.0710001
0.51166564 -0.017772663 1.067
0.51209253 -0.017722692 1.064
0.51250899 -0.017672723 1.0610001
0.51388448 -0.017656067 1.0600001
0.51525646 -0.01763941 1.059
0.51564831 -0.017589441 1.056
0.51798987 -0.017606096 1.057
0.51689231 -0.017506156 1.051
0.51626724 -0.017422874 1.046
0.5176059 -0.017406216 1.0450001
0.44946876 -0.019642593 1.3180001
0.45143688 -0.01962769 1.317
0.45167881 -0.01953827 1.3110001
0.45467001 -0.019568076 1.3130001
0.45697215 -0.019568076 1.3130001
0.45892447 -0.019553173 1.312
0.45946714 -0.019478656 1.307
0.46105215 -0.01944885 1.3050001
0.46405035 -0.019478656 1.307
0.46634194 -0.019478656 1.307
0.46827501 -0.019463753 1.3060001
0.47092515 -0.019478656 1.307
0.47321677 -0.019478656 1.307
0.47514457 -0.019463753 1.3060001
0.47779998 -0.019478656 1.307
0.4800916 -0.019478656 1.307
0.48238319 -0.019478656 1.307
0.48467481 -0.019478656 1.307
0.48882934 -0.019553173 1.312
0.49337572 -0.019642593 1.3180001
1.3050489 -0.050537203 3.3910003
1.3109945 -0.050537203 3.3910003
1.3169401 -0.050537203 3.3910003
1.3096217 -0.050030489 3.3570001
1.3096296 -0.049806941 3.3420002
1.3154892 -0.049806941 3.3420002
1.3272794 -0.050030489 3.3570001
1.3192658 -0.049508873 3.3220003
1.3254893 -0.049523775 3.3230002
1.3313156 -0.049523775 3.3230002
1.3624926 -0.050462686 3.3860002
1.3550926 -0.049970876 3.3530002
1.3581302 -0.049866553 3.3460002
1.3607357 -0.049747325 3.3380001
1.3534874 -0.049270421 3.3060002
1.3473604 -0.048838224 3.2770002
1.353106 -0.048838224 3.2770002
1.3576077 -0.048793513 3.2740002
1.3650138 -0.048853125 3.2780001
1.3782883 -0.049121387 3.2960002
1.36979 -0.048614673 3.2620001
1.377196 -0.048674285 3.2660003
1.3689492 -0.048182476 3.233
1.3516579 -0.047377698 3.1790001
1.3572316 -0.047377698 3.1790001
1.3610908 -0.047318082 3.1750002
1.3666576 -0.047318082 3.1750002
1.375682 -0.04743731 3.1830001
1.3721499 -0.047124341 3.1620002
1.3794367 -0.047183953 3.1660001
1.3849878 -0.047183953 3.1660001
1.3905388 -0.047183953 3.1660001
1.3982947 -0.04725847 3.1710002
1.410938 -0.047496922 3.187
1.4169704 -0.047511827 3.1880002
0.50780213 -0.016959993 1.138
0.50800556 -0.016900379 1.1340001
0.50999379 -0.016900379 1.1340001
0.51198208 -0.016900379 1.1340001
0.5070973 -0.016483087 1.1060001
0.50903648 -0.016483087 1.1060001
0.51097566 -0.016483087 1.1060001
0.5105961 -0.01640857 1.1010001
0.51299202 -0.016423473 1.102
0.51118606 -0.016304247 1.0940001
0.51357323 -0.01631915 1.095
0.51361006 -0.016259536 1.0910001
0.5159955 -0.016274439 1.092
0.51601303 -0.016214827 1.0880001
0.51268429 -0.01605089 1.077
0.51170594 -0.01596147 1.0710001
0.51070654 -0.01587205 1.0650001
0.51112998 -0.015827339 1.062
0.51250899 -0.015812436 1.0610001
0.51436925 -0.015812436 1.0610001
0.51379681 -0.015737919 1.056
0.51613665 -0.015752824 1.057
0.51700979 -0.015723016 1.0550001
0.51689231 -0.015663404 1.051
0.51774794 -0.015633596 1.049
0.51958716 -0.015633596 1.049
0.45055056 -0.0174632 1.3280001
0.45083284 -0.0173843 1.322
0.45177963 -0.017331701 1.3180001
0.45409054 -0.017331701 1.3180001
0.45467001 -0.017265949 1.3130001
0.45697215 -0.017265949 1.3130001
0.45927426 -0.017265949 1.3130001
0.46122485 -0.017252799 1.312
0.46352524 -0.017252799 1.312
0.46582559 -0.017252799 1.312
0.46634194 -0.01718705 1.307
0.46899211 -0.0172002 1.3080001
0.47128546 -0.0172002 1.3080001
0.47321677 -0.01718705 1.307
0.47550839 -0.01718705 1.307
0.47962785 -0.017252799 1.312
0.4819282 -0.017252799 1.312
0.48422858 -0.017252799 1.312
0.48652896 -0.017252799 1.312
0.48882934 -0.017252799 1.312
0.49337572 -0.017331701 1.3180001
1.3069732 -0.044657398 3.3960001
1.3129276 -0.044657398 3.3960001
1.3076193 -0.044276051 3.3670001
1.3096217 -0.044144548 3.3570001
1.3155075 -0.044144548 3.3570001
1.308404 -0.043710601 3.3240001
1.314232 -0.043710601 3.3240001
1.3220458 -0.043776348 3.3290002
1.329877 -0.0438421 3.3340001
1.3373252 -0.043894701 3.3380001
1.3657117 -0.044631101 3.3940001
1.3579216 -0.044183999 3.3600001
1.3703071 -0.0443944 3.3760002
1.369704 -0.044183999 3.3600001
1.3600379 -0.0436843 3.3220003
1.3457158 -0.043039951 3.2730002
1.353106 -0.043092549 3.2770002
1.3613397 -0.04317145 3.2830002
1.3666795 -0.0431583 3.2820001
1.3745248 -0.043224048 3.2870002
1.3668505 -0.04280325 3.2550001
1.3729792 -0.042816401 3.256
1.3647149 -0.042382449 3.223
1.3644133 -0.042198349 3.2090001
1.3572316 -0.041803848 3.1790001
1.3610908 -0.041751251 3.1750002
1.3662271 -0.0417381 3.1740003
1.373521 -0.041790701 3.1780002
1.3704141 -0.0415277 3.1580002
1.3794367 -0.041632898 3.1660001
1.3849878 -0.041632898 3.1660001
1.3905388 -0.041632898 3.1660001
1.3982947 -0.04169865 3.1710002
1.410938 -0.04190905 3.187
1.4169704 -0.0419222 3.1880002
1.42256 -0.0419222 3.1880002
1.4281496 -0.0419222 3.1880002
1.3541371 -0.03959465 3.0110002
1.3490322 -0.039292201 2.9880002
1.376407 -0.039476302 3.0020001
0.50397372 -0.01439925 1.095
0.50543165 -0.0143861 1.0940001
0.50734979 -0.0143861 1.0940001
0.50926793 -0.0143861 1.0940001
0.51118606 -0.0143861 1.0940001
0.51357323 -0.01439925 1.095
0.51361006 -0.01434665 1.0910001
0.51646799 -0.014372949 1.0930001
0.51696157 -0.0143335 1.09
0.51268429 -0.01416255 1.077
0.51170594 -0.01408365 1.0710001
0.51118606 -0.0140179 1.0660001
0.51161128 -0.01397845 1.0630001
0.51250899 -0.01395215 1.0610001
0.51436925 -0.01395215 1.0610001
0.51428336 -0.01389955 1.057
0.51711321 -0.013925849 1.059
0.51749986 -0.0138864 1.056
0.51787591 -0.01384695 1.0530001
0.51774794 -0.01379435 1.049
0.51958716 -0.01379435 1.049
0.44822213 -0.015134773 1.3280001
0.44885421 -0.01507779 1.3230001
0.45083284 -0.015066394 1.322
0.45177963 -0.015020806 1.3180001
0.45409054 -0.015020806 1.3180001
0.45640144 -0.015020806 1.3180001
0.45697215 -0.014963823 1.3130001
0.45927426 -0.014963823 1.3130001
0.46122485 -0.014952427 1.312
0.46387851 -0.014963823 1.3130001
0.46582559 -0.014952427 1.312
0.46634194 -0.014895443 1.307
0.46899211 -0.014906839 1.3080001
0.47128546 -0.014906839 1.3080001
0.47321677 -0.014895443 1.307
0.47550839 -0.014895443 1.307
0.47779998 -0.014895443 1.307
0.4800916 -0.014895443 1.307
0.48238319 -0.014895443 1.307
0.48467481 -0.014895443 1.307
0.49106482 -0.015020806 1.3180001
1.3144275 -0.039101962 3.4310002
1.3069732 -0.03870308 3.3960001
1.3148606 -0.038760062 3.4010003
1.3076193 -0.038372576 3.3670001
1.3096217 -0.038258608 3.3570001
1.3072783 -0.038019281 3.3360002
1.2985634 -0.037597604 3.2990003
1.3086967 -0.037722968 3.3100002
1.3152945 -0.037745759 3.3120003
1.3123262 -0.037495032 3.2900002
1.3196971 -0.037540618 3.2940001
1.3645045 -0.038646098 3.3910003
1.3603464 -0.038361181 3.3660002
1.3662481 -0.038361181 3.3660002
1.3762264 -0.038475145 3.3760002
1.3661789 -0.038030677 3.3370001
1.3469492 -0.037335481 3.2760003
1.3547577 -0.037392464 3.2810001
1.3576077 -0.037312686 3.2740002
1.3633481 -0.037312686 3.2740002
1.3669977 -0.037255704 3.2690001
1.3592918 -0.03689101 3.2370002
1.3649673 -0.03689101 3.2370002
1.3706429 -0.03689101 3.2370002
1.3631377 -0.036537714 3.2060001
1.3555239 -0.036184415 3.1750002
1.3610908 -0.036184415 3.1750002
1.3653662 -0.036150228 3.1720002
1.3730888 -0.03620721 3.177
1.3829986 -0.036321178 3.187
1.3925078 -0.036423746 3.1960001
1.3849878 -0.036081847 3.1660001
1.3905388 -0.036081847 3.1660001
1.3850658 -0.035796929 3.141
1.3976566 -0.035979275 3.1570001
1.4027473 -0.035967879 3.1560001
1.408727 -0.035979275 3.1570001
1.362745 -0.034668658 3.0420001
1.3541371 -0.034315363 3.0110002
1.3490322 -0.03405324 2.9880002
1.3542712 -0.03405324 2.9880002
1.3595101 -0.03405324 2.9880002
0.90169287 -0.022075344 1.937
0.90508908 -0.022075344 1.937
0.51169717 -0.012433764 1.0910001
0.51361006 -0.012433764 1.0910001
0.51646799 -0.012456557 1.0930001
0.51696157 -0.012422367 1.09
0.51316035 -0.012285607 1.0780001
0.50979483 -0.012160243 1.067
0.51118606 -0.012148847 1.0660001
0.51016742 -0.012080466 1.0600001
0.51105982 -0.012057673 1.0580001
0.51339966 -0.01206907 1.059
0.51525646 -0.01206907 1.059
0.51711321 -0.01206907 1.059
0.51798987 -0.012046277 1.057
0.51738411 -0.011989294 1.052
0.51774794 -0.011955103 1.049
0.51958716 -0.011955103 1.049
0.44754711 -0.01278706 1.3260001
0.44817567 -0.012738843 1.3210001
0.45049182 -0.012738843 1.3210001
0.45177963 -0.012709913 1.3180001
0.45409054 -0.012709913 1.3180001
0.45640144 -0.012709913 1.3180001
0.45697215 -0.012661696 1.3130001
0.45927426 -0.012661696 1.3130001
0.46087331 -0.01264241 1.3110001
0.46352524 -0.012652053 1.312
0.46582559 -0.012652053 1.312
0.46634194 -0.012603836 1.307
0.46863356 -0.012603836 1.307
0.47092515 -0.012603836 1.307
0.47321677 -0.012603836 1.307
0.47514457 -0.012594193 1.3060001
0.47779998 -0.012603836 1.307
0.4800916 -0.012603836 1.307
0.48238319 -0.012603836 1.307
0.48467481 -0.012603836 1.307
1.3144275 -0.033086278 3.4310002
1.3069732 -0.032748759 3.3960001
1.3171803 -0.032854836 3.4070001
1.3076193 -0.032469105 3.3670001
1.3068908 -0.032305166 3.3500001
1.2947385 -0.031861573 3.3040001
1.2985634 -0.031813357 3.2990003
1.3086967 -0.031919435 3.3100002
1.313706 -0.031900145 3.3080001
1.3151183 -0.031794071 3.2970002
1.3225017 -0.031832643 3.3010001
1.3508232 -0.032372668 3.3570001
1.3603464 -0.03245946 3.3660002
1.3662481 -0.03245946 3.3660002
1.3782647 -0.032604109 3.381
1.3563533 -0.031948362 3.3130002
1.3576393 -0.031842288 3.302
1.3634288 -0.031842288 3.302
1.3576077 -0.031572275 3.2740002
1.3616825 -0.031533699 3.2700002
1.3669977 -0.031524055 3.2690001
1.3727294 -0.031524055 3.2690001
1.3649673 -0.03121547 3.2370002
1.3706429 -0.03121547 3.2370002
1.3631377 -0.030916527 3.2060001
1.3555239 -0.030617584 3.1750002
1.3610908 -0.030617584 3.1750002
1.3649358 -0.03057901 3.1710002
1.3717922 -0.030607941 3.1740003
1.3808289 -0.030685086 3.1820002
1.3920721 -0.030810449 3.1950002
1.3963617 -0.030781521 3.1920002
1.3975662 -0.030685086 3.1820002
1.3907983 -0.030415073 3.154
1.3989847 -0.030472932 3.1600001
1.3756347 -0.029846117 3.095
1.3699056 -0.029605033 3.0700002
1.363193 -0.029344663 3.0430002
1.3545867 -0.02904572 3.0120001
1.3481293 -0.028794993 2.9860001
1.3538179 -0.028804636 2.9870002
1.3590552 -0.028804636 2.9870002
0.90015167 -0.01871771 1.9410001
0.90215838 -0.018688779 1.9380001
0.90555632 -0.018688779 1.9380001
0.8972289 -0.018447697 1.9130001
0.89540452 -0.01834162 1.9020001
0.8987394 -0.01834162 1.9020001
0.90159994 -0.018331977 1.9010001
0.51363635 -0.010405157 1.079
0.51027262 -0.01029908 1.0680001
0.51022702 -0.010260507 1.064
0.51016742 -0.010221933 1.0600001
0.51202595 -0.010221933 1.0600001
0.51388448 -0.010221933 1.0600001
0.51476991 -0.010202646 1.0580001
0.51564831 -0.010183359 1.056
0.51749986 -0.010183359 1.056
0.51590866 -0.010115856 1.049
0.51577365 -0.010077284 1.0450001
0.5176059 -0.010077284 1.0450001
0.44822213 -0.01047792 1.3280001
0.44885421 -0.01043847 1.3230001
0.45083284 -0.01043058 1.322
0.45143688 -0.01039113 1.317
0.45374602 -0.01039113 1.317
0.45640144 -0.01039902 1.3180001
0.45697215 -0.01035957 1.3130001
0.45927426 -0.01035957 1.3130001
0.46122485 -0.01035168 1.312
0.46352524 -0.01035168 1.312
0.46582559 -0.01035168 1.312
0.46812597 -0.01035168 1.312
0.46863356 -0.01031223 1.307
0.47092515 -0.01031223 1.307
0.47321677 -0.01031223 1.307
0.47514457 -0.01030434 1.3060001
0.47779998 -0.01031223 1.307
0.4800916 -0.01031223 1.307
0.48238319 -0.01031223 1.307
0.48467481 -0.01031223 1.307
0.48882934 -0.01035168 1.312
1.3163431 -0.02711004 3.4360001
1.3112067 -0.026881229 3.4070001
1.3171803 -0.026881229 3.4070001
1.3091727 -0.026597191 3.3710001
1.3068908 -0.026431499 3.3500001
1.2982653 -0.02613957 3.3130002
1.308404 -0.02622636 3.3240001
1.314232 -0.02622636 3.3240001
1.3196629 -0.02621847 3.3230002
1.3211015 -0.02613168 3.3120003
1.3285111 -0.026163239 3.3160002
1.3524327 -0.026518289 3.3610001
1.3603464 -0.02655774 3.3660002
1.3703071 -0.02663664 3.3760002
1.3782647 -0.02667609 3.381
1.3563533 -0.02613957 3.3130002
1.3576393 -0.02605278 3.302
1.3626029 -0.026037 3.3000002
1.355949 -0.025800301 3.2700002
1.361266 -0.025792411 3.2690001
1.3669977 -0.025792411 3.2690001
1.3727294 -0.025792411 3.2690001
1.3649673 -0.025539929 3.2370002
1.3706429 -0.025539929 3.2370002
1.3631377 -0.02529534 3.2060001
1.3687589 -0.02529534 3.2060001
1.3610908 -0.02505075 3.1750002
1.3666576 -0.02505075 3.1750002
1.3717922 -0.02504286 3.1740003
1.3803949 -0.025098089 3.1810002
1.3912008 -0.025192769 3.1930001
1.3963617 -0.025184879 3.1920002
1.4089856 -0.02531112 3.2080002
1.4049091 -0.02513754 3.1860001
1.4003128 -0.02495607 3.1630001
1.3756347 -0.02441955 3.095
1.3699056 -0.024222299 3.0700002
1.363193 -0.024009271 3.0430002
1.3545867 -0.023764679 3.0120001
1.3481293 -0.023559541 2.9860001
1.3533647 -0.023559541 2.9860001
1.3708849 -0.023772569 3.0130002
0.91240835 -0.0157011 1.9900001
0.91846263 -0.01568532 1.988
0.90015167 -0.01531449 1.9410001
0.90727895 -0.01537761 1.9490001
0.90602362 -0.01529871 1.9390001
0.8972289 -0.01509357 1.9130001
0.89540452 -0.01500678 1.9020001
0.8987394 -0.01500678 1.9020001
0.90207422 -0.01500678 1.9020001
0.90540904 -0.01500678 1.9020001
0.90874392 -0.01500678 1.9020001
0.51070654 -0.0084028495 1.0650001
0.51064867 -0.0083712898 1.0610001
0.51202595 -0.0083633997 1.0600001
0.51388448 -0.0083633997 1.0600001
0.51525646 -0.0083555095 1.059
0.51369512 -0.0083002802 1.052
0.51602966 -0.0083081704 1.0530001
0.51590866 -0.0082766097 1.049
0.51429302 -0.0082213804 1.0420001
0.51611996 -0.0082213804 1.0420001
0.44757253 -0.0081801768 1.3330001
0.44855964 -0.00815563 1.3290001
0.44885421 -0.0081188101 1.3230001
0.45117387 -0.0081188101 1.3230001
0.45143688 -0.0080819903 1.317
0.45409054 -0.0080881268 1.3180001
0.45467001 -0.0080574434 1.3130001
0.45697215 -0.0080574434 1.3130001
0.45927426 -0.0080574434 1.3130001
0.4615764 -0.0080574434 1.3130001
0.46387851 -0.0080574434 1.3130001
0.46582559 -0.0080513069 1.312
0.46812597 -0.0080513069 1.312
0.47042635 -0.0080513069 1.312
0.4727267 -0.0080513069 1.312
0.47321677 -0.0080206236 1.307
0.47478074 -0.0080083497 1.3050001
0.47743443 -0.0080144862 1.3060001
0.4800916 -0.0080206236 1.307
0.48238319 -0.0080206236 1.307
0.48467481 -0.0080206236 1.307
0.48882934 -0.0080513069 1.312
1.3029344 -0.020870803 3.4010003
1.3112067 -0.020907624 3.4070001
1.3036489 -0.02069284 3.3720002
1.3095611 -0.02069284 3.3720002
1.3154734 -0.02069284 3.3720002
1.3045353 -0.020428963 3.3290002
1.308404 -0.02039828 3.3240001
1.314232 -0.02039828 3.3240001
1.3303854 -0.020557834 3.3500001
1.3226972 -0.020349186 3.3160002
1.3217003 -0.020244863 3.2990003
1.3677236 -0.02085853 3.3990002
1.3603464 -0.020656019 3.3660002
1.3690895 -0.020698976 3.3730001
1.3639969 -0.020533286 3.3460002
1.3563533 -0.020330777 3.3130002
1.3518831 -0.020177361 3.2880001
1.3555835 -0.020146677 3.2830002
1.3584371 -0.020103719 3.2760003
1.364181 -0.020103719 3.2760003
1.3711795 -0.020122129 3.279
1.3739891 -0.020079173 3.2720001
1.3649673 -0.01986439 3.2370002
1.3706429 -0.01986439 3.2370002
1.3639882 -0.019686427 3.2080002
1.3696128 -0.019686427 3.2080002
1.3752375 -0.019686427 3.2080002
1.3675184 -0.019496189 3.177
1.3722245 -0.019483916 3.1750002
1.3795271 -0.019508462 3.1790001
1.3851008 -0.019508462 3.1790001
1.3924246 -0.01953301 3.1830001
1.4063504 -0.019649606 3.2020001
1.4031453 -0.019526873 3.1820002
1.3967711 -0.019361183 3.1550002
1.370301 -0.018919343 3.0830002
1.3632122 -0.018747516 3.0550001
1.3734964 -0.01881502 3.0660002
1.3662797 -0.018643193 3.0380001
1.3481293 -0.018324086 2.9860001
1.3533647 -0.018324086 2.9860001
1.3708849 -0.018489776 3.0130002
0.91194987 -0.01220583 1.9890001
0.91543722 -0.01220583 1.9890001
0.91846263 -0.012199693 1.988
0.91638315 -0.012126054 1.9760001
0.90541697 -0.011935816 1.9450001
0.90462178 -0.011880587 1.9360001
0.90145004 -0.011794673 1.9220001
0.8991707 -0.011721034 1.9100001
0.89779431 -0.011659667 1.9000001
0.90254849 -0.011678076 1.9030001
0.90731317 -0.011696487 1.9060001
0.91017723 -0.01169035 1.9050001
0.51369512 -0.0064557735 1.052
0.51602966 -0.00646191 1.0530001
0.51443326 -0.0064189532 1.046
0.51330584 -0.0063821333 1.0400001
0.51512933 -0.0063821333 1.0400001
0.4458937 -0.0058210664 1.3280001
0.44822213 -0.0058210664 1.3280001
0.45055056 -0.0058210664 1.3280001
0.45117387 -0.0057991501 1.3230001
0.45177963 -0.0057772333 1.3180001
0.45409054 -0.0057772333 1.3180001
0.45467001 -0.0057553165 1.3130001
0.45732018 -0.0057596997 1.314
0.45927426 -0.0057553165 1.3130001
0.4615764 -0.0057553165 1.3130001
0.46387851 -0.0057553165 1.3130001
0.46582559 -0.0057509332 1.312
0.46812597 -0.0057509332 1.312
0.47042635 -0.0057509332 1.312
0.4727267 -0.0057509332 1.312
0.47321677 -0.0057290168 1.307
0.47478074 -0.0057202498 1.3050001
0.47743443 -0.0057246331 1.3060001
0.4800916 -0.0057290168 1.307
0.48238319 -0.0057290168 1.307
0.48467481 -0.0057290168 1.307
1.3061237 -0.015012916 3.4250002
1.3029344 -0.014907717 3.4010003
1.3112067 -0.014934016 3.4070001
1.3036489 -0.0147806 3.3720002
1.3095611 -0.0147806 3.3720002
1.3154734 -0.0147806 3.3720002
1.317467 -0.014736767 3.3620002
1.308404 -0.0145702 3.3240001
1.3245118 -0.014684167 3.3500001
1.3351511 -0.014736767 3.3620002
1.3274838 -0.014587733 3.3280001
1.3229023 -0.014473767 3.302
1.3677236 -0.01489895 3.3990002
1.3643879 -0.014798134 3.3760002
1.3674659 -0.01476745 3.3690002
1.3603281 -0.014627183 3.3370001
1.3506216 -0.014460617 3.2990003
1.3469492 -0.0143598 3.2760003
1.3555835 -0.014390483 3.2830002
1.3584371 -0.0143598 3.2760003
1.364181 -0.0143598 3.2760003
1.3711795 -0.014372949 3.279
1.3739891 -0.014342266 3.2720001
1.3649673 -0.01418885 3.2370002
1.3710663 -0.014193233 3.2380002
1.3644133 -0.014066117 3.2090001
1.3700397 -0.014066117 3.2090001
1.3752375 -0.014061733 3.2080002
1.3679489 -0.013930233 3.1780002
1.3726566 -0.013921467 3.1760001
1.379961 -0.013939 3.1800001
1.3855366 -0.013939 3.1800001
1.3924246 -0.01395215 3.1830001
1.3931741 -0.013903934 3.1720002
1.4022634 -0.013939 3.1800001
1.3958856 -0.01382065 3.1530001
1.3831906 -0.013640934 3.1120002
1.3757066 -0.013513817 3.0830002
1.3734964 -0.0134393 3.0660002
1.3662797 -0.013316566 3.0380001
1.3603193 -0.013206983 3.0130002
1.365602 -0.013206983 3.0130002
0.91149139 -0.0087140668 1.988
0.91497701 -0.0087140668 1.988
0.91291857 -0.0086614667 1.9760001
0.91638315 -0.0086614667 1.9760001
0.909141 -0.0085606501 1.9530001
0.90181822 -0.0084598335 1.9300001
0.90004295 -0.008411617 1.9190001
0.89822918 -0.0083633997 1.9080001
0.89826685 -0.0083327163 1.9010001
0.90397131 -0.0083546331 1.9060001
0.90160084 -0.0083020329 1.8940001
0.90492165 -0.0083020329 1.8940001
0.90776289 -0.0082976501 1.8930001
0.51541686 -0.0045937332 1.0480001
0.51330584 -0.0045586666 1.0400001
0.51512933 -0.0045586666 1.0400001
0.44622946 -0.0034952699 1.3290001
0.44653454 -0.0034794901 1.3230001
0.44885421 -0.0034794901 1.3230001
0.45117387 -0.0034794901 1.3230001
0.45177963 -0.00346634 1.3180001
0.4523679 -0.00345319 1.3130001
0.45467001 -0.00345319 1.3130001
0.45732018 -0.00345582 1.314
0.45962405 -0.00345582 1.314
0.46122485 -0.0034505599 1.312
0.46352524 -0.0034505599 1.312
0.46582559 -0.0034505599 1.312
0.46812597 -0.0034505599 1.312
0.47042635 -0.0034505599 1.312
0.4727267 -0.0034505599 1.312
0.47502708 -0.0034505599 1.312
0.47550839 -0.0034374099 1.307
0.47779998 -0.0034374099 1.307
0.4800916 -0.0034374099 1.307
0.48238319 -0.0034374099 1.307
0.48467481 -0.0034374099 1.307
1.2931578 -0.0089183301 3.3910003
1.301019 -0.0089314803 3.3960001
1.3112067 -0.00896041 3.4070001
1.3036489 -0.00886836 3.3720002
1.3091727 -0.0088657299 3.3710001
1.3154734 -0.00886836 3.3720002
1.3155075 -0.0088289101 3.3570001
1.308404 -0.0087421201 3.3240001
1.3245118 -0.0088104997 3.3500001
1.3351511 -0.0088420603 3.3620002
1.3410457 -0.0088420603 3.3620002
1.3361232 -0.0087710498 3.3350003
1.3705404 -0.00895778 3.4060001
1.364792 -0.0088815102 3.3770001
1.3613774 -0.0088210199 3.3540001
1.3586974 -0.0087657897 3.3330002
1.3493934 -0.0086684795 3.2960002
1.3403708 -0.0085738003 3.2600002
1.3498027 -0.0085974699 3.2690001
1.3555344 -0.0085974699 3.2690001
1.361266 -0.0085974699 3.2690001
1.3686703 -0.0086079901 3.2730002
1.3744091 -0.0086079901 3.2730002
1.3649673 -0.00851331 3.2370002
1.3710663 -0.00851594 3.2380002
1.377594 -0.0085212002 3.2400002
1.3700397 -0.0084396703 3.2090001
1.377381 -0.0084501896 3.2130001
1.3696706 -0.0083686598 3.1820002
1.3795718 -0.0083949603 3.1920002
1.3869042 -0.0084054796 3.1960001
1.3925078 -0.0084054796 3.1960001
1.3967991 -0.0083975904 3.1930001
1.3857075 -0.0082976501 3.1550002
1.383302 -0.0082503101 3.1370001
1.3799478 -0.0081977099 3.1170001
1.3823017 -0.0081792995 3.1100001
1.3757066 -0.0081082899 3.0830002
1.3864877 -0.0081398496 3.095
1.3788722 -0.0080635799 3.0660002
1.3837965 -0.0080609499 3.0650001
0.91149139 -0.0052284398 1.988
0.91497701 -0.0052284398 1.988
0.91291857 -0.0051968801 1.9760001
0.91035432 -0.0051626898 1.9630001
0.909141 -0.0051363898 1.9530001
0.90181822 -0.0050758999 1.9300001
0.90004295 -0.0050469697 1.9190001
0.89869994 -0.0050206701 1.909
0.8987394 -0.0050022597 1.9020001
0.90444559 -0.00501541 1.9070001
0.90160084 -0.0049812198 1.8940001
0.89966601 -0.0049522901 1.8830001
0.90248799 -0.00494966 1.8820001
0.51330584 -0.0027351999 1.0400001
0.51512933 -0.0027351999 1.0400001
0.44555795 -0.0011633367 1.327
0.44619703 -0.0011589533 1.322
0.44885421 -0.00115983 1.3230001
0.45049182 -0.0011580767 1.3210001
0.45109409 -0.0011536933 1.3160001
0.4523679 -0.0011510634 1.3130001
0.45467001 -0.0011510634 1.3130001
0.45732018 -0.00115194 1.314
0.45962405 -0.00115194 1.314
0.46122485 -0.0011501866 1.312
0.46352524 -0.0011501866 1.312
0.46582559 -0.0011501866 1.312
0.46812597 -0.0011501866 1.312
0.47042635 -0.0011501866 1.312
0.4727267 -0.0011501866 1.312
0.47538915 -0.0011510634 1.3130001
0.47587219 -0.00114668 1.3080001
0.47779998 -0.0011458034 1.307
0.4800916 -0.0011458034 1.307
0.48459765 -0.0011510634 1.3130001
1.3115065 -0.0030288834 3.4550002
1.2931578 -0.0029727765 3.3910003
1.2991034 -0.0029727765 3.3910003
1.2992761 -0.0029596267 3.3760002
1.3032624 -0.0029552432 3.3710001
1.3072309 -0.00295086 3.3660002
1.3135228 -0.0029517366 3.3670001
1.3025758 -0.0029140399 3.3240001
1.308404 -0.0029140399 3.3240001
1.3158135 -0.0029175465 3.3280001
1.3335625 -0.0029438466 3.3580003
1.3394502 -0.0029438466 3.3580003
1.3349214 -0.0029210532 3.3320003
1.3641021 -0.0029718999 3.3900001
1.3583257 -0.0029464767 3.3610001
1.3581302 -0.0029333266 3.3460002
1.3529904 -0.0029096566 3.3190002
1.3452994 -0.0028807267 3.2860003
1.3440711 -0.0028658232 3.2690001
1.3498027 -0.0028658232 3.2690001
1.3555344 -0.0028658232 3.2690001
1.361266 -0.0028658232 3.2690001
1.3690885 -0.0028702067 3.2740002
1.3748289 -0.0028702067 3.2740002
1.3649673 -0.0028377699 3.2370002
1.3706429 -0.0028377699 3.2370002
1.3763185 -0.0028377699 3.2370002
1.3691859 -0.0028114701 3.2070003
1.3816679 -0.0028254967 3.223
1.3739752 -0.00279832 3.1920002
1.3795718 -0.00279832 3.1920002
1.3869042 -0.0028018267 3.1960001
1.3925078 -0.0028018267 3.1960001
1.3981115 -0.0028018267 3.1960001
1.4002014 -0.0027948134 3.1880002
1.3788923 -0.0027413366 3.1270001
1.3772916 -0.0027273099 3.1110001
1.3814127 -0.0027246799 3.108
1.3757066 -0.0027027633 3.0830002
1.3829039 -0.00270627 3.0870001
1.3883165 -0.00270627 3.0870001
1.3950835 -0.0027089 3.0900002
0.91497701 -0.0017428133 1.988
0.91846263 -0.0017428133 1.988
0.90571678 -0.00171213 1.9530001
0.9030894 -0.0017007333 1.9400001
0.90181822 -0.0016919667 1.9300001
0.90051198 -0.0016832 1.9200001
0.8991707 -0.0016744334 1.9100001
0.8987394 -0.00166742 1.9020001
0.90444559 -0.0016718033 1.9070001
0.90160084 -0.0016604067 1.8940001
0.89871043 -0.00164901 1.881
0.90152895 -0.0016481333 1.8800001
0.51330584 -0.00091173331 1.0400001
0.51512933 -0.00091173331 1.0400001
0.44555795 0.0011633367 1.327
0.44619703 0.0011589533 1.322
0.44851494 0.0011589533 1.322
0.45083284 0.0011589533 1.322
0.45143688 0.00115457 1.317
0.45271242 0.00115194 1.314
0.45501629 0.00115194 1.314
0.45732018 0.00115194 1.314
0.45962405 0.00115194 1.314
0.4615764 0.0011510634 1.3130001
0.46352524 0.0011501866 1.312
0.46582559 0.0011501866 1.312
0.46812597 0.0011501866 1.312
0.47042635 0.0011501866 1.312
0.4727267 0.0011501866 1.312
0.47538915 0.0011510634 1.3130001
0.47587219 0.00114668 1.3080001
0.47779998 0.0011458034 1.307
0.4800916 0.0011458034 1.307
1.3115065 0.0030288834 3.4550002
1.2931578 0.0029727765 3.3910003
1.2860779 0.00294297 3.3570001
1.2996609 0.0029605033 3.3770001
1.3036489 0.0029561201 3.3720002
1.3037357 0.00294297 3.3570001
1.3096217 0.00294297 3.3570001
1.3025758 0.0029140399 3.3240001
1.308404 0.0029140399 3.3240001
1.3173951 0.0029210532 3.3320003
1.3335625 0.0029438466 3.3580003
1.3394502 0.0029438466 3.3580003
1.3333188 0.0029175465 3.3280001
1.3584687 0.0029596267 3.3760002
1.3510512 0.0029306966 3.3430002
1.3492005 0.0029140399 3.3240001
1.3419838 0.0028859866 3.2920001
1.3477558 0.0028859866 3.2920001
1.3572282 0.0028938768 3.3010001
1.3498027 0.0028658232 3.2690001
1.3555344 0.0028658232 3.2690001
1.361266 0.0028658232 3.2690001
1.3690885 0.0028702067 3.2740002
1.3748289 0.0028702067 3.2740002
1.3649673 0.0028377699 3.2370002
1.3706429 0.0028377699 3.2370002
1.3763185 0.0028377699 3.2370002
1.3687589 0.0028105932 3.2060001
1.3816679 0.0028254967 3.223
1.3739752 0.00279832 3.1920002
1.3795718 0.00279832 3.1920002
1.3869042 0.0028018267 3.1960001
1.3794367 0.0027755266 3.1660001
1.3849878 0.0027755266 3.1660001
1.3852683 0.0027650066 3.154
1.395649 0.00277465 3.1650002
1.3799478 0.0027325701 3.1170001
1.383635 0.0027290634 3.1130002
1.3739216 0.0026992566 3.0790002
1.3811121 0.0027027633 3.0830002
0.89968795 0.0017007333 1.9400001
0.9030894 0.0017007333 1.9400001
0.90181822 0.0016919667 1.9300001
0.90051198 0.0016832 1.9200001
0.89869994 0.0016735566 1.909
0.89826685 0.0016665433 1.9010001
0.90254849 0.0016682966 1.9030001
0.89922065 0.0016560233 1.8890001
0.90205491 0.0016551467 1.8880001
0.90536523 0.0016551467 1.8880001
0.44622946 0.0034952699 1.3290001
0.44687206 0.0034821199 1.3240001
0.44919348 0.0034821199 1.3240001
0.44946876 0.00346634 1.3180001
0.45040855 0.00345582 1.314
0.45271242 0.00345582 1.314
0.45501629 0.00345582 1.314
0.45732018 0.00345582 1.314
0.45962405 0.00345582 1.314
0.46192795 0.00345582 1.314
0.46423182 0.00345582 1.314
0.46653569 0.00345582 1.314
0.46812597 0.0034505599 1.312
0.47114345 0.00345582 1.314
0.47344732 0.00345582 1.314
0.47502708 0.0034505599 1.312
0.47550839 0.0034374099 1.307
0.47779998 0.0034374099 1.307
0.4819282 0.0034505599 1.312
0.48644304 0.00346634 1.3180001
1.3134044 0.0090998001 3.4600003
1.2931578 0.0089183301 3.3910003
1.2860779 0.0088289101 3.3570001
1.3069732 0.0089314803 3.3960001
1.3129276 0.0089314803 3.3960001
1.3037357 0.0088289101 3.3570001
1.3096217 0.0088289101 3.3570001
1.3057108 0.0087631596 3.3320003
1.3115529 0.0087631596 3.3320003
1.3173951 0.0087631596 3.3320003
1.3335625 0.0088315401 3.3580003
1.3394502 0.0088315401 3.3580003
1.3333188 0.0087526403 3.3280001
1.358871 0.0088815102 3.3770001
1.3494346 0.00878157 3.3390002
1.3492005 0.0087421201 3.3240001
1.3419838 0.0086579602 3.2920001
1.3477558 0.0086579602 3.2920001
1.3572282 0.0086816298 3.3010001
1.3498027 0.0085974699 3.2690001
1.3555344 0.0085974699 3.2690001
1.3716764 0.0086632203 3.2940001
1.3787065 0.0086711096 3.2970002
1.3861669 0.0086816298 3.3010001
1.3780394 0.0085948398 3.2680001
1.3837693 0.0085948398 3.2680001
1.3894991 0.0085948398 3.2680001
1.3687589 0.0084317802 3.2060001
1.3765236 0.0084449295 3.2110002
1.3688098 0.0083633997 3.1800001
1.3739532 0.0083607696 3.1790001
1.3869042 0.0084054796 3.1960001
1.3794367 0.0083265798 3.1660001
1.3849878 0.0083265798 3.1660001
1.3852683 0.0082950201 3.154
1.395649 0.0083239498 3.1650002
1.4091672 0.0083712898 3.1830001
1.400525 0.0082871299 3.1510003
1.4038186 0.0082739796 3.1460001
1.4478606 0.0085001597 3.2320001
0.89968795 0.0051022 1.9400001
0.9030894 0.0051022 1.9400001
0.90181822 0.0050758999 1.9300001
0.90004295 0.0050469697 1.9190001
0.89822918 0.0050180401 1.9080001
0.90157449 0.0050180401 1.9080001
0.89970285 0.0049891099 1.8970001
0.89779258 0.0049601798 1.886
0.90109938 0.0049601798 1.886
0.90440613 0.0049601798 1.886
0.44590336 0.0058517498 1.335
0.44656524 0.0058298334 1.33
0.44687206 0.0058035334 1.3240001
0.44953275 0.0058079166 1.325
0.45015079 0.0057859998 1.3200001
