# .PCD v0.7 - Point Cloud Data file format
VERSION 0.7
FIELDS x y z
SIZE 4 4 4
TYPE F F F
COUNT 1 1 1
WIDTH 1517
HEIGHT 1
VIEWPOINT 0 0 0 1 0 0 0
POINTS 1517
DATA ascii
-0.46890357 0.094651066 1.2410001
-0.4663516 0.094574802 1.24
-0.46455181 0.094651066 1.2410001
-0.46237591 0.094651066 1.2410001
-0.45982921 0.094574802 1.24
-0.45802414 0.094651066 1.2410001
-0.45584825 0.094651066 1.2410001
-0.45330679 0.094574802 1.24
-0.45040503 0.094422258 1.238
-0.44823441 0.094422258 1.238
-0.44678441 0.094574802 1.24
-0.44496882 0.094651066 1.2410001
-0.44279292 0.094651066 1.2410001
-0.44061705 0.094651066 1.2410001
-0.43914774 0.094803609 1.243
-0.43696836 0.094803609 1.243
-0.43443918 0.094727337 1.2420001
-0.43156546 0.094574802 1.24
-0.42973763 0.094651066 1.2410001
-0.42756173 0.094651066 1.2410001
-0.42538583 0.094651066 1.2410001
-0.42320997 0.094651066 1.2410001
-0.42103407 0.094651066 1.2410001
-0.42020825 0.094956152 1.245
-0.41768959 0.094879881 1.2440001
-0.41517442 0.094803609 1.243
-0.41266277 0.094727337 1.2420001
-0.41048515 0.094727337 1.2420001
-0.40863624 0.094803609 1.243
-0.40645686 0.094803609 1.243
-0.40492794 0.094956152 1.245
-0.40274504 0.094956152 1.245
-0.40056214 0.094956152 1.245
-0.39837924 0.094956152 1.245
-0.39619634 0.094956152 1.245
-0.39432994 0.095032416 1.2460001
-0.39245999 0.095108688 1.2470001
-0.38996062 0.095032416 1.2460001
-0.38777596 0.095032416 1.2460001
-0.38497239 0.094879881 1.2440001
-0.38279125 0.094879881 1.2440001
-0.38091606 0.094956152 1.245
-0.37873316 0.094956152 1.245
-0.37655026 0.094956152 1.245
-0.37587082 0.095337503 1.25
-0.37308127 0.095184959 1.248
-0.3714875 0.095337503 1.25
-0.36929584 0.095337503 1.25
-0.36798522 0.09556631 1.253
-0.36578828 0.09556631 1.253
-0.36359137 0.09556631 1.253
-0.36110601 0.095490038 1.2520001
-0.35862416 0.095413767 1.251
-0.35529107 0.095108688 1.2470001
-0.35310468 0.095108688 1.2470001
-0.3520439 0.095413767 1.251
-0.34985048 0.095413767 1.251
-0.34710127 0.095261231 1.2490001
-0.34491134 0.095261231 1.2490001
-0.34272143 0.095261231 1.2490001
-0.34162208 0.09556631 1.253
-0.33942518 0.09556631 1.253
-0.33722824 0.09556631 1.253
-0.3350313 0.09556631 1.253
-0.33283439 0.09556631 1.253
-0.33010972 0.095413767 1.251
-0.32739204 0.095261231 1.2490001
-0.32520214 0.095261231 1.2490001
-0.3230122 0.095261231 1.2490001
-0.32133603 0.095413767 1.251
-0.31914261 0.095413767 1.251
-0.31694919 0.095413767 1.251
-0.31475577 0.095413767 1.251
-0.3138116 0.095795117 1.256
-0.31160942 0.095795117 1.256
-0.30940723 0.095795117 1.256
-0.30720505 0.095795117 1.256
-0.30500284 0.095795117 1.256
-0.30231848 0.095642582 1.2540001
-0.30059847 0.095795117 1.256
-0.29839629 0.095795117 1.256
-0.29619411 0.095795117 1.256
-0.29352379 0.095642582 1.2540001
-0.29178974 0.095795117 1.256
-0.29004866 0.095947661 1.258
-0.28784299 0.095947661 1.258
-0.28563729 0.095947661 1.258
-0.28320628 0.095871389 1.2570001
-0.27988461 0.095490038 1.2520001
-0.27768943 0.095490038 1.2520001
-0.27637443 0.095795117 1.256
-0.27417225 0.095795117 1.256
-0.27240312 0.095947661 1.258
-0.26998264 0.095871389 1.2570001
-0.26756567 0.095795117 1.256
-0.26451838 0.095490038 1.2520001
-0.2623232 0.095490038 1.2520001
-0.26095912 0.095795117 1.256
-0.26081711 0.096557818 1.266
-0.26064003 0.097320519 1.276
-0.09951745 0.041033261 0.53800005
-0.098757379 0.041109528 0.53900003
-0.098175272 0.041262072 0.54100001
-0.097226717 0.041262072 0.54100001
-0.096456125 0.041338339 0.54200006
-0.094904423 0.041490879 0.54400003
-0.094123319 0.041567151 0.54500002
0.087281808 0.098617107 1.2930001
0.089202583 0.098235756 1.2880001
0.091460876 0.098235756 1.2880001
0.094082989 0.098617107 1.2930001
0.096350051 0.098617107 1.2930001
0.098617107 0.098617107 1.2930001
0.10088417 0.098617107 1.2930001
0.10323101 0.098693378 1.294
0.10549982 0.098693378 1.294
0.10776863 0.098693378 1.294
0.11003745 0.098693378 1.294
0.11230626 0.098693378 1.294
0.11457507 0.098693378 1.294
0.11729537 0.099074729 1.299
0.1194809 0.098998457 1.2980001
0.12175673 0.098998457 1.2980001
0.12403255 0.098998457 1.2980001
0.12630838 0.098998457 1.2980001
0.12868327 0.099074729 1.299
0.13086003 0.098998457 1.2980001
0.13303329 0.098922193 1.2970001
0.13572465 0.099227272 1.3010001
0.13800575 0.099227272 1.3010001
0.14028683 0.099227272 1.3010001
0.14256792 0.099227272 1.3010001
0.144849 0.099227272 1.3010001
0.147017 0.099151 1.3000001
0.14941117 0.099227272 1.3010001
0.15204205 0.099456079 1.304
0.15432841 0.099456079 1.304
0.15649465 0.099379808 1.3030001
0.15865737 0.099303536 1.302
0.16081661 0.099227272 1.3010001
0.16372451 0.099608622 1.3060001
0.16588725 0.099532351 1.3050001
0.16830422 0.099608622 1.3060001
0.16994095 0.099227272 1.3010001
0.17275155 0.099532351 1.3050001
0.17571031 0.099913701 1.3100001
0.17746364 0.099608622 1.3060001
0.17975348 0.099608622 1.3060001
0.18274029 0.099989973 1.3110001
0.18503891 0.099989973 1.3110001
0.18733753 0.099989973 1.3110001
0.1894915 0.099913701 1.3100001
0.19178836 0.099913701 1.3100001
0.19393708 0.09983743 1.309
0.19623218 0.09983743 1.309
0.19852731 0.09983743 1.309
0.20082241 0.09983743 1.309
0.20311753 0.09983743 1.309
0.20556957 0.099913701 1.3100001
0.20786643 0.099913701 1.3100001
0.2101633 0.099913701 1.3100001
0.21246016 0.099913701 1.3100001
0.21442915 0.099761158 1.3080001
0.21672252 0.099761158 1.3080001
0.21884844 0.099684887 1.307
0.22114004 0.099684887 1.307
0.22343165 0.099684887 1.307
0.22537784 0.099532351 1.3050001
0.22766595 0.099532351 1.3050001
0.2308351 0.099913701 1.3100001
0.232954 0.09983743 1.309
0.23632741 0.10029505 1.3150001
0.23863305 0.10029505 1.3150001
0.24093868 0.10029505 1.3150001
0.24398422 0.10060013 1.319
0.24629687 0.10060013 1.319
0.24747862 0.10014251 1.3130001
0.24997097 0.10021878 1.314
0.25208285 0.10014251 1.3130001
0.25438499 0.10014251 1.3130001
0.25668713 0.10014251 1.3130001
0.258003 0.099761158 1.3080001
0.26029634 0.099761158 1.3080001
0.26258972 0.099761158 1.3080001
0.26488307 0.099761158 1.3080001
0.26819775 0.10014251 1.3130001
0.27049989 0.10014251 1.3130001
0.27321756 0.10029505 1.3150001
0.27552319 0.10029505 1.3150001
0.27782881 0.10029505 1.3150001
0.28034747 0.10037132 1.3160001
0.28286964 0.10044759 1.317
0.28517878 0.10044759 1.317
0.28748792 0.10044759 1.317
0.28979707 0.10044759 1.317
0.29210621 0.10044759 1.317
0.29441535 0.10044759 1.317
0.2967245 0.10044759 1.317
0.29903364 0.10044759 1.317
0.30134276 0.10044759 1.317
0.3036519 0.10044759 1.317
0.30596104 0.10044759 1.317
0.30850425 0.10052386 1.3180001
0.31081516 0.10052386 1.3180001
0.31265089 0.10037132 1.3160001
0.31615493 0.10075267 1.3210001
0.31823 0.1006764 1.3200001
0.32054439 0.1006764 1.3200001
0.32285881 0.1006764 1.3200001
0.32566589 0.10082894 1.322
0.3279838 0.10082894 1.322
0.3303017 0.10082894 1.322
0.33261961 0.10082894 1.322
0.33493751 0.10082894 1.322
0.33700031 0.10075267 1.3210001
0.33905959 0.1006764 1.3200001
0.34266707 0.10105775 1.325
0.15818574 0.039660398 0.52000004
0.15940343 0.03973667 0.52100003
0.16031691 0.03973667 0.52100003
0.1612304 0.03973667 0.52100003
0.15872049 0.038897701 0.51000005
0.15898876 0.038745161 0.50800002
0.15987945 0.038745161 0.50800002
0.16077015 0.038745161 0.50800002
0.16166084 0.038745161 0.50800002
0.16191156 0.038592618 0.50600004
0.16215529 0.038440078 0.50400001
0.16303895 0.038440078 0.50400001
0.16359739 0.038363811 0.50300002
0.16447932 0.038363811 0.50300002
0.16470374 0.038211271 0.50100005
0.16525167 0.038135 0.5
0.16612834 0.038135 0.5
-0.64547652 0.094954394 1.217
-0.64387131 0.095032416 1.2180001
-0.64331639 0.095266491 1.2210001
-0.64170069 0.095344514 1.222
-0.64112824 0.095578581 1.225
-0.63741559 0.095344514 1.222
-0.63527298 0.095344514 1.222
-0.63364851 0.095422536 1.223
-0.63150418 0.095422536 1.223
-0.6293599 0.095422536 1.223
-0.62208706 0.094642304 1.2130001
-0.61996025 0.094642304 1.2130001
-0.61987084 0.094954394 1.217
-0.61976737 0.095266491 1.2210001
-0.61661488 0.095110446 1.2190001
-0.61447757 0.095110446 1.2190001
-0.61234027 0.095110446 1.2190001
-0.61070353 0.095188469 1.22
-0.60856444 0.095188469 1.22
-0.6059283 0.095110446 1.2190001
-0.60329568 0.095032416 1.2180001
-0.60116011 0.095032416 1.2180001
-0.59951639 0.095110446 1.2190001
-0.59933931 0.095422536 1.223
-0.59719497 0.095422536 1.223
-0.59553719 0.095500559 1.2240001
-0.59387589 0.095578581 1.225
-0.59172809 0.095578581 1.225
-0.58958024 0.095578581 1.225
-0.58695287 0.095500559 1.2240001
-0.58241791 0.095110446 1.2190001
-0.58028054 0.095110446 1.2190001
-0.57814324 0.095110446 1.2190001
-0.57695097 0.095266491 1.2210001
-0.57716399 0.095656604 1.2260001
-0.57501441 0.095656604 1.2260001
-0.57473391 0.095968701 1.23
-0.57211179 0.095890678 1.2290001
-0.57042068 0.095968701 1.23
-0.56826407 0.095968701 1.23
-0.56610751 0.095968701 1.23
-0.56349242 0.095890678 1.2290001
-0.56133753 0.095890678 1.2290001
-0.55736274 0.095578581 1.225
-0.55521494 0.095578581 1.225
-0.55306709 0.095578581 1.225
-0.55091923 0.095578581 1.225
-0.54787546 0.095422536 1.223
-0.54573113 0.095422536 1.223
-0.54358679 0.095422536 1.223
-0.5418852 0.095500559 1.2240001
-0.53973913 0.095500559 1.2240001
-0.53934985 0.095812656 1.228
-0.53719676 0.095812656 1.228
-0.53547937 0.095890678 1.2290001
-0.53375852 0.095968701 1.23
-0.53160191 0.095968701 1.23
-0.52901483 0.095890678 1.2290001
-0.52686 0.095890678 1.2290001
-0.52470517 0.095890678 1.2290001
-0.52510142 0.096358813 1.235
-0.52293605 0.096358813 1.235
-0.51781893 0.095812656 1.228
-0.51566583 0.095812656 1.228
-0.51351273 0.095812656 1.228
-0.50927758 0.095422536 1.223
-0.50837725 0.095656604 1.2260001
-0.50622767 0.095656604 1.2260001
-0.50407809 0.095656604 1.2260001
-0.50192851 0.095656604 1.2260001
-0.49855596 0.095422536 1.223
-0.49641162 0.095422536 1.223
-0.49830872 0.096202768 1.233
-0.49614686 0.096202768 1.233
-0.493985 0.096202768 1.233
-0.49182314 0.096202768 1.233
-0.4912498 0.096514866 1.2370001
-0.48908094 0.096514866 1.2370001
-0.48691207 0.096514866 1.2370001
-0.48474318 0.096514866 1.2370001
-0.48257431 0.096514866 1.2370001
-0.48040545 0.096514866 1.2370001
-0.47823656 0.096514866 1.2370001
-0.47760713 0.096826956 1.2410001
-0.47543123 0.096826956 1.2410001
-0.47325534 0.096826956 1.2410001
-0.47107947 0.096826956 1.2410001
-0.46890357 0.096826956 1.2410001
-0.4663516 0.096748933 1.24
-0.46455181 0.096826956 1.2410001
-0.46200332 0.096748933 1.24
-0.45686257 0.096124746 1.2320001
-0.45470244 0.096124746 1.2320001
-0.45437896 0.096514866 1.2370001
-0.4522101 0.096514866 1.2370001
-0.44931358 0.096358813 1.235
-0.44678617 0.096280791 1.2340001
-0.44534317 0.096436836 1.2360001
-0.44353458 0.096514866 1.2370001
-0.44279292 0.096826956 1.2410001
-0.44061705 0.096826956 1.2410001
-0.43808785 0.096748933 1.24
-0.4373199 0.097061023 1.2440001
-0.43548855 0.097139053 1.245
-0.43156546 0.096748933 1.24
-0.42973763 0.096826956 1.2410001
-0.42756173 0.096826956 1.2410001
-0.42675695 0.097139053 1.245
-0.42320997 0.096826956 1.2410001
-0.42103407 0.096826956 1.2410001
-0.42020825 0.097139053 1.245
-0.41802534 0.097139053 1.245
-0.41584244 0.097139053 1.245
-0.41332728 0.097061023 1.2440001
-0.41048515 0.096904978 1.2420001
-0.40830749 0.096904978 1.2420001
-0.40612987 0.096904978 1.2420001
-0.40460271 0.097061023 1.2440001
-0.40242156 0.097061023 1.2440001
-0.40024042 0.097061023 1.2440001
-0.39837924 0.097139053 1.245
-0.39619634 0.097139053 1.245
-0.39464641 0.097295098 1.2470001
-0.39245999 0.097295098 1.2470001
-0.38996062 0.097217076 1.2460001
-0.38777596 0.097217076 1.2460001
-0.3855913 0.097217076 1.2460001
-0.38279125 0.097061023 1.2440001
-0.38061008 0.097061023 1.2440001
-0.37842894 0.097061023 1.2440001
-0.37806249 0.097529165 1.25
-0.37557015 0.097451143 1.2490001
-0.37308127 0.09737312 1.248
-0.37178469 0.097607188 1.251
-0.36959127 0.097607188 1.251
-0.36857259 0.097919285 1.2550001
-0.36637214 0.097919285 1.2550001
-0.36388153 0.097841263 1.2540001
-0.36052915 0.097529165 1.25
-0.35776415 0.09737312 1.248
-0.35529107 0.097295098 1.2470001
-0.35310468 0.097295098 1.2470001
-0.3520439 0.097607188 1.251
-0.34985048 0.097607188 1.251
-0.34737918 0.097529165 1.25
-0.34491134 0.097451143 1.2490001
-0.34299582 0.097529165 1.25
-0.34189475 0.097841263 1.2540001
-0.33969605 0.097841263 1.2540001
-0.33749738 0.097841263 1.2540001
-0.33529869 0.097841263 1.2540001
-0.33283439 0.097763233 1.253
-0.32984585 0.097529165 1.25
-0.32739204 0.097451143 1.2490001
-0.32520214 0.097451143 1.2490001
-0.3230122 0.097451143 1.2490001
-0.32133603 0.097607188 1.251
-0.3188875 0.097529165 1.25
-0.31669584 0.097529165 1.25
-0.31475577 0.097607188 1.251
-0.3138116 0.097997308 1.256
-0.31160942 0.097997308 1.256
-0.30891454 0.097841263 1.2540001
-0.30671585 0.097841263 1.2540001
-0.30451718 0.097841263 1.2540001
-0.30231848 0.097841263 1.2540001
-0.30011982 0.097841263 1.2540001
-0.29792115 0.097841263 1.2540001
-0.29595828 0.097919285 1.2550001
-0.29305562 0.09768521 1.2520001
-0.29178974 0.097997308 1.256
-0.2912015 0.098543473 1.263
-0.28898704 0.098543473 1.263
-0.28541023 0.09807533 1.2570001
-0.28298098 0.097997308 1.256
-0.27988461 0.09768521 1.2520001
-0.27768943 0.09768521 1.2520001
-0.27637443 0.097997308 1.256
-0.27417225 0.097997308 1.256
-0.27197006 0.097997308 1.256
-0.26976785 0.097997308 1.256
-0.26756567 0.097997308 1.256
-0.26536348 0.097997308 1.256
-0.2631613 0.097997308 1.256
-0.26095912 0.097997308 1.256
-0.26081711 0.09877754 1.266
-0.26064003 0.099557772 1.276
-0.10027401 0.04189853 0.537
-0.098962516 0.041742481 0.53500003
-0.098207705 0.041820507 0.53600001
-0.097812332 0.042054575 0.53900003
-0.097047001 0.042132601 0.54000002
-0.096278161 0.042210624 0.54100001
-0.095329612 0.042210624 0.54100001
-0.094904423 0.042444695 0.54400003
-0.094123319 0.042522717 0.54500002
-0.091926388 0.042834811 0.54900002
-0.090963811 0.042834811 0.54900002
0.087281808 0.10088417 1.2930001
0.089548871 0.10088417 1.2930001
0.091815926 0.10088417 1.2930001
0.094082989 0.10088417 1.2930001
0.096350051 0.10088417 1.2930001
0.098617107 0.10088417 1.2930001
0.10096219 0.10096219 1.294
0.10323101 0.10096219 1.294
0.10549982 0.10096219 1.294
0.10776863 0.10096219 1.294
0.10995241 0.10088417 1.2930001
0.11265342 0.10127429 1.2980001
0.11492924 0.10127429 1.2980001
0.11729537 0.10135231 1.299
0.1194809 0.10127429 1.2980001
0.12175673 0.10127429 1.2980001
0.12403255 0.10127429 1.2980001
0.12630838 0.10127429 1.2980001
0.12858421 0.10127429 1.2980001
0.13086003 0.10127429 1.2980001
0.13303329 0.10119626 1.2970001
0.13572465 0.10150836 1.3010001
0.13747536 0.10111824 1.296
0.13974768 0.10111824 1.296
0.14212959 0.10119626 1.2970001
0.14496034 0.10158638 1.302
0.14713009 0.10150836 1.3010001
0.14941117 0.10150836 1.3010001
0.15192546 0.1016644 1.3030001
0.15421005 0.1016644 1.3030001
0.15649465 0.1016644 1.3030001
0.1591448 0.10189847 1.3060001
0.16131105 0.10182045 1.3050001
0.16359915 0.10182045 1.3050001
0.16588725 0.10182045 1.3050001
0.16817535 0.10182045 1.3050001
0.17046344 0.10182045 1.3050001
0.17328106 0.10213254 1.309
0.17571031 0.10221057 1.3100001
0.17800717 0.10221057 1.3100001
0.18016639 0.10213254 1.309
0.1826009 0.10221057 1.3100001
0.18503891 0.10228859 1.3110001
0.18733753 0.10228859 1.3110001
0.1894915 0.10221057 1.3100001
0.19178836 0.10221057 1.3100001
0.19378892 0.10205452 1.3080001
0.19608228 0.10205452 1.3080001
0.19852731 0.10213254 1.309
0.20082241 0.10213254 1.309
0.20311753 0.10213254 1.309
0.20556957 0.10221057 1.3100001
0.20786643 0.10221057 1.3100001
0.2101633 0.10221057 1.3100001
0.21246016 0.10221057 1.3100001
0.2145931 0.10213254 1.309
0.21672252 0.10205452 1.3080001
0.21901588 0.10205452 1.3080001
0.22130924 0.10205452 1.3080001
0.22360259 0.10205452 1.3080001
0.22537784 0.10182045 1.3050001
0.22766595 0.10182045 1.3050001
0.2308351 0.10221057 1.3100001
0.23313196 0.10221057 1.3100001
0.23632741 0.10260069 1.3150001
0.23863305 0.10260069 1.3150001
0.2418548 0.1029908 1.3200001
0.24416921 0.1029908 1.3200001
0.24629687 0.10291278 1.319
0.24747862 0.10244463 1.3130001
0.24997097 0.10252266 1.314
0.25208285 0.10244463 1.3130001
0.25438499 0.10244463 1.3130001
0.25668713 0.10244463 1.3130001
0.25898924 0.10244463 1.3130001
0.26129138 0.10244463 1.3130001
0.26258972 0.10205452 1.3080001
0.26488307 0.10205452 1.3080001
0.26819775 0.10244463 1.3130001
0.2694698 0.10205452 1.3080001
0.27217871 0.10221057 1.3100001
0.27447557 0.10221057 1.3100001
0.27698371 0.10228859 1.3110001
0.27949536 0.10236661 1.312
0.28308442 0.10283475 1.3180001
0.28539532 0.10283475 1.3180001
0.28770623 0.10283475 1.3180001
0.2900171 0.10283475 1.3180001
0.29210621 0.10275673 1.317
0.29441535 0.10275673 1.317
0.2967245 0.10275673 1.317
0.29767129 0.10228859 1.3110001
0.3001987 0.10236661 1.312
0.30249909 0.10236661 1.312
0.30479947 0.10236661 1.312
0.30709985 0.10236661 1.312
0.3094002 0.10236661 1.312
0.31265089 0.10267871 1.3160001
0.31495827 0.10267871 1.3160001
0.31726566 0.10267871 1.3160001
0.32103008 0.10314684 1.322
0.32334799 0.10314684 1.322
0.32566589 0.10314684 1.322
0.3279838 0.10314684 1.322
0.32905245 0.10275673 1.317
0.33136159 0.10275673 1.317
0.33493751 0.10314684 1.322
0.33700031 0.10306882 1.3210001
0.33905959 0.1029908 1.3200001
0.3429257 0.10345894 1.3260001
0.34551099 0.10353696 1.327
0.1566691 0.040416088 0.51800001
0.15818574 0.040572133 0.52000004
0.15970938 0.040728182 0.52200001
0.16000921 0.040572133 0.52000004
0.15968308 0.040260039 0.51600003
0.15965416 0.040025968 0.51300001
0.15930173 0.039713878 0.509
0.15987945 0.039635852 0.50800002
0.16077015 0.039635852 0.50800002
0.16134261 0.039557829 0.50700003
0.16191156 0.039479807 0.50600004
0.16215529 0.039323758 0.50400001
0.16303895 0.039323758 0.50400001
0.16327216 0.039167713 0.50200003
0.16415232 0.039167713 0.50200003
0.16470374 0.039089691 0.50100005
0.16558217 0.039089691 0.50100005
0.16612834 0.039011665 0.5
-0.64547652 0.097088203 1.217
-0.64334273 0.097088203 1.217
-0.64331639 0.097407311 1.2210001
-0.64012533 0.097247757 1.2190001
-0.63955814 0.097487085 1.222
-0.63741559 0.097487085 1.222
-0.63527298 0.097487085 1.222
-0.63364851 0.097566865 1.223
-0.63150418 0.097566865 1.223
-0.6293599 0.097566865 1.223
-0.62618983 0.097407311 1.2210001
-0.62404901 0.097407311 1.2210001
-0.62190819 0.097407311 1.2210001
-0.61976737 0.097407311 1.2210001
-0.61661488 0.097247757 1.2190001
-0.61447757 0.097247757 1.2190001
-0.61234027 0.097247757 1.2190001
-0.61020297 0.097247757 1.2190001
-0.60756683 0.097167976 1.2180001
-0.60493422 0.097088203 1.217
-0.60280037 0.097088203 1.217
-0.60066658 0.097088203 1.217
-0.5985328 0.097088203 1.217
-0.59884924 0.097487085 1.222
-0.59719497 0.097566865 1.223
-0.59553719 0.097646639 1.2240001
-0.59387589 0.09772642 1.225
-0.59172809 0.09772642 1.225
-0.58958024 0.09772642 1.225
-0.588871 0.097965747 1.228
-0.5867179 0.097965747 1.228
-0.58218467 0.097566865 1.223
-0.58004034 0.097566865 1.223
-0.57884109 0.09772642 1.225
-0.57669324 0.09772642 1.225
-0.57689047 0.098125301 1.23
-0.57239759 0.09772642 1.225
-0.57024974 0.09772642 1.225
-0.56856567 0.097806193 1.2260001
-0.56595409 0.09772642 1.225
-0.56564724 0.09804552 1.2290001
-0.56349242 0.09804552 1.2290001
-0.56133753 0.09804552 1.2290001
-0.55736274 0.09772642 1.225
-0.55521494 0.09772642 1.225
-0.55306709 0.09772642 1.225
-0.55091923 0.09772642 1.225
-0.54832345 0.097646639 1.2240001
-0.54617733 0.097646639 1.2240001
-0.54403126 0.097646639 1.2240001
-0.54011434 0.09732753 1.22
-0.53797525 0.09732753 1.22
-0.53934985 0.097965747 1.228
-0.53719676 0.097965747 1.228
-0.53504372 0.097965747 1.228
-0.53375852 0.098125301 1.23
-0.53116971 0.09804552 1.2290001
-0.52901483 0.09804552 1.2290001
-0.52943212 0.098524183 1.235
-0.29117081 0.054407686 0.68200004
-0.28997502 0.054407686 0.68200004
-0.28877926 0.054407686 0.68200004
-0.28758347 0.054407686 0.68200004
-0.28722757 0.05456724 0.68400002
-0.28561011 0.054487463 0.68300003
-0.28524542 0.054647017 0.68500006
-0.50837725 0.097806193 1.2260001
-0.50622767 0.097806193 1.2260001
-0.50202227 0.097407311 1.2210001
-0.49988148 0.097407311 1.2210001
-0.49692535 0.097247757 1.2190001
-0.50154185 0.099002846 1.2410001
-0.49936599 0.099002846 1.2410001
-0.49719009 0.099002846 1.2410001
-0.49501422 0.099002846 1.2410001
-0.49283832 0.099002846 1.2410001
-0.48908094 0.098683737 1.2370001
-0.48691207 0.098683737 1.2370001
-0.48474318 0.098683737 1.2370001
-0.48062372 0.098284855 1.2320001
-0.47846362 0.098284855 1.2320001
-0.47630352 0.098284855 1.2320001
-0.47760713 0.099002846 1.2410001
-0.47543123 0.099002846 1.2410001
-0.47325534 0.099002846 1.2410001
-0.47107947 0.099002846 1.2410001
-0.46890357 0.099002846 1.2410001
-0.46672767 0.099002846 1.2410001
-0.46455181 0.099002846 1.2410001
-0.46200332 0.098923065 1.24
-0.45686257 0.098284855 1.2320001
-0.45470244 0.098284855 1.2320001
-0.45437896 0.098683737 1.2370001
-0.4522101 0.098683737 1.2370001
-0.44931358 0.098524183 1.235
-0.44678617 0.09844441 1.2340001
-0.44570348 0.098683737 1.2370001
-0.44353458 0.098683737 1.2370001
-0.44279292 0.099002846 1.2410001
-0.44132715 0.099162392 1.243
-0.43879446 0.099082619 1.2420001
-0.43626526 0.099002846 1.2410001
-0.43408939 0.099002846 1.2410001
-0.43156546 0.098923065 1.24
-0.42973763 0.099002846 1.2410001
-0.42756173 0.099002846 1.2410001
-0.42504308 0.098923065 1.24
-0.42320997 0.099002846 1.2410001
-0.42103407 0.099002846 1.2410001
-0.42020825 0.099321947 1.245
-0.41802534 0.099321947 1.245
-0.41550845 0.099242173 1.2440001
-0.41332728 0.099242173 1.2440001
-0.41048515 0.099082619 1.2420001
-0.40830749 0.099082619 1.2420001
-0.40612987 0.099082619 1.2420001
-0.40460271 0.099242173 1.2440001
-0.40242156 0.099242173 1.2440001
-0.40024042 0.099242173 1.2440001
-0.39837924 0.099321947 1.245
-0.39619634 0.099321947 1.245
-0.39464641 0.099481501 1.2470001
-0.39245999 0.099481501 1.2470001
-0.38996062 0.099401727 1.2460001
-0.38777596 0.099401727 1.2460001
-0.3855913 0.099401727 1.2460001
-0.38309896 0.099321947 1.245
-0.38061008 0.099242173 1.2440001
-0.37842894 0.099242173 1.2440001
-0.37655026 0.099321947 1.245
-0.37587082 0.099720836 1.25
-0.37367916 0.099720836 1.25
-0.37178469 0.099800609 1.251
-0.36959127 0.099800609 1.251
-0.36857259 0.10011972 1.2550001
-0.36637214 0.10011972 1.2550001
-0.36388153 0.10003994 1.2540001
-0.36052915 0.099720836 1.25
-0.35776415 0.099561282 1.248
-0.35529107 0.099481501 1.2470001
-0.35310468 0.099481501 1.2470001
-0.3520439 0.099800609 1.251
-0.35013014 0.099880382 1.2520001
-0.34765705 0.099800609 1.251
-0.34491134 0.099641055 1.2490001
-0.34464222 0.10019949 1.256
-0.34244004 0.10019949 1.256
-0.34023783 0.10019949 1.256
-0.33830479 0.10027927 1.2570001
-0.33610085 0.10027927 1.2570001
-0.33363128 0.10019949 1.256
-0.33037359 0.099880382 1.2520001
-0.32765415 0.099720836 1.25
-0.32520214 0.099641055 1.2490001
-0.3230122 0.099641055 1.2490001
-0.32107916 0.099720836 1.25
-0.3188875 0.099720836 1.25
-0.31644246 0.099641055 1.2490001
-0.31450418 0.099720836 1.25
-0.31356174 0.10011972 1.2550001
-0.31136131 0.10011972 1.2550001
-0.30891454 0.10003994 1.2540001
-0.30671585 0.10003994 1.2540001
-0.30451718 0.10003994 1.2540001
-0.30231848 0.10003994 1.2540001
-0.30011982 0.10003994 1.2540001
-0.29792115 0.10003994 1.2540001
-0.29572245 0.10003994 1.2540001
-0.29305562 0.099880382 1.2520001
-0.29178974 0.10019949 1.256
-0.29097092 0.10067815 1.2620001
-0.28875822 0.10067815 1.2620001
-0.28654552 0.10067815 1.2620001
-0.28433281 0.10067815 1.2620001
-0.28212011 0.10067815 1.2620001
-0.27968559 0.10059837 1.261
-0.27747464 0.10059837 1.261
-0.27417225 0.10019949 1.256
-0.27197006 0.10019949 1.256
-0.26976785 0.10019949 1.256
-0.26756567 0.10019949 1.256
-0.26536348 0.10019949 1.256
-0.2631613 0.10019949 1.256
-0.26095912 0.10019949 1.256
-0.25875694 0.10019949 1.256
-0.10120591 0.042441186 0.53200001
-0.10027313 0.042441186 0.53200001
-0.099527091 0.042520963 0.53300005
-0.098962516 0.042680517 0.53500003
-0.098207705 0.042760294 0.53600001
-0.097630858 0.042919848 0.53800005
-0.096867286 0.042999621 0.53900003
-0.096278161 0.043159176 0.54100001
-0.095329612 0.043159176 0.54100001
-0.094206601 0.043079399 0.54000002
-0.09377791 0.04331873 0.54300004
-0.093167752 0.043478284 0.54500002
-0.092212185 0.043478284 0.54500002
-0.0915915 0.043637838 0.54700005
-0.090798117 0.043717612 0.54800004
-0.089673355 0.043637838 0.54700005
-0.088876463 0.043717612 0.54800004
0.087349311 0.10323101 1.294
0.089618124 0.10323101 1.294
0.091886938 0.10323101 1.294
0.094155751 0.10323101 1.294
0.096424565 0.10323101 1.294
0.098693378 0.10323101 1.294
0.10096219 0.10323101 1.294
0.10323101 0.10323101 1.294
0.10549982 0.10323101 1.294
0.10776863 0.10323101 1.294
0.11029255 0.10347033 1.2970001
0.11265342 0.10355011 1.2980001
0.11492924 0.10355011 1.2980001
0.11729537 0.10362989 1.299
0.1194809 0.10355011 1.2980001
0.12175673 0.10355011 1.2980001
0.12403255 0.10355011 1.2980001
0.12630838 0.10355011 1.2980001
0.12858421 0.10355011 1.2980001
0.13086003 0.10355011 1.2980001
0.13303329 0.10347033 1.2970001
0.13572465 0.10378944 1.3010001
0.13747536 0.10339056 1.296
0.13974768 0.10339056 1.296
0.14212959 0.10347033 1.2970001
0.14507167 0.103949 1.3030001
0.14713009 0.10378944 1.3010001
0.14952601 0.10386922 1.302
0.15192546 0.103949 1.3030001
0.15421005 0.103949 1.3030001
0.15649465 0.103949 1.3030001
0.15926667 0.1042681 1.307
0.16131105 0.10410855 1.3050001
0.16359915 0.10410855 1.3050001
0.16576013 0.10402878 1.304
0.16765986 0.10378944 1.3010001
0.16994095 0.10378944 1.3010001
0.17301629 0.1042681 1.307
0.17557617 0.10442766 1.309
0.17787129 0.10442766 1.309
0.18016639 0.10442766 1.309
0.1826009 0.10450743 1.3100001
0.18489777 0.10450743 1.3100001
0.18719463 0.10450743 1.3100001
0.18934685 0.10442766 1.309
0.19164196 0.10442766 1.309
0.19393708 0.10442766 1.309
0.19623218 0.10442766 1.309
0.19852731 0.10442766 1.309
0.20082241 0.10442766 1.309
0.20311753 0.10442766 1.309
0.20541264 0.10442766 1.309
0.20786643 0.10450743 1.3100001
0.21112588 0.10498609 1.3160001
0.21343327 0.10498609 1.3160001
0.2145931 0.10442766 1.309
0.21672252 0.10434788 1.3080001
0.21985309 0.10474676 1.3130001
0.22215523 0.10474676 1.3130001
0.22343165 0.1042681 1.307
0.22537784 0.10410855 1.3050001
0.22853823 0.10450743 1.3100001
0.2308351 0.10450743 1.3100001
0.23313196 0.10450743 1.3100001
0.23632741 0.10490631 1.3150001
0.23863305 0.10490631 1.3150001
0.2418548 0.1053052 1.3200001
0.24416921 0.1053052 1.3200001
0.24611014 0.10514565 1.3180001
0.24747862 0.10474676 1.3130001
0.24997097 0.10482654 1.314
0.25227487 0.10482654 1.314
0.25457874 0.10482654 1.314
0.25688261 0.10482654 1.314
0.25918651 0.10482654 1.314
0.26129138 0.10474676 1.3130001
0.26258972 0.10434788 1.3080001
0.26488307 0.10434788 1.3080001
0.26697218 0.1042681 1.307
0.2694698 0.10434788 1.3080001
0.27217871 0.10450743 1.3100001
0.27447557 0.10450743 1.3100001
0.27698371 0.10458721 1.3110001
0.27949536 0.10466699 1.312
0.28179574 0.10466699 1.312
0.28409609 0.10466699 1.312
0.28770623 0.10514565 1.3180001
0.2900171 0.10514565 1.3180001
0.292328 0.10514565 1.3180001
0.2946389 0.10514565 1.3180001
0.29649919 0.10498609 1.3160001
0.29767129 0.10458721 1.3110001
0.29996991 0.10458721 1.3110001
0.30226853 0.10458721 1.3110001
0.30479947 0.10466699 1.312
0.30709985 0.10466699 1.312
0.30916438 0.10458721 1.3110001
0.31265089 0.10498609 1.3160001
0.31495827 0.10498609 1.3160001
0.31750676 0.10506587 1.317
0.32103008 0.10546475 1.322
0.32334799 0.10546475 1.322
0.32566589 0.10546475 1.322
0.3279838 0.10546475 1.322
0.32880259 0.10498609 1.3160001
0.33110997 0.10498609 1.3160001
0.33341739 0.10498609 1.3160001
0.33700031 0.10538498 1.3210001
0.33905959 0.1053052 1.3200001
0.34266707 0.10570408 1.325
0.34525061 0.10578386 1.3260001
0.15697154 0.041404091 0.51900005
0.15818574 0.041483868 0.52000004
0.15970938 0.041643418 0.52200001
0.16000921 0.041483868 0.52000004
0.15968308 0.04116476 0.51600003
0.15965416 0.040925428 0.51300001
0.15930173 0.040606324 0.509
0.15987945 0.040526547 0.50800002
0.16077015 0.040526547 0.50800002
0.16134261 0.040446769 0.50700003
0.16191156 0.040366992 0.50600004
0.16247702 0.040287215 0.505
0.16303895 0.040207438 0.50400001
0.16294691 0.039968111 0.50100005
0.16415232 0.040047888 0.50200003
0.16536126 0.040127665 0.50300002
0.16624318 0.040127665 0.50300002
0.16679284 0.040047888 0.50200003
-0.64441574 0.099058948 1.215
-0.64492857 0.0994666 1.22
-0.64278954 0.0994666 1.22
-0.64012533 0.099385068 1.2190001
-0.63798803 0.099385068 1.2190001
-0.63793719 0.099711187 1.223
-0.63579285 0.099711187 1.223
-0.63313043 0.099629663 1.222
-0.63047147 0.099548131 1.2210001
-0.62833065 0.099548131 1.2210001
-0.62618983 0.099548131 1.2210001
-0.62404901 0.099548131 1.2210001
-0.62190819 0.099548131 1.2210001
-0.61925977 0.0994666 1.22
-0.61661488 0.099385068 1.2190001
-0.61447757 0.099385068 1.2190001
-0.61234027 0.099385068 1.2190001
-0.61020297 0.099385068 1.2190001
-0.60756683 0.099303536 1.2180001
-0.60493422 0.099222012 1.217
-0.60280037 0.099222012 1.217
-0.60066658 0.099222012 1.217
-0.5985328 0.099222012 1.217
-0.59884924 0.099629663 1.222
-0.59719497 0.099711187 1.223
-0.59553719 0.099792719 1.2240001
-0.59387589 0.099874251 1.225
-0.59124506 0.099792719 1.2240001
-0.5910241 0.10011884 1.228
-0.588871 0.10011884 1.228
-0.58624017 0.10003731 1.2270001
-0.5840888 0.10003731 1.2270001
-0.58193749 0.10003731 1.2270001
-0.58073115 0.10020037 1.2290001
-0.57857633 0.10020037 1.2290001
-0.57689047 0.1002819 1.23
-0.57239759 0.099874251 1.225
-0.57024974 0.099874251 1.225
-0.56856567 0.099955782 1.2260001
-0.56549209 0.099792719 1.2240001
-0.56380624 0.099874251 1.225
-0.56165844 0.099874251 1.225
-0.56133753 0.10020037 1.2290001
-0.5591827 0.10020037 1.2290001
-0.55702788 0.10020037 1.2290001
-0.55306709 0.099874251 1.225
-0.55091923 0.099874251 1.225
-0.54832345 0.099792719 1.2240001
-0.54617733 0.099792719 1.2240001
-0.54403126 0.099792719 1.2240001
-0.54055703 0.099548131 1.2210001
-0.53841621 0.099548131 1.2210001
-0.29690596 0.05511428 0.67600006
-0.29615816 0.055195808 0.67700005
-0.29540685 0.05527734 0.67800003
-0.29421809 0.05527734 0.67800003
-0.29302934 0.05527734 0.67800003
-0.29270145 0.0554404 0.68000001
-0.29150921 0.0554404 0.68000001
-0.29117081 0.055603459 0.68200004
-0.28997502 0.055603459 0.68200004
-0.28877926 0.055603459 0.68200004
-0.28758347 0.055603459 0.68200004
-0.28638771 0.055603459 0.68200004
-0.28561011 0.055684991 0.68300003
-0.28524542 0.055848051 0.68500006
-0.51003587 0.1002819 1.23
-0.284495 0.05617417 0.68900001
-0.28369811 0.056255698 0.69000006
-0.50070029 0.099711187 1.223
-0.49733299 0.0994666 1.22
-0.278851 0.056011111 0.68700004
-0.27764648 0.056011111 0.68700004
-0.27644193 0.056011111 0.68700004
-0.27523738 0.056011111 0.68700004
-0.49501422 0.10117873 1.2410001
-0.49283832 0.10117873 1.2410001
-0.48908094 0.10085261 1.2370001
-0.48691207 0.10085261 1.2370001
-0.48474318 0.10085261 1.2370001
-0.48062372 0.10044496 1.2320001
-0.47846362 0.10044496 1.2320001
-0.47630352 0.10044496 1.2320001
-0.47221914 0.10003731 1.2270001
-0.4700678 0.10003731 1.2270001
-0.25931799 0.0554404 0.68000001
-0.25812572 0.0554404 0.68000001
-0.25655562 0.055358868 0.67900002
-0.2553651 0.055358868 0.67900002
-0.46305445 0.10085261 1.2370001
-0.46088558 0.10085261 1.2370001
-0.45686257 0.10044496 1.2320001
-0.45470244 0.10044496 1.2320001
-0.45254233 0.10044496 1.2320001
-0.4522101 0.10085261 1.2370001
-0.4500412 0.10085261 1.2370001
-0.44751027 0.10077108 1.2360001
-0.44570348 0.10085261 1.2370001
-0.44389316 0.10093414 1.238
-0.44172251 0.10093414 1.238
-0.44132715 0.10134179 1.243
-0.43914774 0.10134179 1.243
-0.43626526 0.10117873 1.2410001
-0.43408939 0.10117873 1.2410001
-0.43156546 0.1010972 1.24
-0.42939132 0.1010972 1.24
-0.42721719 0.1010972 1.24
-0.42504308 0.1010972 1.24
-0.42320997 0.10117873 1.2410001
-0.42103407 0.10117873 1.2410001
-0.42020825 0.10150485 1.245
-0.41735381 0.10134179 1.243
-0.41517442 0.10134179 1.243
-0.41332728 0.10142332 1.2440001
-0.41048515 0.10126026 1.2420001
-0.40830749 0.10126026 1.2420001
-0.40580285 0.10117873 1.2410001
-0.40395221 0.10126026 1.2420001
-0.40177459 0.10126026 1.2420001
-0.40024042 0.10142332 1.2440001
-0.39837924 0.10150485 1.245
-0.39619634 0.10150485 1.245
-0.39464641 0.10166791 1.2470001
-0.39245999 0.10166791 1.2470001
-0.38996062 0.10158638 1.2460001
-0.38777596 0.10158638 1.2460001
-0.3855913 0.10158638 1.2460001
-0.38340667 0.10158638 1.2460001
-0.38091606 0.10150485 1.245
-0.37903735 0.10158638 1.2460001
-0.37655026 0.10150485 1.245
-0.37436736 0.10150485 1.245
-0.37218446 0.10150485 1.245
-0.3714875 0.1019125 1.25
-0.36929584 0.1019125 1.25
-0.36827889 0.10223862 1.2540001
-0.36608022 0.10223862 1.2540001
-0.36504224 0.10256474 1.258
-0.36283654 0.10256474 1.258
-0.36063087 0.10256474 1.258
-0.35842517 0.10256474 1.258
-0.35565314 0.10240168 1.256
-0.35345095 0.10240168 1.256
-0.35124877 0.10240168 1.256
-0.34765705 0.10199403 1.251
-0.34491134 0.10183097 1.2490001
-0.34464222 0.10240168 1.256
-0.34244004 0.10240168 1.256
-0.34023783 0.10240168 1.256
-0.33830479 0.10248321 1.2570001
-0.33610085 0.10248321 1.2570001
-0.33363128 0.10240168 1.256
-0.33063745 0.10215709 1.253
-0.32791629 0.10199403 1.251
-0.32520214 0.10183097 1.2490001
-0.3230122 0.10183097 1.2490001
-0.32107916 0.1019125 1.25
-0.31863239 0.10183097 1.2490001
-0.31644246 0.10183097 1.2490001
-0.31425256 0.10183097 1.2490001
-0.31206265 0.10183097 1.2490001
-0.31111321 0.10223862 1.2540001
-0.30891454 0.10223862 1.2540001
-0.30671585 0.10223862 1.2540001
-0.30451718 0.10223862 1.2540001
-0.30231848 0.10223862 1.2540001
-0.30011982 0.10223862 1.2540001
-0.29792115 0.10223862 1.2540001
-0.29595828 0.10232015 1.2550001
-0.29328972 0.10215709 1.253
-0.29109278 0.10215709 1.253
-0.28981811 0.10248321 1.2570001
-0.28761417 0.10248321 1.2570001
-0.28541023 0.10248321 1.2570001
-0.28433281 0.10289086 1.2620001
-0.28212011 0.10289086 1.2620001
-0.27968559 0.10280933 1.261
-0.27747464 0.10280933 1.261
-0.27417225 0.10240168 1.256
-0.27197006 0.10240168 1.256
-0.27084178 0.10280933 1.261
-0.26863083 0.10280933 1.261
-0.26641989 0.10280933 1.261
-0.1101181 0.043210901 0.53000003
-0.10898282 0.04312937 0.52900004
-0.1080553 0.04312937 0.52900004
-0.10640103 0.043210901 0.53000003
-0.10547177 0.043210901 0.53000003
-0.10120591 0.043373961 0.53200001
-0.10027313 0.043373961 0.53200001
-0.099340357 0.043373961 0.53200001
-0.09877754 0.043537021 0.53400004
-0.09802448 0.043618549 0.53500003
-0.097630858 0.04386314 0.53800005
-0.096687563 0.04386314 0.53800005
-0.095922239 0.043944668 0.53900003
-0.095153399 0.0440262 0.54000002
-0.094032146 0.043944668 0.53900003
-0.09377791 0.044270791 0.54300004
-0.093167752 0.044433851 0.54500002
-0.09238138 0.044515379 0.546
-0.0915915 0.04459691 0.54700005
-0.090632431 0.04459691 0.54700005
-0.089673355 0.04459691 0.54700005
-0.088876463 0.044678438 0.54800004
0.087349311 0.10549982 1.294
0.089618124 0.10549982 1.294
0.091886938 0.10549982 1.294
0.094155751 0.10549982 1.294
0.096424565 0.10549982 1.294
0.098693378 0.10549982 1.294
0.10096219 0.10549982 1.294
0.10323101 0.10549982 1.294
0.10549982 0.10549982 1.294
0.10768535 0.10541829 1.2930001
0.11029255 0.10574441 1.2970001
0.11256663 0.10574441 1.2970001
0.1148407 0.10574441 1.2970001
0.11720508 0.10582594 1.2980001
0.1194809 0.10582594 1.2980001
0.12175673 0.10582594 1.2980001
0.12403255 0.10582594 1.2980001
0.12630838 0.10582594 1.2980001
0.12858421 0.10582594 1.2980001
0.13136412 0.10623359 1.3030001
0.13364871 0.10623359 1.3030001
0.13582897 0.10615206 1.302
0.13800575 0.10607053 1.3010001
0.14028683 0.10607053 1.3010001
0.1426775 0.10615206 1.302
0.14496034 0.10615206 1.302
0.147017 0.105989 1.3000001
0.14941117 0.10607053 1.3010001
0.15192546 0.10623359 1.3030001
0.15468346 0.10655971 1.307
0.15709516 0.10664124 1.3080001
0.15926667 0.10655971 1.307
0.16131105 0.10639665 1.3050001
0.16359915 0.10639665 1.3050001
0.16576013 0.10631512 1.304
0.16765986 0.10607053 1.3010001
0.16994095 0.10607053 1.3010001
0.17301629 0.10655971 1.307
0.17503965 0.10639665 1.3050001
0.17732775 0.10639665 1.3050001
0.18016639 0.10672277 1.309
0.1826009 0.1068043 1.3100001
0.18489777 0.1068043 1.3100001
0.18719463 0.1068043 1.3100001
0.18934685 0.10672277 1.309
0.19164196 0.10672277 1.309
0.19378892 0.10664124 1.3080001
0.19623218 0.10672277 1.309
0.19852731 0.10672277 1.309
0.20082241 0.10672277 1.309
0.20389338 0.10713042 1.314
0.20619726 0.10713042 1.314
0.2088185 0.10729348 1.3160001
0.21112588 0.10729348 1.3160001
0.21327108 0.10721195 1.3150001
0.21541278 0.10713042 1.314
0.21755096 0.10704889 1.3130001
0.21985309 0.10704889 1.3130001
0.22198603 0.10696736 1.312
0.22411545 0.10688583 1.3110001
0.22624137 0.1068043 1.3100001
0.22853823 0.1068043 1.3100001
0.2308351 0.1068043 1.3100001
0.232954 0.10672277 1.309
0.23632741 0.10721195 1.3150001
0.23863305 0.10721195 1.3150001
0.2418548 0.1076196 1.3200001
0.24416921 0.1076196 1.3200001
0.24648359 0.1076196 1.3200001
0.24860951 0.10753807 1.319
0.2511124 0.1076196 1.3200001
0.25227487 0.10713042 1.314
0.25457874 0.10713042 1.314
0.25688261 0.10713042 1.314
0.25898924 0.10704889 1.3130001
0.26129138 0.10704889 1.3130001
0.26238897 0.10655971 1.307
0.26488307 0.10664124 1.3080001
0.26697218 0.10655971 1.307
0.2694698 0.10664124 1.3080001
0.27217871 0.1068043 1.3100001
0.27468508 0.10688583 1.3110001
0.27698371 0.10688583 1.3110001
0.27949536 0.10696736 1.312
0.28179574 0.10696736 1.312
0.28409609 0.10696736 1.312
0.28661478 0.10704889 1.3130001
0.28891689 0.10704889 1.3130001
0.292328 0.10745654 1.3180001
0.2946389 0.10745654 1.3180001
0.2967245 0.10737501 1.317
0.29789835 0.10696736 1.312
0.3001987 0.10696736 1.312
0.30249909 0.10696736 1.312
0.30503178 0.10704889 1.3130001
0.30733392 0.10704889 1.3130001
0.3094002 0.10696736 1.312
0.31288847 0.10737501 1.317
0.31519762 0.10737501 1.317
0.31750676 0.10737501 1.317
0.32103008 0.10778266 1.322
0.32212502 0.10737501 1.317
0.32443416 0.10737501 1.317
0.3279838 0.10778266 1.322
0.32880259 0.10729348 1.3160001
0.33110997 0.10729348 1.3160001
0.33316401 0.10721195 1.3150001
0.3367452 0.1076196 1.3200001
0.33905959 0.1076196 1.3200001
0.34266707 0.10802725 1.325
0.15757644 0.042477131 0.52100003
0.15848994 0.042477131 0.52100003
0.15970938 0.042558659 0.52200001
0.16031691 0.042477131 0.52100003
0.16092093 0.042395599 0.52000004
0.15934293 0.04174336 0.51200002
0.15930173 0.041498769 0.509
0.15987945 0.041417241 0.50800002
0.16077015 0.041417241 0.50800002
0.16134261 0.041335709 0.50700003
0.16159159 0.04117265 0.505
0.16247702 0.04117265 0.505
0.16336244 0.04117265 0.505
0.16327216 0.040928058 0.50200003
0.16415232 0.040928058 0.50200003
0.16503251 0.040928058 0.50200003
0.16558217 0.04084653 0.50100005
0.16646059 0.04084653 0.50100005
-0.64335495 0.10102268 1.2130001
-0.64545721 0.10168895 1.2210001
-0.64331639 0.10168895 1.2210001
-0.64012533 0.10152239 1.2190001
-0.63798803 0.10152239 1.2190001
-0.63793719 0.10185552 1.223
-0.63579285 0.10185552 1.223
-0.63364851 0.10185552 1.223
-0.63150418 0.10185552 1.223
-0.62884527 0.10177223 1.222
-0.62618983 0.10168895 1.2210001
-0.62404901 0.10168895 1.2210001
-0.62139887 0.10160567 1.22
-0.61925977 0.10160567 1.22
-0.61661488 0.10152239 1.2190001
-0.61447757 0.10152239 1.2190001
-0.61234027 0.10152239 1.2190001
-0.61020297 0.10152239 1.2190001
-0.607068 0.10135581 1.217
-0.60493422 0.10135581 1.217
-0.60280037 0.10135581 1.217
-0.60066658 0.10135581 1.217
-0.5985328 0.10135581 1.217
-0.59884924 0.10177223 1.222
-0.59719497 0.10185552 1.223
-0.59553719 0.1019388 1.2240001
-0.59581512 0.10235522 1.2290001
-0.5931772 0.10227193 1.228
-0.5910241 0.10227193 1.228
-0.58839148 0.10218865 1.2270001
-0.58624017 0.10218865 1.2270001
-0.5840888 0.10218865 1.2270001
-0.58193749 0.10218865 1.2270001
-0.58073115 0.10235522 1.2290001
-0.57857633 0.10235522 1.2290001
-0.57689047 0.1024385 1.23
-0.57239759 0.10202208 1.225
-0.57024974 0.10202208 1.225
-0.31118071 0.055883117 0.671
-0.30908021 0.055716548 0.66900003
-0.309288 0.0559664 0.67200005
-0.30765125 0.055883117 0.671
-0.30647478 0.055883117 0.671
-0.3052983 0.055883117 0.671
-0.30366856 0.055799834 0.67000002
-0.30294532 0.055883117 0.671
-0.30266827 0.056049682 0.67300004
-0.30193627 0.056132965 0.67400002
-0.30030829 0.056049682 0.67300004
-0.30090618 0.056382816 0.67700005
-0.3001619 0.056466099 0.67800003
-0.29897314 0.056466099 0.67800003
-0.29734516 0.056382816 0.67700005
-0.29615816 0.056382816 0.67700005
-0.29540685 0.056466099 0.67800003
-0.29421809 0.056466099 0.67800003
-0.29302934 0.056466099 0.67800003
-0.29270145 0.056632668 0.68000001
-0.29150921 0.056632668 0.68000001
-0.29117081 0.056799233 0.68200004
-0.28954986 0.05671595 0.68100005
-0.28835583 0.05671595 0.68100005
-0.28758347 0.056799233 0.68200004
-0.28638771 0.056799233 0.68200004
-0.28519192 0.056799233 0.68200004
-0.28441259 0.056882516 0.68300003
-0.28445905 0.057132367 0.68600005
-0.28325626 0.057132367 0.68600005
-0.28246462 0.05721565 0.68700004
-0.2812601 0.05721565 0.68700004
-0.28046319 0.057298932 0.68800002
-0.27925691 0.057298932 0.68800002
-0.27764648 0.05721565 0.68700004
-0.27644193 0.05721565 0.68700004
-0.27523738 0.05721565 0.68700004
-0.27363396 0.057132367 0.68600005
-0.27203405 0.057049084 0.68500006
-0.27083302 0.057049084 0.68500006
-0.27041924 0.05721565 0.68700004
-0.48474318 0.10302148 1.2370001
-0.26722991 0.057049084 0.68500006
-0.26602888 0.057049084 0.68500006
-0.47630352 0.10260507 1.2320001
-0.47221914 0.10218865 1.2270001
-0.26165956 0.056882516 0.68300003
-0.25931799 0.056632668 0.68000001
-0.25812572 0.056632668 0.68000001
-0.25655562 0.056549381 0.67900002
-0.2553651 0.056549381 0.67900002
-0.25417459 0.056549381 0.67900002
-0.46088558 0.10302148 1.2370001
-0.45463759 0.10210536 1.2260001
-0.45285708 0.10218865 1.2270001
-0.45070574 0.10218865 1.2270001
-0.44891995 0.10227193 1.228
-0.4500412 0.10302148 1.2370001
-0.44787234 0.10302148 1.2370001
-0.44570348 0.10302148 1.2370001
-0.44425172 0.10318805 1.2390001
-0.44207934 0.10318805 1.2390001
-0.44132715 0.10352118 1.243
-0.43914774 0.10352118 1.243
-0.43661681 0.1034379 1.2420001
-0.43443918 0.1034379 1.2420001
-0.43226153 0.1034379 1.2420001
-0.42973763 0.10335462 1.2410001
-0.42893985 0.10368775 1.245
-0.42641416 0.10360447 1.2440001
-0.42457405 0.10368775 1.245
-0.42239115 0.10368775 1.245
-0.42020825 0.10368775 1.245
-0.41735381 0.10352118 1.243
-0.41517442 0.10352118 1.243
-0.41266277 0.1034379 1.2420001
-0.41081563 0.10352118 1.243
-0.40863624 0.10352118 1.243
-0.40645686 0.10352118 1.243
-0.40460271 0.10360447 1.2440001
-0.40209806 0.10352118 1.243
-0.40056214 0.10368775 1.245
-0.39837924 0.10368775 1.245
-0.39587811 0.10360447 1.2440001
-0.39369696 0.10360447 1.2440001
-0.39151582 0.10360447 1.2440001
-0.39152548 0.10418745 1.251
-0.38746476 0.10368775 1.245
-0.3855913 0.10377103 1.2460001
-0.38340667 0.10377103 1.2460001
-0.38061008 0.10360447 1.2440001
-0.37842894 0.10360447 1.2440001
-0.37594536 0.10352118 1.243
-0.37406665 0.10360447 1.2440001
-0.37188551 0.10360447 1.2440001
-0.37119031 0.10402089 1.2490001
-0.36900041 0.10402089 1.2490001
-0.36710417 0.10410417 1.25
-0.36608022 0.1044373 1.2540001
-0.36504224 0.10477043 1.258
-0.36283654 0.10477043 1.258
-0.36063087 0.10477043 1.258
-0.35814026 0.10468715 1.2570001
-0.35565314 0.10460386 1.256
-0.35345095 0.10460386 1.256
-0.35096911 0.10452058 1.2550001
-0.34876868 0.10452058 1.2550001
-0.34601596 0.10435402 1.253
-0.34409341 0.1044373 1.2540001
-0.34189475 0.1044373 1.2540001
-0.33996695 0.10452058 1.2550001
-0.33803564 0.10460386 1.256
-0.33583346 0.10460386 1.256
-0.33363128 0.10460386 1.256
-0.33222073 0.10485372 1.2590001
-0.32922691 0.10460386 1.256
-0.32520214 0.10402089 1.2490001
-0.3230122 0.10402089 1.2490001
-0.32133603 0.10418745 1.251
-0.3188875 0.10410417 1.25
-0.31644246 0.10402089 1.2490001
-0.31425256 0.10402089 1.2490001
-0.31206265 0.10402089 1.2490001
-0.31111321 0.1044373 1.2540001
-0.30891454 0.1044373 1.2540001
-0.30671585 0.1044373 1.2540001
-0.30451718 0.1044373 1.2540001
-0.30231848 0.1044373 1.2540001
-0.30011982 0.1044373 1.2540001
-0.29792115 0.1044373 1.2540001
-0.29595828 0.10452058 1.2550001
-0.29352379 0.1044373 1.2540001
-0.29132509 0.1044373 1.2540001
-0.29004866 0.10477043 1.258
-0.28784299 0.10477043 1.258
-0.28563729 0.10477043 1.258
-0.28433281 0.10510357 1.2620001
-0.1101181 0.044140168 0.53000003
-0.10898282 0.044056881 0.52900004
-0.1080553 0.044056881 0.52900004
-0.1073303 0.044140168 0.53000003
-0.10620028 0.044056881 0.52900004
-0.10547177 0.044140168 0.53000003
-0.10434525 0.044056881 0.52900004
-0.10213868 0.044306733 0.53200001
-0.10120591 0.044306733 0.53200001
-0.10027313 0.044306733 0.53200001
-0.099340357 0.044306733 0.53200001
-0.09877754 0.044473298 0.53400004
-0.09802448 0.044556584 0.53500003
-0.097449392 0.044723149 0.537
-0.096687563 0.044806432 0.53800005
-0.095922239 0.044889715 0.53900003
-0.094977193 0.044889715 0.53900003
-0.094032146 0.044889715 0.53900003
-0.09377791 0.045222849 0.54300004
-0.093167752 0.045389418 0.54500002
-0.092212185 0.045389418 0.54500002
-0.091424063 0.0454727 0.546
-0.090632431 0.045555983 0.54700005
-0.08983729 0.045639265 0.54800004
-0.088876463 0.045639265 0.54800004
0.088024348 0.10860147 1.304
0.089964412 0.10818505 1.299
0.092241988 0.10818505 1.299
0.094155751 0.10776863 1.294
0.096424565 0.10776863 1.294
0.098693378 0.10776863 1.294
0.10096219 0.10776863 1.294
0.10323101 0.10776863 1.294
0.10549982 0.10776863 1.294
0.10768535 0.10768535 1.2930001
0.11029255 0.10801848 1.2970001
0.11256663 0.10801848 1.2970001
0.1148407 0.10801848 1.2970001
0.11711477 0.10801848 1.2970001
0.1194809 0.10810176 1.2980001
0.12222574 0.10851818 1.3030001
0.12403255 0.10810176 1.2980001
0.12630838 0.10810176 1.2980001
0.12858421 0.10810176 1.2980001
0.13136412 0.10851818 1.3030001
0.13375127 0.10860147 1.304
0.13582897 0.1084349 1.302
0.13811181 0.1084349 1.302
0.14039466 0.1084349 1.302
0.1426775 0.1084349 1.302
0.144849 0.10835162 1.3010001
0.14713009 0.10835162 1.3010001
0.14964086 0.10851818 1.3030001
0.15192546 0.10851818 1.3030001
0.15468346 0.10885131 1.307
0.15697506 0.10885131 1.307
0.1591448 0.10876803 1.3060001
0.16081661 0.10835162 1.3010001
0.16297233 0.10826834 1.3000001
0.16512455 0.10818505 1.299
0.167531 0.10826834 1.3000001
0.16994095 0.10835162 1.3010001
0.17288393 0.10876803 1.3060001
0.17490552 0.10860147 1.304
0.17719187 0.10860147 1.304
0.18016639 0.10901789 1.309
0.18246152 0.10901789 1.309
0.18475662 0.10901789 1.309
0.18705173 0.10901789 1.309
0.18934685 0.10901789 1.309
0.19164196 0.10901789 1.309
0.19393708 0.10901789 1.309
0.19623218 0.10901789 1.309
0.19852731 0.10901789 1.309
0.20082241 0.10901789 1.309
0.20389338 0.1094343 1.314
0.20635419 0.10951758 1.3150001
0.2088185 0.10960086 1.3160001
0.21112588 0.10960086 1.3160001
0.21327108 0.10951758 1.3150001
0.21442915 0.1089346 1.3080001
0.21672252 0.1089346 1.3080001
0.21968566 0.10926773 1.312
0.22198603 0.10926773 1.312
0.22343165 0.10885131 1.307
0.22555055 0.10876803 1.3060001
0.22801486 0.10885131 1.307
0.2310113 0.10918445 1.3110001
0.23330992 0.10918445 1.3110001
0.23542883 0.10910117 1.3100001
0.23863305 0.10951758 1.3150001
0.2411219 0.10960086 1.3160001
0.24324432 0.10951758 1.3150001
0.24554995 0.10951758 1.3150001
0.248798 0.109934 1.3200001
0.2511124 0.109934 1.3200001
0.25208285 0.10935102 1.3130001
0.25438499 0.10935102 1.3130001
0.25688261 0.1094343 1.314
0.25918651 0.1094343 1.314
0.26149037 0.1094343 1.314
0.26258972 0.1089346 1.3080001
0.26488307 0.1089346 1.3080001
0.26738071 0.10901789 1.309
0.26988184 0.10910117 1.3100001
0.27238646 0.10918445 1.3110001
0.27468508 0.10918445 1.3110001
0.27698371 0.10918445 1.3110001
0.27949536 0.10926773 1.312
0.28179574 0.10926773 1.312
0.28409609 0.10926773 1.312
0.28661478 0.10935102 1.3130001
0.28891689 0.10935102 1.3130001
0.292328 0.10976743 1.3180001
0.2946389 0.10976743 1.3180001
0.2969498 0.10976743 1.3180001
0.29926068 0.10976743 1.3180001
