# .PCD v0.7 - Point Cloud Data file format
VERSION 0.7
FIELDS x y z
SIZE 4 4 4
TYPE F F F
COUNT 1 1 1
WIDTH 1384
HEIGHT 1
VIEWPOINT 0 0 0 1 0 0 0
POINTS 1384
DATA ascii
1.2600461 -0.32246342 3.0910001
1.2658751 -0.32256773 3.0920002
1.2712964 -0.32256773 3.0920002
1.2651563 -0.31964669 3.0640001
1.2589179 -0.31672564 3.0360003
1.2684052 -0.31776887 3.0460002
1.2729095 -0.31756023 3.0440001
1.264809 -0.31422189 3.0120001
1.2721984 -0.31474349 3.0170002
1.2766415 -0.31453484 3.0150001
1.2934077 -0.31735158 3.0420001
1.2987413 -0.31735158 3.0420001
0.44471109 -0.10275848 0.98500007
0.4464381 -0.10275848 0.98500007
0.44407025 -0.10181957 0.97600007
0.44441125 -0.10150661 0.97300005
0.44611725 -0.10150661 0.97300005
0.44644248 -0.10119363 0.97000003
0.44814324 -0.10119363 0.97000003
0.44984397 -0.10119363 0.97000003
0.45014817 -0.10088066 0.96700007
0.45184365 -0.10088066 0.96700007
0.45213208 -0.10056769 0.96400005
0.45288074 -0.10035904 0.96200007
0.45314988 -0.10004608 0.95900005
0.45530561 -0.1001504 0.96000004
0.45556071 -0.09983743 0.95700002
0.45628309 -0.099628784 0.95500004
0.45795751 -0.099628784 0.95500004
0.45963195 -0.099628784 0.95500004
0.45985726 -0.099315815 0.95200002
0.46152642 -0.099315815 0.95200002
0.46222249 -0.099107169 0.95000005
0.46242326 -0.0987942 0.94700003
0.46163338 -0.098272577 0.94200003
0.46180958 -0.097959608 0.93900007
0.46444309 -0.098168254 0.94100004
1.2588232 -0.31673616 3.0880001
1.2658751 -0.31714645 3.0920002
1.2712964 -0.31714645 3.0920002
1.2651563 -0.31427449 3.0640001
1.2589179 -0.31140253 3.0360003
1.2684052 -0.31242821 3.0460002
1.2737458 -0.31242821 3.0460002
1.2778267 -0.3121205 3.0430002
1.2844272 -0.31242821 3.0460002
1.2893443 -0.31232566 3.0450001
1.3180683 -0.317967 3.1000001
0.44471109 -0.10103145 0.98500007
0.44462517 -0.10062117 0.98100007
0.44361526 -0.10000575 0.97500002
0.44349778 -0.099595472 0.97100008
0.44565874 -0.099698037 0.97200006
0.44598225 -0.099390328 0.96900004
0.44814324 -0.0994929 0.97000003
0.44984397 -0.0994929 0.97000003
0.44968265 -0.099082619 0.96600002
0.45137638 -0.099082619 0.96600002
0.45166305 -0.09877491 0.96300006
0.45240995 -0.098569766 0.96100003
0.45314988 -0.098364629 0.95900005
0.45530561 -0.098467201 0.96000004
0.45698881 -0.098467201 0.96000004
0.45628309 -0.097954348 0.95500004
0.45795751 -0.097954348 0.95500004
0.45963195 -0.097954348 0.95500004
0.46130639 -0.097954348 0.95500004
0.46298081 -0.097954348 0.95500004
0.46465525 -0.097954348 0.95500004
0.46388817 -0.097441502 0.95000005
0.46261349 -0.096826077 0.94400007
0.46180958 -0.096313231 0.93900007
0.46444309 -0.096518368 0.94100004
1.2588232 -0.31132185 3.0880001
1.2658751 -0.31172514 3.0920002
1.2712964 -0.31172514 3.0920002
1.2535948 -0.30607939 3.0360003
1.2589179 -0.30607939 3.0360003
1.2571619 -0.30436552 3.0190001
1.2624552 -0.30436552 3.0190001
1.2677486 -0.30436552 3.0190001
1.2612349 -0.30154264 2.9910002
1.2664791 -0.30154264 2.9910002
1.2827781 -0.30416387 3.0170002
0.44425958 -0.099203601 0.98400003
0.44462517 -0.098901153 0.98100007
0.44316027 -0.098195434 0.97400004
0.44441125 -0.098094612 0.97300005
0.44474176 -0.097792163 0.97000003
0.44552201 -0.097590536 0.96800005
0.44721922 -0.097590536 0.96800005
0.44984397 -0.097792163 0.97000003
0.44968265 -0.097388901 0.96600002
0.45137638 -0.097388901 0.96600002
0.45119402 -0.096985631 0.96200007
0.4519392 -0.096784003 0.96000004
0.45267734 -0.096582368 0.95800006
0.45435706 -0.096582368 0.95800006
0.45603675 -0.096582368 0.95800006
0.45628309 -0.096279919 0.95500004
0.45843706 -0.096380733 0.95600003
0.46107581 -0.096582368 0.95800006
0.4627555 -0.096582368 0.95800006
0.46298081 -0.096279919 0.95500004
0.46611491 -0.096582368 0.95800006
0.46388817 -0.095775835 0.95000005
0.46261349 -0.09517093 0.94400007
0.46180958 -0.094666846 0.93900007
0.46444309 -0.094868481 0.94100004
1.2702374 -0.30868134 3.1160002
1.2654657 -0.30620477 3.0910001
1.2712964 -0.30630383 3.0920002
1.2535948 -0.30075628 3.0360003
1.2589179 -0.30075628 3.0360003
1.2571619 -0.29907221 3.0190001
1.2624552 -0.29907221 3.0190001
1.2517915 -0.29530779 2.9810002
1.2570181 -0.29530779 2.9810002
1.2660557 -0.29619935 2.9900002
1.2781011 -0.29778439 3.006
0.44290516 -0.097181126 0.98100007
0.44462517 -0.097181126 0.98100007
0.44316027 -0.096487686 0.97400004
0.44441125 -0.096388623 0.97300005
0.44520026 -0.096190497 0.97100008
0.44736299 -0.09628956 0.97200006
0.44768122 -0.095992371 0.96900004
0.44984397 -0.096091434 0.97000003
0.44968265 -0.095695183 0.96600002
0.4499746 -0.095397986 0.96300006
0.45119402 -0.095298924 0.96200007
0.4519392 -0.095100798 0.96000004
0.45267734 -0.094902672 0.95800006
0.45435706 -0.094902672 0.95800006
0.45603675 -0.094902672 0.95800006
0.45819423 -0.095001735 0.95900005
0.46035519 -0.095100798 0.96000004
0.46251968 -0.095199861 0.96100003
0.46420464 -0.095199861 0.96100003
0.46492001 -0.095001735 0.95900005
0.46757454 -0.095199861 0.96100003
0.46486476 -0.094308294 0.95200002
0.46408367 -0.09381298 0.94700003
0.46574408 -0.09381298 0.94700003
0.4683916 -0.094011106 0.94900006
1.271868 -0.3036072 3.1200001
1.2646469 -0.30059057 3.0890002
1.2712964 -0.30088252 3.0920002
1.2651563 -0.29815784 3.0640001
1.2589179 -0.29543316 3.0360003
1.2529978 -0.29280579 3.0090001
1.2582735 -0.29280579 3.0090001
1.2492719 -0.28949726 2.9750001
1.2536447 -0.28930262 2.973
1.2622448 -0.29008111 2.9810002
1.2789514 -0.29270849 3.0080001
0.44335663 -0.09555842 0.98200005
0.44462517 -0.095461108 0.98100007
0.44452524 -0.095071867 0.97700006
0.444868 -0.094779938 0.97400004
0.44657576 -0.094779938 0.97400004
0.44598225 -0.094293386 0.96900004
0.44768122 -0.094293386 0.96900004
0.44938022 -0.094293386 0.96900004
0.44968265 -0.094001457 0.96600002
0.4499746 -0.093709528 0.96300006
0.45072502 -0.093514912 0.96100003
0.45146844 -0.093320288 0.95900005
0.45267734 -0.093222976 0.95800006
0.45435706 -0.093222976 0.95800006
0.45603675 -0.093222976 0.95800006
0.45914978 -0.093514912 0.96100003
0.46083474 -0.093514912 0.96100003
0.46251968 -0.093514912 0.96100003
0.46420464 -0.093514912 0.96100003
0.4658896 -0.093514912 0.96100003
0.46757454 -0.093514912 0.96100003
0.4677946 -0.093222976 0.95800006
0.46800411 -0.092931047 0.95500004
0.46967855 -0.092931047 0.95500004
0.47085941 -0.092833742 0.95400006
0.44118512 -0.093741089 0.98100007
0.44335663 -0.093836643 0.98200005
0.44462517 -0.093741089 0.98100007
0.4454352 -0.093549974 0.97900003
0.4457815 -0.093263306 0.97600007
0.44657576 -0.093072191 0.97400004
0.44598225 -0.092594407 0.96900004
0.44768122 -0.092594407 0.96900004
0.44798893 -0.092307739 0.96600002
0.44968265 -0.092307739 0.96600002
0.4499746 -0.09202107 0.96300006
0.45166305 -0.09202107 0.96300006
0.45240995 -0.091829956 0.96100003
0.45125979 -0.091256618 0.95500004
0.45293421 -0.091256618 0.95500004
0.45603675 -0.091543287 0.95800006
0.45914978 -0.091829956 0.96100003
0.46083474 -0.091829956 0.96100003
0.46251968 -0.091829956 0.96100003
0.46420464 -0.091829956 0.96100003
0.46540481 -0.091734402 0.96000004
0.46708798 -0.091734402 0.96000004
0.46877119 -0.091734402 0.96000004
0.47045439 -0.091734402 0.96000004
0.47115397 -0.091543287 0.95800006
0.47283366 -0.091543287 0.95800006
0.44118512 -0.09202107 0.98100007
0.44335663 -0.092114873 0.98200005
0.4450784 -0.092114873 0.98200005
0.4454352 -0.091833465 0.97900003
0.4457815 -0.091552056 0.97600007
0.44657576 -0.091364443 0.97400004
0.44598225 -0.090895429 0.96900004
0.44768122 -0.090895429 0.96900004
0.44798893 -0.090614021 0.96600002
0.44828612 -0.090332612 0.96300006
0.44904006 -0.090144999 0.96100003
0.45072502 -0.090144999 0.96100003
0.45240995 -0.090144999 0.96100003
0.45125979 -0.089582182 0.95500004
0.45293421 -0.089582182 0.95500004
0.45603675 -0.089863591 0.95800006
0.45771644 -0.089863591 0.95800006
0.45939612 -0.089863591 0.95800006
0.4620384 -0.090051197 0.96000004
0.4637216 -0.090051197 0.96000004
0.46540481 -0.090051197 0.96000004
0.46854764 -0.090332612 0.96300006
0.46877119 -0.090051197 0.96000004
0.47045439 -0.090051197 0.96000004
0.47115397 -0.089863591 0.95800006
0.47283366 -0.089863591 0.95800006
0.43856916 -0.090116948 0.97900003
0.44028565 -0.090116948 0.97900003
0.44200218 -0.090116948 0.97900003
0.4437187 -0.090116948 0.97900003
0.44407025 -0.0898408 0.97600007
0.4457815 -0.0898408 0.97600007
0.44749275 -0.0898408 0.97600007
0.44782326 -0.089564651 0.97300005
0.44814324 -0.089288503 0.97000003
0.44798893 -0.088920303 0.96600002
0.44875163 -0.088736199 0.96400005
0.44904006 -0.088460051 0.96100003
0.45072502 -0.088460051 0.96100003
0.45240995 -0.088460051 0.96100003
0.45125979 -0.087907746 0.95500004
0.45293421 -0.087907746 0.95500004
0.45603675 -0.088183902 0.95800006
0.45771644 -0.088183902 0.95800006
0.45939612 -0.088183902 0.95800006
0.4620384 -0.088367999 0.96000004
0.4637216 -0.088367999 0.96000004
0.46540481 -0.088367999 0.96000004
0.46708798 -0.088367999 0.96000004
0.46828291 -0.088275947 0.95900005
0.46996433 -0.088275947 0.95900005
0.47115397 -0.088183902 0.95800006
0.47283366 -0.088183902 0.95800006
0.43901712 -0.088490732 0.98000002
0.4407354 -0.088490732 0.98000002
0.44290516 -0.088581033 0.98100007
0.44462517 -0.088581033 0.98100007
0.4449802 -0.088310137 0.97800004
0.444868 -0.087948956 0.97400004
0.44657576 -0.087948956 0.97400004
0.44736299 -0.087768361 0.97200006
0.44814324 -0.087587766 0.97000003
0.44845268 -0.087316878 0.96700007
0.44875163 -0.087045982 0.96400005
0.44950733 -0.086865395 0.96200007
0.45072502 -0.086775094 0.96100003
0.4519392 -0.086684801 0.96000004
0.45125979 -0.086233318 0.95500004
0.45245993 -0.086143017 0.95400006
0.45556071 -0.086413912 0.95700002
0.45771644 -0.086504206 0.95800006
0.45939612 -0.086504206 0.95800006
0.46300098 -0.086865395 0.96200007
0.46468768 -0.086865395 0.96200007
0.46540481 -0.086684801 0.96000004
0.46757454 -0.086775094 0.96100003
0.46828291 -0.0865945 0.95900005
0.46996433 -0.0865945 0.95900005
0.47164577 -0.0865945 0.95900005
0.47332722 -0.0865945 0.95900005
0.44260094 -0.087480813 0.98800004
0.44298404 -0.087215185 0.98500007
0.44290516 -0.086861007 0.98100007
0.44462517 -0.086861007 0.98100007
0.4449802 -0.086595379 0.97800004
0.4457815 -0.086418293 0.97600007
0.44749275 -0.086418293 0.97600007
0.44782326 -0.086152665 0.97300005
0.44768122 -0.085798487 0.96900004
0.44845268 -0.085621402 0.96700007
0.44875163 -0.085355774 0.96400005
0.44950733 -0.085178688 0.96200007
0.45119402 -0.085178688 0.96200007
0.45099765 -0.08482451 0.95800006
0.45267734 -0.08482451 0.95800006
0.45435706 -0.08482451 0.95800006
0.45603675 -0.08482451 0.95800006
0.45771644 -0.08482451 0.95800006
0.45939612 -0.08482451 0.95800006
0.46300098 -0.085178688 0.96200007
0.46517074 -0.085267231 0.96300006
0.46685919 -0.085267231 0.96300006
0.46854764 -0.085267231 0.96300006
0.46877119 -0.085001603 0.96000004
0.47045439 -0.085001603 0.96000004
0.4721376 -0.085001603 0.96000004
0.47332722 -0.084913053 0.95900005
0.44131488 -0.085835308 0.98900002
0.44260094 -0.085748516 0.98800004
0.44343379 -0.08557494 0.98600006
0.44380811 -0.085314572 0.98300004
0.44553164 -0.085314572 0.98300004
0.4454352 -0.084967412 0.97900003
0.4457815 -0.084707037 0.97600007
0.44611725 -0.084446669 0.97300005
0.44644248 -0.084186301 0.97000003
0.44675723 -0.083925933 0.96700007
0.44706142 -0.083665557 0.96400005
0.44875163 -0.083665557 0.96400005
0.44950733 -0.083491981 0.96200007
0.45119402 -0.083491981 0.96200007
0.45240995 -0.083405189 0.96100003
0.4536224 -0.083318397 0.96000004
0.45530561 -0.083318397 0.96000004
0.45651278 -0.083231613 0.95900005
0.45867199 -0.083318397 0.96000004
0.46035519 -0.083318397 0.96000004
0.46348226 -0.083578773 0.96300006
0.46517074 -0.083578773 0.96300006
0.46685919 -0.083578773 0.96300006
0.47049385 -0.083925933 0.96700007
0.47023609 -0.083578773 0.96300006
0.47045439 -0.083318397 0.96000004
0.4721376 -0.083318397 0.96000004
0.47332722 -0.083231613 0.95900005
0.44086865 -0.084016226 0.98800004
0.44215298 -0.083931193 0.98700005
0.44433323 -0.084016226 0.98800004
0.44380811 -0.083591044 0.98300004
0.44417194 -0.083335936 0.98000002
0.4454352 -0.083250895 0.97900003
0.4457815 -0.082995787 0.97600007
0.44611725 -0.082740679 0.97300005
0.44644248 -0.082485564 0.97000003
0.44675723 -0.082230456 0.96700007
0.44706142 -0.081975348 0.96400005
0.44875163 -0.081975348 0.96400005
0.44950733 -0.081805274 0.96200007
0.45119402 -0.081805274 0.96200007
0.45288074 -0.081805274 0.96200007
0.45409492 -0.081720233 0.96100003
0.45577988 -0.081720233 0.96100003
0.45746481 -0.081720233 0.96100003
0.46010536 -0.081890307 0.96300006
0.46179381 -0.081890307 0.96300006
0.46348226 -0.081890307 0.96300006
0.46517074 -0.081890307 0.96300006
0.46831357 -0.082145423 0.96600002
0.47049385 -0.082230456 0.96700007
0.47218931 -0.082230456 0.96700007
0.4714345 -0.081805274 0.96200007
0.47164577 -0.081550166 0.95900005
0.47480792 -0.081805274 0.96200007
0.43958083 -0.082367219 0.98900002
0.44131488 -0.082367219 0.98900002
0.44304892 -0.082367219 0.98900002
0.44433323 -0.082283936 0.98800004
0.44290516 -0.081700951 0.98100007
0.44326547 -0.081451103 0.97800004
0.4449802 -0.081451103 0.97800004
0.4457815 -0.08128453 0.97600007
0.44611725 -0.081034683 0.97300005
0.44644248 -0.080784835 0.97000003
0.44675723 -0.08053498 0.96700007
0.44706142 -0.080285132 0.96400005
0.44875163 -0.080285132 0.96400005
0.44950733 -0.080118567 0.96200007
0.45119402 -0.080118567 0.96200007
0.45288074 -0.080118567 0.96200007
0.45456743 -0.080118567 0.96200007
0.45577988 -0.080035284 0.96100003
0.45841688 -0.080201849 0.96300006
0.46010536 -0.080201849 0.96300006
0.46227333 -0.080285132 0.96400005
0.46540743 -0.08053498 0.96700007
0.46710292 -0.08053498 0.96700007
0.46879837 -0.08053498 0.96700007
0.47146696 -0.080701552 0.96900004
0.47316593 -0.080701552 0.96900004
0.47339475 -0.080451697 0.96600002
0.47558028 -0.08053498 0.96700007
0.43913636 -0.080551639 0.98800004
0.44086865 -0.080551639 0.98800004
0.44260094 -0.080551639 0.98800004
0.44478297 -0.080633171 0.98900002
0.44290516 -0.079980932 0.98100007
0.44235897 -0.079573281 0.97600007
0.44407025 -0.079573281 0.97600007
0.4457815 -0.079573281 0.97600007
0.44611725 -0.079328686 0.97300005
0.44644248 -0.079084098 0.97000003
0.44675723 -0.078839511 0.96700007
0.44798893 -0.078757979 0.96600002
0.44968265 -0.078757979 0.96600002
0.44950733 -0.07843186 0.96200007
0.45119402 -0.07843186 0.96200007
0.45288074 -0.07843186 0.96200007
0.45409492 -0.078350328 0.96100003
0.45672843 -0.078513391 0.96300006
0.45841688 -0.078513391 0.96300006
0.46058312 -0.078594923 0.96400005
0.46371195 -0.078839511 0.96700007
0.46540743 -0.078839511 0.96700007
0.46710292 -0.078839511 0.96700007
0.47025275 -0.079084098 0.97000003
0.47146696 -0.079002567 0.96900004
0.47316593 -0.079002567 0.96900004
0.47339475 -0.078757979 0.96600002
0.47558028 -0.078839511 0.96700007
0.43611273 -0.078899123 0.98900002
0.43651864 -0.078659795 0.98600006
0.43913636 -0.078819349 0.98800004
0.44086865 -0.078819349 0.98800004
0.44260094 -0.078819349 0.98800004
0.44478297 -0.078899123 0.98900002
0.44290516 -0.078260906 0.98100007
0.44235897 -0.077862024 0.97600007
0.44407025 -0.077862024 0.97600007
0.4457815 -0.077862024 0.97600007
0.44611725 -0.077622697 0.97300005
0.44644248 -0.077383369 0.97000003
0.44675723 -0.077144034 0.96700007
0.44798893 -0.077064261 0.96600002
0.44968265 -0.077064261 0.96600002
0.44950733 -0.076745152 0.96200007
0.45072502 -0.076665379 0.96100003
0.45240995 -0.076665379 0.96100003
0.4536224 -0.076585598 0.96000004
0.45672843 -0.076824926 0.96300006
0.45984498 -0.077064261 0.96600002
0.4615387 -0.077064261 0.96600002
0.46323243 -0.077064261 0.96600002
0.46540743 -0.077144034 0.96700007
0.46855202 -0.077383369 0.97000003
0.47025275 -0.077383369 0.97000003
0.47244003 -0.077463143 0.97100008
0.47267762 -0.077223815 0.96800005
0.47437486 -0.077223815 0.96800005
0.47607207 -0.077223815 0.96800005
0.43655369 -0.077243097 0.99000007
0.43651864 -0.076931007 0.98600006
0.43913636 -0.077087052 0.98800004
0.44086865 -0.077087052 0.98800004
0.44260094 -0.077087052 0.98800004
0.44478297 -0.077165075 0.98900002
0.44290516 -0.076540887 0.98100007
0.44326547 -0.07630682 0.97800004
0.44407025 -0.076150775 0.97600007
0.44441125 -0.0759167 0.97300005
0.44611725 -0.0759167 0.97300005
0.44644248 -0.075682633 0.97000003
0.44675723 -0.075448565 0.96700007
0.44706142 -0.07521449 0.96400005
0.44875163 -0.07521449 0.96400005
0.45044184 -0.07521449 0.96400005
0.45166305 -0.075136468 0.96300006
0.4533515 -0.075136468 0.96300006
0.45503998 -0.075136468 0.96300006
0.45672843 -0.075136468 0.96300006
0.45984498 -0.075370543 0.96600002
0.4615387 -0.075370543 0.96600002
0.46323243 -0.075370543 0.96600002
0.46685129 -0.075682633 0.97000003
0.46855202 -0.075682633 0.97000003
0.47025275 -0.075682633 0.97000003
0.47195351 -0.075682633 0.97000003
0.47267762 -0.075526588 0.96800005
0.47437486 -0.075526588 0.96800005
0.47607207 -0.075526588 0.96800005
0.43523082 -0.075278491 0.98700005
0.43696135 -0.075278491 0.98700005
0.43869188 -0.075278491 0.98700005
0.44086865 -0.075354762 0.98800004
0.441257 -0.075125948 0.98500007
0.44298404 -0.075125948 0.98500007
0.44290516 -0.074820869 0.98100007
0.44326547 -0.074592061 0.97800004
0.44407025 -0.074439518 0.97600007
0.44441125 -0.074210711 0.97300005
0.44611725 -0.074210711 0.97300005
0.44644248 -0.073981896 0.97000003
0.44629523 -0.073676817 0.96600002
0.44659767 -0.07344801 0.96300006
0.44875163 -0.073524281 0.96400005
0.45044184 -0.073524281 0.96400005
0.45166305 -0.07344801 0.96300006
0.4533515 -0.07344801 0.96300006
0.45503998 -0.07344801 0.96300006
0.45672843 -0.07344801 0.96300006
0.45984498 -0.073676817 0.96600002
0.4615387 -0.073676817 0.96600002
0.46323243 -0.073676817 0.96600002
0.46685129 -0.073981896 0.97000003
0.46855202 -0.073981896 0.97000003
0.46976796 -0.073905632 0.96900004
0.47098041 -0.07382936 0.96800005
0.47267762 -0.07382936 0.96800005
0.47388479 -0.073753089 0.96700007
0.4770557 -0.073981896 0.97000003
0.43523082 -0.073547952 0.98700005
0.43563318 -0.073324397 0.98400003
0.43646953 -0.073175363 0.98200005
0.43908376 -0.073324397 0.98400003
0.441257 -0.073398918 0.98500007
0.44343379 -0.073473431 0.98600006
0.44380811 -0.073249884 0.98300004
0.4437187 -0.072951816 0.97900003
0.44316027 -0.072579235 0.97400004
0.44349778 -0.07235568 0.97100008
0.44474176 -0.072281167 0.97000003
0.44644248 -0.072281167 0.97000003
0.44675723 -0.07205762 0.96700007
0.44798893 -0.071983099 0.96600002
0.44828612 -0.071759552 0.96300006
0.4499746 -0.071759552 0.96300006
0.45166305 -0.071759552 0.96300006
0.4533515 -0.071759552 0.96300006
0.45503998 -0.071759552 0.96300006
0.45672843 -0.071759552 0.96300006
0.45984498 -0.071983099 0.96600002
0.4615387 -0.071983099 0.96600002
0.46323243 -0.071983099 0.96600002
0.46685129 -0.072281167 0.97000003
0.46855202 -0.072281167 0.97000003
0.46928316 -0.072132133 0.96800005
0.47098041 -0.072132133 0.96800005
0.47267762 -0.072132133 0.96800005
0.47535497 -0.072281167 0.97000003
0.4770557 -0.072281167 0.97000003
0.43390793 -0.071599118 0.98400003
0.43474776 -0.071453594 0.98200005
0.43646953 -0.071453594 0.98200005
0.43819132 -0.071453594 0.98200005
0.44036105 -0.071526356 0.98300004
0.44208458 -0.071526356 0.98300004
0.44245365 -0.071308069 0.98000002
0.44235897 -0.071017012 0.97600007
0.44316027 -0.070871487 0.97400004
0.44349778 -0.070653193 0.97100008
0.44474176 -0.07058043 0.97000003
0.44644248 -0.07058043 0.97000003
0.44675723 -0.070362143 0.96700007
0.44798893 -0.070289381 0.96600002
0.44828612 -0.070071086 0.96300006
0.4499746 -0.070071086 0.96300006
0.45166305 -0.070071086 0.96300006
0.4533515 -0.070071086 0.96300006
0.45503998 -0.070071086 0.96300006
0.45815125 -0.070289381 0.96600002
0.45984498 -0.070289381 0.96600002
0.4615387 -0.070289381 0.96600002
0.46371195 -0.070362143 0.96700007
0.46685129 -0.07058043 0.97000003
0.46855202 -0.07058043 0.97000003
0.46928316 -0.070434906 0.96800005
0.47098041 -0.070434906 0.96800005
0.47414252 -0.070653193 0.97100008
0.47535497 -0.07058043 0.97000003
0.43214408 -0.069589801 0.98000002
0.43386233 -0.069589801 0.98000002
0.43646953 -0.069731817 0.98200005
0.43819132 -0.069731817 0.98200005
0.44036105 -0.069802828 0.98300004
0.44028565 -0.06951879 0.97900003
0.44200218 -0.06951879 0.97900003
0.44235897 -0.069305763 0.97600007
0.44270527 -0.069092728 0.97300005
0.44304103 -0.068879701 0.97000003
0.44428328 -0.06880869 0.96900004
0.44644248 -0.068879701 0.97000003
0.44675723 -0.068666667 0.96700007
0.44798893 -0.068595663 0.96600002
0.44968265 -0.068595663 0.96600002
0.45137638 -0.068595663 0.96600002
0.4530701 -0.068595663 0.96600002
0.45476383 -0.068595663 0.96600002
0.45645753 -0.068595663 0.96600002
0.45767698 -0.068524651 0.96500003
0.46079704 -0.068737678 0.96800005
0.46297204 -0.06880869 0.96900004
0.46467102 -0.06880869 0.96900004
0.46637002 -0.06880869 0.96900004
0.46758595 -0.068737678 0.96800005
0.47073755 -0.068950713 0.97100008
0.47244003 -0.068950713 0.97100008
0.47414252 -0.068950713 0.97100008
0.43258503 -0.067940786 0.98100007
0.43386233 -0.067871533 0.98000002
0.43602505 -0.067940786 0.98100007
0.43819132 -0.068010047 0.98200005
0.44036105 -0.0680793 0.98300004
0.44028565 -0.067802273 0.97900003
0.44200218 -0.067802273 0.97900003
0.44235897 -0.067594506 0.97600007
0.44270527 -0.067386739 0.97300005
0.44304103 -0.067178965 0.97000003
0.44428328 -0.067109711 0.96900004
0.44598225 -0.067109711 0.96900004
0.44768122 -0.067109711 0.96900004
0.44938022 -0.067109711 0.96900004
0.44968265 -0.066901937 0.96600002
0.45137638 -0.066901937 0.96600002
0.4530701 -0.066901937 0.96600002
0.45476383 -0.066901937 0.96600002
0.45645753 -0.066901937 0.96600002
0.45767698 -0.066832684 0.96500003
0.46079704 -0.067040451 0.96800005
0.46297204 -0.067109711 0.96900004
0.46371195 -0.066971198 0.96700007
0.46540743 -0.066971198 0.96700007
0.46758595 -0.067040451 0.96800005
0.47073755 -0.067248225 0.97100008
0.47195351 -0.067178965 0.97000003
0.47365424 -0.067178965 0.97000003
0.43258503 -0.066220768 0.98100007
0.43430504 -0.066220768 0.98100007
0.43646953 -0.06628827 0.98200005
0.43819132 -0.06628827 0.98200005
0.43991309 -0.06628827 0.98200005
0.44028565 -0.066085763 0.97900003
0.44200218 -0.066085763 0.97900003
0.44235897 -0.065883256 0.97600007
0.44270527 -0.065680742 0.97300005
0.44304103 -0.065478235 0.97000003
0.44428328 -0.065410733 0.96900004
0.44598225 -0.065410733 0.96900004
0.44768122 -0.065410733 0.96900004
0.44938022 -0.065410733 0.96900004
0.44968265 -0.065208219 0.96600002
0.45137638 -0.065208219 0.96600002
0.45260108 -0.065140717 0.96500003
0.45429304 -0.065140717 0.96500003
0.45645753 -0.065208219 0.96600002
0.45957407 -0.065410733 0.96900004
0.46127307 -0.065410733 0.96900004
0.46297204 -0.065410733 0.96900004
0.46323243 -0.065208219 0.96600002
0.46540743 -0.065275721 0.96700007
0.46758595 -0.065343224 0.96800005
0.47073755 -0.065545738 0.97100008
0.47195351 -0.065478235 0.97000003
0.47365424 -0.065478235 0.97000003
0.43258503 -0.064500749 0.98100007
0.43430504 -0.064500749 0.98100007
0.43646953 -0.0645665 0.98200005
0.43819132 -0.0645665 0.98200005
0.43991309 -0.0645665 0.98200005
0.44028565 -0.064369246 0.97900003
0.44200218 -0.064369246 0.97900003
0.44235897 -0.064172 0.97600007
0.44270527 -0.063974753 0.97300005
0.44304103 -0.063777499 0.97000003
0.44474176 -0.063777499 0.97000003
0.44598225 -0.063711748 0.96900004
0.44814324 -0.063777499 0.97000003
0.44984397 -0.063777499 0.97000003
0.45107919 -0.063711748 0.96900004
0.45137638 -0.063514501 0.96600002
0.45260108 -0.063448749 0.96500003
0.45476383 -0.063514501 0.96600002
0.45645753 -0.063514501 0.96600002
0.45957407 -0.063711748 0.96900004
0.46127307 -0.063711748 0.96900004
0.46297204 -0.063711748 0.96900004
0.4641915 -0.063645996 0.96800005
0.46540743 -0.063580252 0.96700007
0.46758595 -0.063645996 0.96800005
0.47073755 -0.06384325 0.97100008
0.47195351 -0.063777499 0.97000003
0.47365424 -0.063777499 0.97000003
0.43258503 -0.06278073 0.98100007
0.43430504 -0.06278073 0.98100007
0.43646953 -0.062844723 0.98200005
0.43774509 -0.06278073 0.98100007
0.43812117 -0.062588736 0.97800004
0.44028565 -0.062652737 0.97900003
0.44245365 -0.06271673 0.98000002
0.44235897 -0.062460747 0.97600007
0.44316027 -0.062332753 0.97400004
0.44304103 -0.062076766 0.97000003
0.44474176 -0.062076766 0.97000003
0.44644248 -0.062076766 0.97000003
0.44814324 -0.062076766 0.97000003
0.44984397 -0.062076766 0.97000003
0.45107919 -0.062012769 0.96900004
0.45137638 -0.061820779 0.96600002
0.4530701 -0.061820779 0.96600002
0.45476383 -0.061820779 0.96600002
0.45645753 -0.061820779 0.96600002
0.45957407 -0.062012769 0.96900004
0.46127307 -0.062012769 0.96900004
0.46297204 -0.062012769 0.96900004
0.46467102 -0.062012769 0.96900004
0.46540743 -0.061884776 0.96700007
0.46758595 -0.061948773 0.96800005
0.47073755 -0.062140763 0.97100008
0.47244003 -0.062140763 0.97100008
0.47414252 -0.062140763 0.97100008
0.43258503 -0.061060708 0.98100007
0.43474776 -0.061122954 0.98200005
0.436914 -0.061185196 0.98300004
0.43819132 -0.061122954 0.98200005
0.43812117 -0.060873978 0.97800004
0.44028565 -0.060936224 0.97900003
0.44064772 -0.060749494 0.97600007
0.44235897 -0.060749494 0.97600007
0.44316027 -0.060625006 0.97400004
0.44304103 -0.060376033 0.97000003
0.44565874 -0.060500521 0.97200006
0.44736299 -0.060500521 0.97200006
0.44814324 -0.060376033 0.97000003
0.44984397 -0.060376033 0.97000003
0.45107919 -0.060313791 0.96900004
0.45277816 -0.060313791 0.96900004
0.4530701 -0.060127061 0.96600002
0.45476383 -0.060127061 0.96600002
0.4578751 -0.060313791 0.96900004
0.45957407 -0.060313791 0.96900004
0.46127307 -0.060313791 0.96900004
0.46297204 -0.060313791 0.96900004
0.46467102 -0.060313791 0.96900004
0.46637002 -0.060313791 0.96900004
0.46710292 -0.060189303 0.96700007
0.47025275 -0.060376033 0.97000003
0.47244003 -0.060438275 0.97100008
0.43302599 -0.059401181 0.98200005
0.43474776 -0.059401181 0.98200005
0.43646953 -0.059401181 0.98200005
0.43819132 -0.059401181 0.98200005
0.43856916 -0.059219711 0.97900003
0.44028565 -0.059219711 0.97900003
0.44064772 -0.05903824 0.97600007
0.4414525 -0.058917258 0.97400004
0.44316027 -0.058917258 0.97400004
0.44304103 -0.0586753 0.97000003
0.44611725 -0.05885677 0.97300005
0.44782326 -0.05885677 0.97300005
0.44906723 -0.058796279 0.97200006
0.45030773 -0.058735788 0.97100008
0.4515447 -0.0586753 0.97000003
0.45324543 -0.0586753 0.97000003
0.45494616 -0.0586753 0.97000003
0.45617613 -0.058614809 0.96900004
0.4578751 -0.058614809 0.96900004
0.45957407 -0.058614809 0.96900004
0.46174911 -0.0586753 0.97000003
0.46344984 -0.0586753 0.97000003
0.46467102 -0.058614809 0.96900004
0.46781388 -0.058796279 0.97200006
0.46855202 -0.0586753 0.97000003
0.47025275 -0.0586753 0.97000003
0.47244003 -0.058735788 0.97100008
0.43434888 -0.057855617 0.98500007
0.43474776 -0.057679407 0.98200005
0.43646953 -0.057679407 0.98200005
0.43819132 -0.057679407 0.98200005
0.43856916 -0.057503197 0.97900003
0.43893647 -0.057326987 0.97600007
0.44064772 -0.057326987 0.97600007
0.44190574 -0.057268251 0.97500002
0.44316027 -0.057209514 0.97400004
0.44349778 -0.057033304 0.97100008
0.44611725 -0.057150777 0.97300005
0.44782326 -0.057150777 0.97300005
0.44952923 -0.057150777 0.97300005
0.45077148 -0.057092041 0.97200006
0.4515447 -0.056974567 0.97000003
0.45324543 -0.056974567 0.97000003
0.45494616 -0.056974567 0.97000003
0.45617613 -0.056915831 0.96900004
0.4578751 -0.056915831 0.96900004
0.45957407 -0.056915831 0.96900004
0.46317717 -0.057150777 0.97300005
0.46488318 -0.057150777 0.97300005
0.46610963 -0.057092041 0.97200006
0.46781388 -0.057092041 0.97200006
0.46855202 -0.056974567 0.97000003
0.47025275 -0.056974567 0.97000003
0.43434888 -0.056128584 0.98500007
0.43607593 -0.056128584 0.98500007
0.43646953 -0.055957634 0.98200005
0.43819132 -0.055957634 0.98200005
0.43856916 -0.055786684 0.97900003
0.43893647 -0.055615734 0.97600007
0.44109923 -0.055672716 0.97700006
0.44190574 -0.055558749 0.97500002
0.44361526 -0.055558749 0.97500002
0.44349778 -0.055330817 0.97100008
0.44611725 -0.055444784 0.97300005
0.44782326 -0.055444784 0.97300005
0.44952923 -0.055444784 0.97300005
0.45030773 -0.055330817 0.97100008
0.4515447 -0.055273835 0.97000003
0.45324543 -0.055273835 0.97000003
0.45494616 -0.055273835 0.97000003
0.45617613 -0.055216849 0.96900004
0.4578751 -0.055216849 0.96900004
0.45957407 -0.055216849 0.96900004
0.46317717 -0.055444784 0.97300005
0.46488318 -0.055444784 0.97300005
0.46610963 -0.055387799 0.97200006
0.46781388 -0.055387799 0.97200006
0.46806899 -0.055216849 0.96900004
0.47122237 -0.055387799 0.97200006
0.4313463 -0.054677699 0.99000007
0.4330821 -0.054677699 0.99000007
0.43262184 -0.05440155 0.98500007
0.43567178 -0.05456724 0.98800004
0.43607593 -0.05440155 0.98500007
0.43646953 -0.054235861 0.98200005
0.43819132 -0.054235861 0.98200005
0.43856916 -0.054070171 0.97900003
0.43893647 -0.053904481 0.97600007
0.44019625 -0.05384925 0.97500002
0.44190574 -0.05384925 0.97500002
0.44361526 -0.05384925 0.97500002
0.44395453 -0.05368356 0.97200006
0.44703424 -0.05384925 0.97500002
0.44874376 -0.05384925 0.97500002
0.45045325 -0.05384925 0.97500002
0.45077148 -0.05368356 0.97200006
0.45247573 -0.05368356 0.97200006
0.45417994 -0.05368356 0.97200006
0.45588419 -0.05368356 0.97200006
0.45664689 -0.053573098 0.97000003
0.45834762 -0.053573098 0.97000003
0.4614712 -0.053738791 0.97300005
0.46317717 -0.053738791 0.97300005
0.46488318 -0.053738791 0.97300005
0.46658918 -0.053738791 0.97300005
0.46829516 -0.053738791 0.97300005
0.46951813 -0.05368356 0.97200006
0.4313463 -0.0529419 0.99000007
0.43176973 -0.05278147 0.98700005
0.43262184 -0.052674517 0.98500007
0.43523082 -0.05278147 0.98700005
0.43607593 -0.052674517 0.98500007
0.43646953 -0.052514087 0.98200005
0.43819132 -0.052514087 0.98200005
0.43856916 -0.052353658 0.97900003
0.43893647 -0.052193228 0.97600007
0.44019625 -0.052139748 0.97500002
0.44190574 -0.052139748 0.97500002
0.44361526 -0.052139748 0.97500002
0.44395453 -0.051979318 0.97200006
0.44703424 -0.052139748 0.97500002
0.44874376 -0.052139748 0.97500002
0.45045325 -0.052139748 0.97500002
0.45077148 -0.051979318 0.97200006
0.45247573 -0.051979318 0.97200006
0.45417994 -0.051979318 0.97200006
0.45541519 -0.051925842 0.97100008
0.45664689 -0.051872365 0.97000003
0.4578751 -0.051818889 0.96900004
0.4614712 -0.052032795 0.97300005
0.46412924 -0.052139748 0.97500002
0.46583876 -0.052139748 0.97500002
0.46658918 -0.052032795 0.97300005
0.46829516 -0.052032795 0.97300005
0.46951813 -0.051979318 0.97200006
0.43047839 -0.051309545 0.99200004
0.43178201 -0.051257823 0.99100006
0.43176973 -0.051050931 0.98700005
0.43262184 -0.050947484 0.98500007
0.43523082 -0.051050931 0.98700005
0.43607593 -0.050947484 0.98500007
0.43646953 -0.050792314 0.98200005
0.43819132 -0.050792314 0.98200005
0.43856916 -0.050637145 0.97900003
0.43893647 -0.050481971 0.97600007
0.44064772 -0.050481971 0.97600007
0.44099927 -0.050326802 0.97300005
0.44270527 -0.050326802 0.97300005
0.44441125 -0.050326802 0.97300005
0.44474176 -0.050171632 0.97000003
0.44644248 -0.050171632 0.97000003
0.44860524 -0.050223358 0.97100008
0.45030773 -0.050223358 0.97100008
0.45387223 -0.050430249 0.97500002
0.45558175 -0.050430249 0.97500002
0.45682222 -0.050378527 0.97400004
0.45805922 -0.050326802 0.97300005
0.45929268 -0.05027508 0.97200006
0.4614712 -0.050326802 0.97300005
0.46412924 -0.050430249 0.97500002
0.46583876 -0.050430249 0.97500002
0.46658918 -0.050326802 0.97300005
0.46829516 -0.050326802 0.97300005
0.47096723 -0.050430249 0.97500002
0.43047839 -0.04957024 0.99200004
0.43178201 -0.049520269 0.99100006
0.43176973 -0.049320389 0.98700005
0.43306106 -0.049270421 0.98600006
0.43523082 -0.049320389 0.98700005
0.43607593 -0.04922045 0.98500007
0.436914 -0.049120508 0.98300004
0.43863752 -0.049120508 0.98300004
0.43856916 -0.048920631 0.97900003
0.44028565 -0.048920631 0.97900003
0.44109923 -0.048820689 0.97700006
0.4414525 -0.04867078 0.97400004
0.44361526 -0.048720751 0.97500002
0.44532475 -0.048720751 0.97500002
0.44474176 -0.048470899 0.97000003
0.44644248 -0.048470899 0.97000003
0.44814324 -0.048470899 0.97000003
0.45123523 -0.048620809 0.97300005
0.45340675 -0.04867078 0.97400004
0.45604903 -0.048770718 0.97600007
0.45729125 -0.048720751 0.97500002
0.45758843 -0.048570842 0.97200006
0.45929268 -0.048570842 0.97200006
0.46099693 -0.048570842 0.97200006
0.46365321 -0.04867078 0.97400004
0.46536097 -0.04867078 0.97400004
0.46610963 -0.048570842 0.97200006
0.46781388 -0.048570842 0.97200006
0.4704842 -0.04867078 0.97400004
0.43091235 -0.047879148 0.99300003
0.43221772 -0.047830932 0.99200004
0.4322072 -0.047638066 0.98800004
0.43350026 -0.04758985 0.98700005
0.43523082 -0.04758985 0.98700005
0.43607593 -0.047493417 0.98500007
0.43646953 -0.047348768 0.98200005
0.43819132 -0.047348768 0.98200005
0.43856916 -0.047204118 0.97900003
0.44028565 -0.047204118 0.97900003
0.44109923 -0.047107682 0.97700006
0.4414525 -0.046963032 0.97400004
0.44361526 -0.047011249 0.97500002
0.44532475 -0.047011249 0.97500002
0.44611725 -0.046914816 0.97300005
0.44644248 -0.046770167 0.97000003
0.44814324 -0.046770167 0.97000003
0.45123523 -0.046914816 0.97300005
0.45340675 -0.046963032 0.97400004
0.45511448 -0.046963032 0.97400004
0.45635322 -0.046914816 0.97300005
0.45758843 -0.046866599 0.97200006
0.45929268 -0.046866599 0.97200006
0.46194547 -0.046963032 0.97400004
0.46365321 -0.046963032 0.97400004
0.46536097 -0.046963032 0.97400004
0.46610963 -0.046866599 0.97200006
0.46781388 -0.046866599 0.97200006
0.4313463 -0.046184555 0.99400002
0.43308911 -0.046184555 0.99400002
0.4322072 -0.045905773 0.98800004
0.43306106 -0.045812845 0.98600006
0.43523082 -0.045859311 0.98700005
0.43563318 -0.045719918 0.98400003
0.43646953 -0.045626994 0.98200005
0.43819132 -0.045626994 0.98200005
0.43856916 -0.045487601 0.97900003
0.44028565 -0.045487601 0.97900003
0.44019625 -0.04530175 0.97500002
0.4414525 -0.045255285 0.97400004
0.44361526 -0.04530175 0.97500002
0.44532475 -0.04530175 0.97500002
0.44611725 -0.045208823 0.97300005
0.44782326 -0.045208823 0.97300005
0.44952923 -0.045208823 0.97300005
0.45123523 -0.045208823 0.97300005
0.45294124 -0.045208823 0.97300005
0.45464721 -0.045208823 0.97300005
0.45635322 -0.045208823 0.97300005
0.45758843 -0.045162361 0.97200006
0.45929268 -0.045162361 0.97200006
0.46241975 -0.04530175 0.97500002
0.46365321 -0.045255285 0.97400004
0.46536097 -0.045255285 0.97400004
0.46610963 -0.045162361 0.97200006
0.46781388 -0.045162361 0.97200006
0.42961049 -0.044262901 0.99000007
0.4313463 -0.044262901 0.99000007
0.43089482 -0.04403935 0.98500007
0.43262184 -0.04403935 0.98500007
0.43346694 -0.043949928 0.98300004
0.43563318 -0.043994639 0.98400003
0.43646953 -0.043905221 0.98200005
0.43819132 -0.043905221 0.98200005
0.43856916 -0.043771088 0.97900003
0.44028565 -0.043771088 0.97900003
0.44019625 -0.043592248 0.97500002
0.4414525 -0.043547541 0.97400004
0.44316027 -0.043547541 0.97400004
0.444868 -0.043547541 0.97400004
0.44611725 -0.04350283 0.97300005
0.44782326 -0.04350283 0.97300005
0.44952923 -0.04350283 0.97300005
0.45123523 -0.04350283 0.97300005
0.45294124 -0.04350283 0.97300005
0.45464721 -0.04350283 0.97300005
0.45635322 -0.04350283 0.97300005
0.45805922 -0.04350283 0.97300005
0.4597652 -0.04350283 0.97300005
0.46289402 -0.043636959 0.97600007
0.46412924 -0.043592248 0.97500002
0.46536097 -0.043547541 0.97400004
0.46610963 -0.043458119 0.97200006
0.46829516 -0.04350283 0.97300005
0.43004444 -0.042570055 0.99100006
0.43178201 -0.042570055 0.99100006
0.43133226 -0.042355273 0.98600006
0.43306106 -0.042355273 0.98600006
0.43346694 -0.042226404 0.98300004
0.43563318 -0.04226936 0.98400003
0.43646953 -0.042183448 0.98200005
0.43819132 -0.042183448 0.98200005
0.43856916 -0.042054575 0.97900003
0.44028565 -0.042054575 0.97900003
0.44064772 -0.041925706 0.97600007
0.4414525 -0.041839793 0.97400004
0.44316027 -0.041839793 0.97400004
0.444868 -0.041839793 0.97400004
0.44611725 -0.041796837 0.97300005
0.44782326 -0.041796837 0.97300005
0.44952923 -0.041796837 0.97300005
0.45123523 -0.041796837 0.97300005
0.45433775 -0.041925706 0.97600007
0.45604903 -0.041925706 0.97600007
0.45776027 -0.041925706 0.97600007
0.45900074 -0.04188275 0.97500002
0.46118277 -0.041925706 0.97600007
0.46289402 -0.041925706 0.97600007
0.46460527 -0.041925706 0.97600007
0.46488318 -0.041796837 0.97300005
0.46658918 -0.041796837 0.97300005
0.4287391 -0.040873706 0.99200004
0.42917654 -0.040750097 0.98900002
0.43091059 -0.040750097 0.98900002
0.43133226 -0.040626485 0.98600006
0.43306106 -0.040626485 0.98600006
0.43346694 -0.040502876 0.98300004
0.43563318 -0.040544081 0.98400003
0.43646953 -0.040461674 0.98200005
0.43819132 -0.040461674 0.98200005
0.43856916 -0.040338062 0.97900003
0.44028565 -0.040338062 0.97900003
0.44019625 -0.040173251 0.97500002
0.4414525 -0.040132046 0.97400004
0.44316027 -0.040132046 0.97400004
0.44441125 -0.040090844 0.97300005
0.44611725 -0.040090844 0.97300005
0.44782326 -0.040090844 0.97300005
0.44952923 -0.040090844 0.97300005
0.45123523 -0.040090844 0.97300005
0.45433775 -0.040214453 0.97600007
0.45604903 -0.040214453 0.97600007
0.45776027 -0.040214453 0.97600007
0.45947152 -0.040214453 0.97600007
0.46118277 -0.040214453 0.97600007
0.46289402 -0.040214453 0.97600007
0.46460527 -0.040214453 0.97600007
0.46583876 -0.040173251 0.97500002
0.42568916 -0.039173849 0.99300003
0.42743021 -0.039173849 0.99300003
0.42960349 -0.0392133 0.99400002
0.42961049 -0.0390555 0.99000007
0.42960349 -0.038897701 0.98600006
0.43133226 -0.038897701 0.98600006
0.43174341 -0.038779348 0.98300004
0.43390793 -0.038818799 0.98400003
0.43563318 -0.038818799 0.98400003
0.43646953 -0.038739901 0.98200005
0.43774509 -0.03870045 0.98100007
0.43856916 -0.038621549 0.97900003
0.43893647 -0.0385032 0.97600007
0.43974477 -0.038424298 0.97400004
0.4414525 -0.038424298 0.97400004
0.44361526 -0.038463749 0.97500002
0.444868 -0.038424298 0.97400004
0.44703424 -0.038463749 0.97500002
0.44874376 -0.038463749 0.97500002
0.44999126 -0.038424298 0.97400004
0.4526265 -0.0385032 0.97600007
0.45433775 -0.0385032 0.97600007
0.45604903 -0.0385032 0.97600007
0.4586983 -0.038582101 0.97800004
0.46041307 -0.038582101 0.97800004
0.46118277 -0.0385032 0.97600007
0.46289402 -0.0385032 0.97600007
0.46460527 -0.0385032 0.97600007
0.42483178 -0.037357397 0.99100006
0.42570844 -0.037282005 0.98900002
0.4270103 -0.037244305 0.98800004
0.42874259 -0.037244305 0.98800004
0.43047488 -0.037244305 0.98800004
0.43176973 -0.037206609 0.98700005
0.43174341 -0.037055824 0.98300004
0.43390793 -0.03709352 0.98400003
0.43563318 -0.03709352 0.98400003
0.43646953 -0.037018128 0.98200005
0.43774509 -0.036980432 0.98100007
0.43722522 -0.036791947 0.97600007
0.43893647 -0.036791947 0.97600007
0.43884179 -0.036641158 0.97200006
0.4414525 -0.036716554 0.97400004
0.44361526 -0.036754251 0.97500002
0.444868 -0.036716554 0.97400004
0.44795123 -0.036829643 0.97700006
0.44966424 -0.036829643 0.97700006
0.45091525 -0.036791947 0.97600007
0.4526265 -0.036791947 0.97600007
0.45433775 -0.036791947 0.97600007
0.45604903 -0.036791947 0.97600007
0.4586983 -0.036867339 0.97800004
0.46041307 -0.036867339 0.97800004
0.46118277 -0.036791947 0.97600007
0.46289402 -0.036791947 0.97600007
0.46460527 -0.036791947 0.97600007
0.42437506 -0.035727672 0.99400002
0.42483178 -0.035619844 0.99100006
0.42570844 -0.035547957 0.98900002
0.4270103 -0.035512011 0.98800004
0.42874259 -0.035512011 0.98800004
0.43047488 -0.035512011 0.98800004
0.43176973 -0.03547607 0.98700005
0.43174341 -0.035332296 0.98300004
0.43390793 -0.035368241 0.98400003
0.43519047 -0.035332296 0.98300004
0.43602505 -0.035260409 0.98100007
0.43729886 -0.035224468 0.98000002
0.43632928 -0.035008807 0.97400004
0.43848675 -0.035044748 0.97500002
0.43884179 -0.03493692 0.97200006
0.44099927 -0.034972861 0.97300005
0.44270527 -0.034972861 0.97300005
0.44441125 -0.034972861 0.97300005
0.44749275 -0.035080694 0.97600007
0.449204 -0.035080694 0.97600007
0.45091525 -0.035080694 0.97600007
0.4526265 -0.035080694 0.97600007
0.45573428 -0.035188522 0.97900003
0.45745081 -0.035188522 0.97900003
0.4591673 -0.035188522 0.97900003
0.46229613 -0.035296354 0.98200005
0.4640179 -0.035296354 0.98200005
0.4657397 -0.035296354 0.98200005
0.42437506 -0.033984859 0.99400002
0.42611787 -0.033984859 0.99400002
0.42656934 -0.03388229 0.99100006
0.42787468 -0.033848099 0.99000007
0.42874259 -0.033779718 0.98800004
0.42960349 -0.03371134 0.98600006
0.43133226 -0.03371134 0.98600006
0.43174341 -0.033608768 0.98300004
0.43346694 -0.033608768 0.98300004
0.43519047 -0.033608768 0.98300004
0.43558061 -0.0335062 0.98000002
0.43729886 -0.0335062 0.98000002
0.43767321 -0.033403631 0.97700006
0.43938622 -0.033403631 0.97700006
0.43974477 -0.033301059 0.97400004
0.44099927 -0.033266868 0.97300005
0.44270527 -0.033266868 0.97300005
0.4457815 -0.033369441 0.97600007
0.44749275 -0.033369441 0.97600007
0.44874376 -0.03333525 0.97500002
0.45091525 -0.033369441 0.97600007
0.45401779 -0.033472009 0.97900003
0.45573428 -0.033472009 0.97900003
0.45745081 -0.033472009 0.97900003
0.4591673 -0.033472009 0.97900003
0.46229613 -0.033574581 0.98200005
0.4640179 -0.033574581 0.98200005
0.4657397 -0.033574581 0.98200005
0.42611787 -0.032242045 0.99400002
0.42613891 -0.0321123 0.99000007
0.42744249 -0.032079864 0.98900002
0.42917654 -0.032079864 0.98900002
0.43091059 -0.032079864 0.98900002
0.43133226 -0.031982552 0.98600006
0.43306106 -0.031982552 0.98600006
0.43390793 -0.03191768 0.98400003
0.43563318 -0.03191768 0.98400003
0.43602505 -0.031820368 0.98100007
0.43729886 -0.031787932 0.98000002
0.43767321 -0.031690624 0.97700006
0.43938622 -0.031690624 0.97700006
0.43974477 -0.031593312 0.97400004
0.44190574 -0.031625751 0.97500002
0.44361526 -0.031625751 0.97500002
0.444868 -0.031593312 0.97400004
0.44703424 -0.031625751 0.97500002
0.449204 -0.031658188 0.97600007
0.45230126 -0.031755496 0.97900003
0.45401779 -0.031755496 0.97900003
0.45573428 -0.031755496 0.97900003
0.45745081 -0.031755496 0.97900003
0.4591673 -0.031755496 0.97900003
0.46229613 -0.031852808 0.98200005
0.4640179 -0.031852808 0.98200005
0.4657397 -0.031852808 0.98200005
0.42821747 -0.030775383 1.003
0.42740393 -0.030591283 0.99700004
0.42743021 -0.03046855 0.99300003
0.4287391 -0.030437866 0.99200004
0.42917654 -0.030345816 0.98900002
0.43091059 -0.030345816 0.98900002
0.43133226 -0.030253766 0.98600006
0.43174341 -0.030161716 0.98300004
0.43390793 -0.030192399 0.98400003
0.43563318 -0.030192399 0.98400003
0.43646953 -0.030131033 0.98200005
0.43774509 -0.030100349 0.98100007
0.43812117 -0.030008299 0.97800004
0.43983594 -0.030008299 0.97800004
0.44019625 -0.029916249 0.97500002
0.44235897 -0.029946933 0.97600007
0.44407025 -0.029946933 0.97600007
0.444868 -0.029885566 0.97400004
0.44657576 -0.029885566 0.97400004
0.449204 -0.029946933 0.97600007
0.45230126 -0.030038983 0.97900003
0.45401779 -0.030038983 0.97900003
0.45573428 -0.030038983 0.97900003
0.45745081 -0.030038983 0.97900003
0.4591673 -0.030038983 0.97900003
0.46229613 -0.030131033 0.98200005
0.4640179 -0.030131033 0.98200005
0.4657397 -0.030131033 0.98200005
0.42779052 -0.02898786 1.0020001
0.42697525 -0.02881428 0.99600005
0.42872155 -0.02881428 0.99600005
0.42830691 -0.028669629 0.99100006
0.43004444 -0.028669629 0.99100006
0.43047488 -0.028582839 0.98800004
0.43133226 -0.02852498 0.98600006
0.43174341 -0.02843819 0.98300004
0.43390793 -0.028467121 0.98400003
0.43386233 -0.0283514 0.98000002
0.43646953 -0.028409259 0.98200005
0.43819132 -0.028409259 0.98200005
0.43812117 -0.028293541 0.97800004
0.43983594 -0.028293541 0.97800004
0.44019625 -0.028206749 0.97500002
0.44235897 -0.028235679 0.97600007
0.44407025 -0.028235679 0.97600007
0.44532475 -0.028206749 0.97500002
0.44703424 -0.028206749 0.97500002
0.449204 -0.028235679 0.97600007
0.45230126 -0.028322469 0.97900003
0.45401779 -0.028322469 0.97900003
0.45573428 -0.028322469 0.97900003
0.45745081 -0.028322469 0.97900003
0.4591673 -0.028322469 0.97900003
0.46229613 -0.028409259 0.98200005
0.4640179 -0.028409259 0.98200005
0.42730924 -0.027312551 1.005
0.42779052 -0.027231019 1.0020001
0.42826131 -0.027149489 0.99900007
0.42872155 -0.027067959 0.99600005
0.42830691 -0.026932076 0.99100006
0.43004444 -0.026932076 0.99100006
0.43047488 -0.026850546 0.98800004
0.43133226 -0.026796194 0.98600006
0.43174341 -0.026714664 0.98300004
0.43434888 -0.026769016 0.98500007
0.43386233 -0.026633132 0.98000002
0.43646953 -0.026687486 0.98200005
0.43774509 -0.02666031 0.98100007
0.43812117 -0.02657878 0.97800004
0.43893647 -0.026524426 0.97600007
0.44064772 -0.026524426 0.97600007
0.44235897 -0.026524426 0.97600007
0.44407025 -0.026524426 0.97600007
0.44532475 -0.02649725 0.97500002
0.44703424 -0.02649725 0.97500002
0.449204 -0.026524426 0.97600007
0.45230126 -0.026605956 0.97900003
0.45401779 -0.026605956 0.97900003
0.45573428 -0.026605956 0.97900003
0.45885259 -0.026687486 0.98200005
0.46057436 -0.026687486 0.98200005
0.46229613 -0.026687486 0.98200005
0.4640179 -0.026687486 0.98200005
0.42603371 -0.02547418 1.0020001
0.42650974 -0.02539791 0.99900007
0.42826131 -0.02539791 0.99900007
0.42872155 -0.02532164 0.99600005
0.42960349 -0.025270794 0.99400002
0.43004444 -0.025194524 0.99100006
0.43047488 -0.025118252 0.98800004
0.43133226 -0.025067406 0.98600006
0.43174341 -0.024991136 0.98300004
0.43434888 -0.025041983 0.98500007
0.43386233 -0.024914866 0.98000002
0.43646953 -0.024965713 0.98200005
0.43685263 -0.024889443 0.97900003
0.43722522 -0.024813173 0.97600007
0.43893647 -0.024813173 0.97600007
0.44064772 -0.024813173 0.97600007
0.44235897 -0.024813173 0.97600007
0.44270527 -0.024736904 0.97300005
0.44441125 -0.024736904 0.97300005
0.44611725 -0.024736904 0.97300005
0.44874376 -0.02478775 0.97500002
0.45045325 -0.02478775 0.97500002
0.45216274 -0.02478775 0.97500002
0.45340675 -0.024762327 0.97400004
0.45698354 -0.02486402 0.97800004
0.45776027 -0.024813173 0.97600007
0.45947152 -0.024813173 0.97600007
0.46260035 -0.024889443 0.97900003
0.42475814 -0.02364633 0.99900007
0.42650974 -0.02364633 0.99900007
0.42826131 -0.02364633 0.99900007
0.42872155 -0.023575319 0.99600005
0.42830691 -0.02345697 0.99100006
0.42874259 -0.023385961 0.98800004
0.42960349 -0.02333862 0.98600006
0.43133226 -0.02333862 0.98600006
0.43174341 -0.02326761 0.98300004
0.43434888 -0.023314949 0.98500007
0.43430504 -0.023220269 0.98100007
0.43646953 -0.02324394 0.98200005
0.43685263 -0.02317293 0.97900003
0.43722522 -0.02310192 0.97600007
0.43803701 -0.023054579 0.97400004
0.43974477 -0.023054579 0.97400004
0.4414525 -0.023054579 0.97400004
0.44270527 -0.023030911 0.97300005
0.44441125 -0.023030911 0.97300005
0.44611725 -0.023030911 0.97300005
0.44736299 -0.02300724 0.97200006
0.44721922 -0.02291256 0.96800005
0.44891647 -0.02291256 0.96800005
0.45061368 -0.02291256 0.96800005
0.45277816 -0.022936231 0.96900004
0.45166305 -0.022794209 0.96300006
0.45099765 -0.022675861 0.95800006
0.45314988 -0.022699529 0.95900005
0.42603371 -0.021960501 1.0020001
0.42779052 -0.021960501 1.0020001
0.42826131 -0.021894749 0.99900007
0.42872155 -0.021829 0.99600005
0.42830691 -0.021719417 0.99100006
0.42787468 -0.021609833 0.98600006
0.42960349 -0.021609833 0.98600006
0.43001992 -0.021544084 0.98300004
0.43174341 -0.021544084 0.98300004
0.43434888 -0.021587916 0.98500007
0.43430504 -0.02150025 0.98100007
0.436914 -0.021544084 0.98300004
0.43729886 -0.021478333 0.98000002
0.43767321 -0.021412583 0.97700006
0.43848675 -0.021368749 0.97500002
0.44019625 -0.021368749 0.97500002
0.44190574 -0.021368749 0.97500002
0.44225028 -0.021303 0.97200006
0.44304103 -0.021259166 0.97000003
0.44474176 -0.021259166 0.97000003
0.44644248 -0.021259166 0.97000003
0.44768122 -0.02123725 0.96900004
0.44891647 -0.021215333 0.96800005
0.44921714 -0.021149583 0.96500003
0.45090911 -0.021149583 0.96500003
0.45072502 -0.021061916 0.96100003
0.4486438 -0.020886583 0.95300007
0.4493697 -0.02084275 0.95100003
0.45103711 -0.02084275 0.95100003
0.45270452 -0.02084275 0.95100003
0.45293859 -0.020777 0.94800007
0.45460075 -0.020777 0.94800007
0.42427686 -0.020203659 1.0020001
