# .PCD v0.7 - Point Cloud Data file format
VERSION 0.7
FIELDS x y z
SIZE 4 4 4
TYPE F F F
COUNT 1 1 1
WIDTH 617
HEIGHT 1
VIEWPOINT 0 0 0 1 0 0 0
POINTS 617
DATA ascii
0.46130639 -0.16158281 0.95500004
0.46298081 -0.16158281 0.95500004
0.45508468 -0.16007583 0.95600003
0.45676085 -0.16007583 0.95600003
0.45843706 -0.16007583 0.95600003
0.46011323 -0.16007583 0.95600003
0.46130639 -0.15990838 0.95500004
0.46298081 -0.15990838 0.95500004
0.45556071 -0.15856533 0.95700002
0.45676085 -0.15839964 0.95600003
0.45795751 -0.15823396 0.95500004
0.46107581 -0.15873101 0.95800006
0.46034029 -0.15790257 0.95300007
0.46007204 -0.15723981 0.94900006
0.45651278 -0.15721527 0.95900005
0.45676085 -0.15672345 0.95600003
0.45843706 -0.15672345 0.95600003
0.46107581 -0.15705132 0.95800006
0.46034029 -0.15623164 0.95300007
0.45723864 -0.15520945 0.95700002
0.45843706 -0.15504727 0.95600003
0.46107581 -0.15537164 0.95800006
0.46034029 -0.15456071 0.95300007
0.45603675 -0.15369193 0.95800006
0.45628309 -0.15321065 0.95500004
0.45795751 -0.15321065 0.95500004
0.45963195 -0.15321065 0.95500004
0.46034029 -0.15288979 0.95300007
0.46201122 -0.15288979 0.95300007
0.45603675 -0.15201224 0.95800006
0.45628309 -0.15153621 0.95500004
0.45795751 -0.15153621 0.95500004
0.45818809 -0.15106018 0.95200002
0.45985726 -0.15106018 0.95200002
0.4536224 -0.1506464 0.96000004
0.45530561 -0.1506464 0.96000004
0.45603675 -0.15033256 0.95800006
0.45628309 -0.14986178 0.95500004
0.45795751 -0.14986178 0.95500004
0.45818809 -0.14939101 0.95200002
0.4536224 -0.1489632 0.96000004
0.45530561 -0.1489632 0.96000004
0.45603675 -0.14865287 0.95800006
0.45628309 -0.14818735 0.95500004
0.45795751 -0.14818735 0.95500004
0.45818809 -0.14772184 0.95200002
0.45530561 -0.14727999 0.96000004
0.45698881 -0.14727999 0.96000004
0.45676085 -0.14666633 0.95600003
0.45939612 -0.14697316 0.95800006
0.45866936 -0.14620608 0.95300007
0.45577988 -0.14574847 0.96100003
0.45603675 -0.14529347 0.95800006
0.45676085 -0.14499015 0.95600003
0.45795751 -0.14483848 0.95500004
0.45866936 -0.14453515 0.95300007
0.45651278 -0.14376369 0.95900005
0.45771644 -0.14361379 0.95800006
0.45795751 -0.14316405 0.95500004
0.45503998 -0.14267486 0.96300006
0.45672843 -0.14267486 0.96300006
0.45746481 -0.14237855 0.96100003
0.45771644 -0.14193408 0.95800006
0.45795751 -0.14148961 0.95500004
0.45503998 -0.14098641 0.96300006
0.45672843 -0.14098641 0.96300006
0.45746481 -0.1406936 0.96100003
0.45771644 -0.14025439 0.95800006
0.45795751 -0.13981518 0.95500004
0.45409492 -0.13900866 0.96100003
0.45577988 -0.13900866 0.96100003
0.45746481 -0.13900866 0.96100003
0.45771644 -0.1385747 0.95800006
0.45382228 -0.13775238 0.96400005
0.45456743 -0.13746659 0.96200007
0.45577988 -0.13732369 0.96100003
0.45746481 -0.13732369 0.96100003
0.45771644 -0.136895 0.95800006
0.45382228 -0.13606218 0.96400005
0.45456743 -0.13577989 0.96200007
0.45577988 -0.13563874 0.96100003
0.45603675 -0.13521531 0.95800006
0.45676085 -0.13493302 0.95600003
0.45382228 -0.13437197 0.96400005
0.45409492 -0.13395379 0.96100003
0.45625415 -0.13409318 0.96200007
0.45651278 -0.13367501 0.95900005
0.45382228 -0.13268174 0.96400005
0.45409492 -0.13226883 0.96100003
0.45625415 -0.13240647 0.96200007
0.45651278 -0.13199356 0.95900005
0.45288074 -0.13071977 0.96200007
0.4536224 -0.130448 0.96000004
0.45530561 -0.130448 0.96000004
0.45603675 -0.13017623 0.95800006
0.45382228 -0.12930132 0.96400005
0.45456743 -0.12903306 0.96200007
0.45625415 -0.12903306 0.96200007
0.45603675 -0.12849654 0.95800006
0.4530701 -0.12787586 0.96600002
0.4533515 -0.12747873 0.96300006
0.45409492 -0.12721397 0.96100003
0.45625415 -0.12734635 0.96200007
0.45651278 -0.12694922 0.95900005
0.4530701 -0.12618214 0.96600002
0.45288074 -0.12565964 0.96200007
0.45409492 -0.12552902 0.96100003
0.45577988 -0.12552902 0.96100003
0.45184365 -0.12461729 0.96700007
0.45166305 -0.12410181 0.96300006
0.45240995 -0.12384407 0.96100003
0.45409492 -0.12384407 0.96100003
0.45435706 -0.12345746 0.95800006
0.45014817 -0.12292182 0.96700007
0.4499746 -0.12241335 0.96300006
0.45166305 -0.12241335 0.96300006
0.45240995 -0.12215912 0.96100003
0.45267734 -0.12177777 0.95800006
0.45014817 -0.12122634 0.96700007
0.4499746 -0.12072489 0.96300006
0.45119402 -0.12059952 0.96200007
0.4519392 -0.1203488 0.96000004
0.45014817 -0.11953087 0.96700007
0.45137638 -0.11940726 0.96600002
0.45119402 -0.11891282 0.96200007
0.4519392 -0.1186656 0.96000004
0.45137638 -0.11771354 0.96600002
0.45166305 -0.11734797 0.96300006
0.45240995 -0.11710425 0.96100003
0.45184365 -0.11613993 0.96700007
0.45213208 -0.11577962 0.96400005
0.45240995 -0.11541931 0.96100003
0.45014817 -0.11444445 0.96700007
0.45184365 -0.11444445 0.96700007
0.45213208 -0.1140894 0.96400005
0.45288074 -0.1138527 0.96200007
0.45014817 -0.11274897 0.96700007
0.45184365 -0.11274897 0.96700007
0.45213208 -0.11239918 0.96400005
0.45288074 -0.11216599 0.96200007
0.45107919 -0.11128319 0.96900004
0.45277816 -0.11128319 0.96900004
0.45260108 -0.11082382 0.96500003
0.45382228 -0.11070897 0.96400005
0.45107919 -0.10958421 0.96900004
0.45277816 -0.10958421 0.96900004
0.45260108 -0.10913185 0.96500003
0.45382228 -0.10901876 0.96400005
0.45107919 -0.10788523 0.96900004
0.45277816 -0.10788523 0.96900004
0.45260108 -0.10743988 0.96500003
0.45382228 -0.10732855 0.96400005
0.44474176 -0.10629583 0.97000003
0.45107919 -0.10618625 0.96900004
0.45277816 -0.10618625 0.96900004
0.45213208 -0.10563833 0.96400005
0.44474176 -0.1045951 0.97000003
0.44644248 -0.1045951 0.97000003
0.45107919 -0.10448727 0.96900004
0.45277816 -0.10448727 0.96900004
0.45213208 -0.10394812 0.96400005
0.44474176 -0.10289437 0.97000003
0.44644248 -0.10289437 0.97000003
0.44814324 -0.10289437 0.97000003
0.45061368 -0.10268221 0.96800005
0.45231089 -0.10268221 0.96800005
0.45213208 -0.10225791 0.96400005
0.44644248 -0.10119363 0.97000003
0.44814324 -0.10119363 0.97000003
0.44984397 -0.10119363 0.97000003
0.45014817 -0.10088066 0.96700007
0.45184365 -0.10088066 0.96700007
0.45213208 -0.10056769 0.96400005
0.44598225 -0.099390328 0.96900004
0.44814324 -0.0994929 0.97000003
0.44984397 -0.0994929 0.97000003
0.44968265 -0.099082619 0.96600002
0.45137638 -0.099082619 0.96600002
0.45166305 -0.09877491 0.96300006
0.44474176 -0.097792163 0.97000003
0.44552201 -0.097590536 0.96800005
0.44721922 -0.097590536 0.96800005
0.44984397 -0.097792163 0.97000003
0.44968265 -0.097388901 0.96600002
0.45137638 -0.097388901 0.96600002
0.45119402 -0.096985631 0.96200007
0.44768122 -0.095992371 0.96900004
0.44984397 -0.096091434 0.97000003
0.44968265 -0.095695183 0.96600002
0.4499746 -0.095397986 0.96300006
0.45119402 -0.095298924 0.96200007
0.44598225 -0.094293386 0.96900004
0.44768122 -0.094293386 0.96900004
0.44938022 -0.094293386 0.96900004
0.44968265 -0.094001457 0.96600002
0.4499746 -0.093709528 0.96300006
0.44598225 -0.092594407 0.96900004
0.44768122 -0.092594407 0.96900004
0.44798893 -0.092307739 0.96600002
0.44968265 -0.092307739 0.96600002
0.4499746 -0.09202107 0.96300006
0.45166305 -0.09202107 0.96300006
0.44598225 -0.090895429 0.96900004
0.44768122 -0.090895429 0.96900004
0.44798893 -0.090614021 0.96600002
0.44828612 -0.090332612 0.96300006
0.44904006 -0.090144999 0.96100003
0.44814324 -0.089288503 0.97000003
0.44798893 -0.088920303 0.96600002
0.44875163 -0.088736199 0.96400005
0.44904006 -0.088460051 0.96100003
0.44814324 -0.087587766 0.97000003
0.44845268 -0.087316878 0.96700007
0.44875163 -0.087045982 0.96400005
0.44950733 -0.086865395 0.96200007
0.44768122 -0.085798487 0.96900004
0.44845268 -0.085621402 0.96700007
0.44875163 -0.085355774 0.96400005
0.44950733 -0.085178688 0.96200007
0.45119402 -0.085178688 0.96200007
0.44644248 -0.084186301 0.97000003
0.44675723 -0.083925933 0.96700007
0.44706142 -0.083665557 0.96400005
0.44875163 -0.083665557 0.96400005
0.44950733 -0.083491981 0.96200007
0.45119402 -0.083491981 0.96200007
0.44644248 -0.082485564 0.97000003
0.44675723 -0.082230456 0.96700007
0.44706142 -0.081975348 0.96400005
0.44875163 -0.081975348 0.96400005
0.44950733 -0.081805274 0.96200007
0.45119402 -0.081805274 0.96200007
0.44644248 -0.080784835 0.97000003
0.44675723 -0.08053498 0.96700007
0.44706142 -0.080285132 0.96400005
0.44875163 -0.080285132 0.96400005
0.44950733 -0.080118567 0.96200007
0.45119402 -0.080118567 0.96200007
0.45288074 -0.080118567 0.96200007
0.44644248 -0.079084098 0.97000003
0.44675723 -0.078839511 0.96700007
0.44798893 -0.078757979 0.96600002
0.44968265 -0.078757979 0.96600002
0.44950733 -0.07843186 0.96200007
0.45119402 -0.07843186 0.96200007
0.45288074 -0.07843186 0.96200007
0.44644248 -0.077383369 0.97000003
0.44675723 -0.077144034 0.96700007
0.44798893 -0.077064261 0.96600002
0.44968265 -0.077064261 0.96600002
0.44950733 -0.076745152 0.96200007
0.45072502 -0.076665379 0.96100003
0.45240995 -0.076665379 0.96100003
0.4536224 -0.076585598 0.96000004
0.44644248 -0.075682633 0.97000003
0.44675723 -0.075448565 0.96700007
0.44706142 -0.07521449 0.96400005
0.44875163 -0.07521449 0.96400005
0.45044184 -0.07521449 0.96400005
0.45166305 -0.075136468 0.96300006
0.4533515 -0.075136468 0.96300006
0.44644248 -0.073981896 0.97000003
0.44629523 -0.073676817 0.96600002
0.44659767 -0.07344801 0.96300006
0.44875163 -0.073524281 0.96400005
0.45044184 -0.073524281 0.96400005
0.45166305 -0.07344801 0.96300006
0.4533515 -0.07344801 0.96300006
0.45503998 -0.07344801 0.96300006
0.44349778 -0.07235568 0.97100008
0.44474176 -0.072281167 0.97000003
0.44644248 -0.072281167 0.97000003
0.44675723 -0.07205762 0.96700007
0.44798893 -0.071983099 0.96600002
0.44828612 -0.071759552 0.96300006
0.4499746 -0.071759552 0.96300006
0.45166305 -0.071759552 0.96300006
0.4533515 -0.071759552 0.96300006
0.45503998 -0.071759552 0.96300006
0.44349778 -0.070653193 0.97100008
0.44474176 -0.07058043 0.97000003
0.44644248 -0.07058043 0.97000003
0.44675723 -0.070362143 0.96700007
0.44798893 -0.070289381 0.96600002
0.44828612 -0.070071086 0.96300006
0.4499746 -0.070071086 0.96300006
0.45166305 -0.070071086 0.96300006
0.4533515 -0.070071086 0.96300006
0.45503998 -0.070071086 0.96300006
0.44304103 -0.068879701 0.97000003
0.44428328 -0.06880869 0.96900004
0.44644248 -0.068879701 0.97000003
0.44675723 -0.068666667 0.96700007
0.44798893 -0.068595663 0.96600002
0.44968265 -0.068595663 0.96600002
0.45137638 -0.068595663 0.96600002
0.4530701 -0.068595663 0.96600002
0.45476383 -0.068595663 0.96600002
0.44270527 -0.067386739 0.97300005
0.44304103 -0.067178965 0.97000003
0.44428328 -0.067109711 0.96900004
0.44598225 -0.067109711 0.96900004
0.44768122 -0.067109711 0.96900004
0.44938022 -0.067109711 0.96900004
0.44968265 -0.066901937 0.96600002
0.45137638 -0.066901937 0.96600002
0.4530701 -0.066901937 0.96600002
0.45476383 -0.066901937 0.96600002
0.44270527 -0.065680742 0.97300005
0.44304103 -0.065478235 0.97000003
0.44428328 -0.065410733 0.96900004
0.44598225 -0.065410733 0.96900004
0.44768122 -0.065410733 0.96900004
0.44938022 -0.065410733 0.96900004
0.44968265 -0.065208219 0.96600002
0.45137638 -0.065208219 0.96600002
0.45260108 -0.065140717 0.96500003
0.45429304 -0.065140717 0.96500003
0.44270527 -0.063974753 0.97300005
0.44304103 -0.063777499 0.97000003
0.44474176 -0.063777499 0.97000003
0.44598225 -0.063711748 0.96900004
0.44814324 -0.063777499 0.97000003
0.44984397 -0.063777499 0.97000003
0.45107919 -0.063711748 0.96900004
0.45137638 -0.063514501 0.96600002
0.45260108 -0.063448749 0.96500003
0.45476383 -0.063514501 0.96600002
0.44316027 -0.062332753 0.97400004
0.44304103 -0.062076766 0.97000003
0.44474176 -0.062076766 0.97000003
0.44644248 -0.062076766 0.97000003
0.44814324 -0.062076766 0.97000003
0.44984397 -0.062076766 0.97000003
0.45107919 -0.062012769 0.96900004
0.45137638 -0.061820779 0.96600002
0.4530701 -0.061820779 0.96600002
0.45476383 -0.061820779 0.96600002
0.44316027 -0.060625006 0.97400004
0.44304103 -0.060376033 0.97000003
0.44565874 -0.060500521 0.97200006
0.44736299 -0.060500521 0.97200006
0.44814324 -0.060376033 0.97000003
0.44984397 -0.060376033 0.97000003
0.45107919 -0.060313791 0.96900004
0.45277816 -0.060313791 0.96900004
0.4530701 -0.060127061 0.96600002
0.45476383 -0.060127061 0.96600002
0.4414525 -0.058917258 0.97400004
0.44316027 -0.058917258 0.97400004
0.44304103 -0.0586753 0.97000003
0.44611725 -0.05885677 0.97300005
0.44782326 -0.05885677 0.97300005
0.44906723 -0.058796279 0.97200006
0.45030773 -0.058735788 0.97100008
0.4515447 -0.0586753 0.97000003
0.45324543 -0.0586753 0.97000003
0.44190574 -0.057268251 0.97500002
0.44316027 -0.057209514 0.97400004
0.44349778 -0.057033304 0.97100008
0.44611725 -0.057150777 0.97300005
0.44782326 -0.057150777 0.97300005
0.44952923 -0.057150777 0.97300005
0.45077148 -0.057092041 0.97200006
0.4515447 -0.056974567 0.97000003
0.45324543 -0.056974567 0.97000003
0.44190574 -0.055558749 0.97500002
0.44361526 -0.055558749 0.97500002
0.44349778 -0.055330817 0.97100008
0.44611725 -0.055444784 0.97300005
0.44782326 -0.055444784 0.97300005
0.44952923 -0.055444784 0.97300005
0.45030773 -0.055330817 0.97100008
0.4515447 -0.055273835 0.97000003
0.45324543 -0.055273835 0.97000003
0.44019625 -0.05384925 0.97500002
0.44190574 -0.05384925 0.97500002
0.44361526 -0.05384925 0.97500002
0.44395453 -0.05368356 0.97200006
0.44703424 -0.05384925 0.97500002
0.44874376 -0.05384925 0.97500002
0.45045325 -0.05384925 0.97500002
0.45077148 -0.05368356 0.97200006
0.45247573 -0.05368356 0.97200006
0.44019625 -0.052139748 0.97500002
0.44190574 -0.052139748 0.97500002
0.44361526 -0.052139748 0.97500002
0.44395453 -0.051979318 0.97200006
0.44703424 -0.052139748 0.97500002
0.44874376 -0.052139748 0.97500002
0.45045325 -0.052139748 0.97500002
0.45077148 -0.051979318 0.97200006
0.45247573 -0.051979318 0.97200006
0.44064772 -0.050481971 0.97600007
0.44099927 -0.050326802 0.97300005
0.44270527 -0.050326802 0.97300005
0.44441125 -0.050326802 0.97300005
0.44474176 -0.050171632 0.97000003
0.44644248 -0.050171632 0.97000003
0.44860524 -0.050223358 0.97100008
0.45030773 -0.050223358 0.97100008
0.4414525 -0.04867078 0.97400004
0.44361526 -0.048720751 0.97500002
0.44532475 -0.048720751 0.97500002
0.44474176 -0.048470899 0.97000003
0.44644248 -0.048470899 0.97000003
0.44814324 -0.048470899 0.97000003
0.45123523 -0.048620809 0.97300005
0.44109923 -0.047107682 0.97700006
0.4414525 -0.046963032 0.97400004
0.44361526 -0.047011249 0.97500002
0.44532475 -0.047011249 0.97500002
0.44611725 -0.046914816 0.97300005
0.44644248 -0.046770167 0.97000003
0.44814324 -0.046770167 0.97000003
0.44019625 -0.04530175 0.97500002
0.4414525 -0.045255285 0.97400004
0.44361526 -0.04530175 0.97500002
0.44532475 -0.04530175 0.97500002
0.44611725 -0.045208823 0.97300005
0.44782326 -0.045208823 0.97300005
0.44952923 -0.045208823 0.97300005
0.44019625 -0.043592248 0.97500002
0.4414525 -0.043547541 0.97400004
0.44316027 -0.043547541 0.97400004
0.444868 -0.043547541 0.97400004
0.44611725 -0.04350283 0.97300005
0.44782326 -0.04350283 0.97300005
0.43856916 -0.042054575 0.97900003
0.44028565 -0.042054575 0.97900003
0.44064772 -0.041925706 0.97600007
0.4414525 -0.041839793 0.97400004
0.44316027 -0.041839793 0.97400004
0.444868 -0.041839793 0.97400004
0.44611725 -0.041796837 0.97300005
0.43856916 -0.040338062 0.97900003
0.44028565 -0.040338062 0.97900003
0.44019625 -0.040173251 0.97500002
0.4414525 -0.040132046 0.97400004
0.44316027 -0.040132046 0.97400004
0.44441125 -0.040090844 0.97300005
0.43774509 -0.03870045 0.98100007
0.43856916 -0.038621549 0.97900003
0.43893647 -0.0385032 0.97600007
0.43974477 -0.038424298 0.97400004
0.4414525 -0.038424298 0.97400004
0.44361526 -0.038463749 0.97500002
0.43646953 -0.037018128 0.98200005
0.43774509 -0.036980432 0.98100007
0.43722522 -0.036791947 0.97600007
0.43893647 -0.036791947 0.97600007
0.4414525 -0.036716554 0.97400004
0.43174341 -0.035332296 0.98300004
0.43519047 -0.035332296 0.98300004
0.43602505 -0.035260409 0.98100007
0.43729886 -0.035224468 0.98000002
0.43632928 -0.035008807 0.97400004
0.43848675 -0.035044748 0.97500002
0.43174341 -0.033608768 0.98300004
0.43346694 -0.033608768 0.98300004
0.43519047 -0.033608768 0.98300004
0.43558061 -0.0335062 0.98000002
0.43729886 -0.0335062 0.98000002
0.43767321 -0.033403631 0.97700006
0.43938622 -0.033403631 0.97700006
0.43390793 -0.03191768 0.98400003
0.43563318 -0.03191768 0.98400003
0.43602505 -0.031820368 0.98100007
0.43729886 -0.031787932 0.98000002
0.43767321 -0.031690624 0.97700006
0.43133226 -0.030253766 0.98600006
0.43174341 -0.030161716 0.98300004
0.43390793 -0.030192399 0.98400003
0.43563318 -0.030192399 0.98400003
0.43646953 -0.030131033 0.98200005
0.43774509 -0.030100349 0.98100007
0.43047488 -0.028582839 0.98800004
0.43133226 -0.02852498 0.98600006
0.43174341 -0.02843819 0.98300004
0.43390793 -0.028467121 0.98400003
0.43386233 -0.0283514 0.98000002
0.43646953 -0.028409259 0.98200005
0.43819132 -0.028409259 0.98200005
0.43047488 -0.026850546 0.98800004
0.43133226 -0.026796194 0.98600006
0.43174341 -0.026714664 0.98300004
0.43434888 -0.026769016 0.98500007
0.43386233 -0.026633132 0.98000002
0.43646953 -0.026687486 0.98200005
0.43047488 -0.025118252 0.98800004
0.43133226 -0.025067406 0.98600006
0.43174341 -0.024991136 0.98300004
0.43434888 -0.025041983 0.98500007
0.43386233 -0.024914866 0.98000002
0.43646953 -0.024965713 0.98200005
0.42830691 -0.02345697 0.99100006
0.42874259 -0.023385961 0.98800004
0.42960349 -0.02333862 0.98600006
0.43133226 -0.02333862 0.98600006
0.43174341 -0.02326761 0.98300004
0.43434888 -0.023314949 0.98500007
0.42830691 -0.021719417 0.99100006
0.42787468 -0.021609833 0.98600006
0.42960349 -0.021609833 0.98600006
0.43001992 -0.021544084 0.98300004
0.43174341 -0.021544084 0.98300004
0.43434888 -0.021587916 0.98500007
0.42787468 -0.019881047 0.98600006
0.42960349 -0.019881047 0.98600006
0.43001992 -0.019820556 0.98300004
0.43174341 -0.019820556 0.98300004
0.43434888 -0.019860882 0.98500007
0.42874259 -0.01818908 0.98800004
0.43047488 -0.01818908 0.98800004
0.43133226 -0.018152259 0.98600006
0.42917129 -0.016540069 0.99300003
0.43004444 -0.016506756 0.99100006
0.43047488 -0.016456787 0.98800004
0.43133226 -0.016423473 0.98600006
0.43306106 -0.016423473 0.98600006
0.42743021 -0.01479901 0.99300003
0.42917129 -0.01479901 0.99300003
0.43047839 -0.014784107 0.99200004
0.43047488 -0.014724493 0.98800004
0.4322072 -0.014724493 0.98800004
0.42743021 -0.01305795 0.99300003
0.42960349 -0.0130711 0.99400002
0.43091235 -0.01305795 0.99300003
0.43178201 -0.01303165 0.99100006
0.4322072 -0.0129922 0.98800004
0.42699978 -0.011305493 0.99200004
0.42917129 -0.01131689 0.99300003
0.43091235 -0.01131689 0.99300003
0.43178201 -0.011294097 0.99100006
0.4322072 -0.011259907 0.98800004
0.42697525 -0.0096047595 0.99600005
0.42829111 -0.0095951166 0.99500006
0.42917129 -0.0095758298 0.99300003
0.4313463 -0.0095854737 0.99400002
0.43178201 -0.0095565431 0.99100006
0.42872155 -0.0078584403 0.99600005
0.42917129 -0.0078347698 0.99300003
0.43091235 -0.0078347698 0.99300003
0.43178201 -0.0078189904 0.99100006
0.42743021 -0.0060937097 0.99300003
0.42917129 -0.0060937097 0.99300003
0.43091235 -0.0060937097 0.99300003
0.4313463 -0.0060752998 0.99000007
0.42743021 -0.0043526501 0.99300003
0.42917129 -0.0043526501 0.99300003
0.43091235 -0.0043526501 0.99300003
0.42743021 -0.0026115901 0.99300003
0.42830691 -0.00260633 0.99100006
0.43004444 -0.00260633 0.99100006
0.42740393 -0.00087403663 0.99700004
0.42656934 -0.00086877664 0.99100006
0.42830691 -0.00086877664 0.99100006
0.43004444 -0.00086877664 0.99100006
0.4278326 0.00087491336 0.99800003
0.42699978 0.0008696533 0.99200004
0.42830691 0.00086877664 0.99100006
0.42740393 0.0026221101 0.99700004
0.42786068 0.0026142199 0.99400002
0.42960349 0.0026142199 0.99400002
0.42650974 0.0043789498 0.99900007
0.42611787 0.0043570334 0.99400002
0.42786068 0.0043570334 0.99400002
0.42960349 0.0043570334 0.99400002
0.42433298 0.0061243931 0.99800003
0.42650974 0.00613053 0.99900007
0.42611787 0.0060998467 0.99400002
0.42786068 0.0060998467 0.99400002
0.42830691 0.0060814368 0.99100006
0.42475814 0.0078821098 0.99900007
0.42437506 0.00784266 0.99400002
0.42611787 0.00784266 0.99400002
0.42656934 0.0078189904 0.99100006
0.4287391 0.0078268796 0.99200004
0.42475814 0.0096336901 0.99900007
0.42437506 0.0095854737 0.99400002
0.42611787 0.0095854737 0.99400002
0.42656934 0.0095565431 0.99100006
0.42475814 0.011385269 0.99900007
0.42437506 0.011328286 0.99400002
0.42611787 0.011328286 0.99400002
0.42656934 0.011294097 0.99100006
0.42390779 0.01311055 0.99700004
0.42437506 0.0130711 0.99400002
0.42483178 0.01303165 0.99100006
0.42656934 0.01303165 0.99100006
0.4221597 0.014858623 0.99700004
0.42263222 0.014813913 0.99400002
0.42309424 0.014769203 0.99100006
0.42483178 0.014769203 0.99100006
0.42041165 0.016606696 0.99700004
0.4221597 0.016606696 0.99700004
0.42263222 0.016556727 0.99400002
0.42309424 0.016506756 0.99100006
0.42526048 0.016523413 0.99200004
0.41866356 0.01835477 0.99700004
0.42041165 0.01835477 0.99700004
0.4221597 0.01835477 0.99700004
0.42263222 0.018299541 0.99400002
0.42309424 0.018244309 0.99100006
0.42568916 0.01828113 0.99300003
0.41908348 0.020123007 0.99800003
0.42041165 0.020102844 0.99700004
0.42258313 0.020123007 0.99800003
0.42263222 0.020042352 0.99400002
0.42352116 0.020002026 0.99200004
0.42568916 0.020022189 0.99300003
0.42083332 0.021872833 0.99800003
0.4234826 0.021829 0.99600005
0.42083332 0.02362266 0.99800003
0.42305741 0.02355165 0.99500006
0.41956827 0.025296217 0.99500006
0.42131284 0.025296217 0.99500006
