# .PCD v0.7 - Point Cloud Data file format
VERSION 0.7
FIELDS x y z
SIZE 4 4 4
TYPE F F F
COUNT 1 1 1
WIDTH 1410
HEIGHT 1
VIEWPOINT 0 0 0 1 0 0 0
POINTS 1410
DATA ascii
-0.17457414 0.16005655 0.41400003
-0.17426819 0.16044314 0.41500002
-0.17354055 0.16044314 0.41500002
-0.17322934 0.16082975 0.41600001
-0.17498793 0.16314942 0.42200002
-0.1734222 0.1623762 0.42000002
-0.1726858 0.1623762 0.42000002
-0.1719494 0.1623762 0.42000002
-0.17080535 0.16198958 0.41900003
-0.1696648 0.16160297 0.41800001
-0.16852777 0.16121636 0.41700003
-0.16779663 0.16121636 0.41700003
-0.16746612 0.16160297 0.41800001
-0.16673324 0.16160297 0.41800001
-0.16639747 0.16198958 0.41900003
-0.16526745 0.16160297 0.41800001
-0.16414092 0.16121636 0.41700003
-0.16340978 0.16121636 0.41700003
-0.16306877 0.16160297 0.41800001
-0.1619475 0.16121636 0.41700003
-0.15966994 0.15966994 0.41300002
-0.15971552 0.16044314 0.41500002
-0.15860479 0.16005655 0.41400003
-0.15826026 0.16044314 0.41500002
-0.15753262 0.16044314 0.41500002
-0.15680498 0.16044314 0.41500002
-0.15570126 0.16005655 0.41400003
-0.15497538 0.16005655 0.41400003
-0.15387692 0.15966994 0.41300002
-0.15241113 0.15889671 0.41100001
-0.15242866 0.15966994 0.41300002
-0.15096989 0.15889671 0.41100001
-0.1498837 0.1585101 0.41000003
-0.15025628 0.15966994 0.41300002
-0.14953215 0.15966994 0.41300002
-0.14880803 0.15966994 0.41300002
-0.14844246 0.16005655 0.41400003
-0.14700297 0.15928333 0.41200003
-0.1462806 0.15928333 0.41200003
-0.14555822 0.15928333 0.41200003
-0.14518739 0.15966994 0.41300002
-0.14446327 0.15966994 0.41300002
-0.14408718 0.16005655 0.41400003
-0.1433613 0.16005655 0.41400003
-0.14263542 0.16005655 0.41400003
-0.14225231 0.16044314 0.41500002
-0.1418657 0.16082975 0.41600001
-0.14113632 0.16082975 0.41600001
-0.14074445 0.16121636 0.41700003
-0.14001331 0.16121636 0.41700003
-0.13928217 0.16121636 0.41700003
-0.13788651 0.16044314 0.41500002
-0.13748938 0.16082975 0.41600001
-0.13676 0.16082975 0.41600001
-0.13635761 0.16121636 0.41700003
-0.13595171 0.16160297 0.41800001
-0.13521881 0.16160297 0.41800001
-0.13448593 0.16160297 0.41800001
-0.13279308 0.16044314 0.41500002
-0.13174722 0.16005655 0.41400003
-0.13102134 0.16005655 0.41400003
-0.13092491 0.16082975 0.41600001
-0.12988254 0.16044314 0.41500002
-0.12915492 0.16044314 0.41500002
-0.12842728 0.16044314 0.41500002
-0.12739193 0.16005655 0.41400003
-0.12666605 0.16005655 0.41400003
-0.12594017 0.16005655 0.41400003
-0.12491185 0.15966994 0.41300002
-0.12418772 0.15966994 0.41300002
-0.12346359 0.15966994 0.41300002
-0.12273947 0.15966994 0.41300002
-0.12246595 0.16121636 0.41700003
-0.12173481 0.16121636 0.41700003
-0.12071349 0.16082975 0.41600001
-0.11998411 0.16082975 0.41600001
-0.11896805 0.16044314 0.41500002
-0.11824042 0.16044314 0.41500002
-0.11751278 0.16044314 0.41500002
-0.11678515 0.16044314 0.41500002
-0.11605752 0.16044314 0.41500002
-0.11532988 0.16044314 0.41500002
-0.11460225 0.16044314 0.41500002
-0.11387461 0.16044314 0.41500002
-0.11314698 0.16044314 0.41500002
-0.11249913 0.16160297 0.41800001
-0.11176623 0.16160297 0.41800001
-0.11103334 0.16160297 0.41800001
-0.11030044 0.16160297 0.41800001
-0.10982968 0.16198958 0.41900003
-0.1093554 0.1623762 0.42000002
-0.10836038 0.16198958 0.41900003
-0.099082619 0.16005655 0.41400003
-0.098356739 0.16005655 0.41400003
-0.096923389 0.15889671 0.41100001
-0.096436836 0.15928333 0.41200003
-0.096179098 0.16005655 0.41400003
-0.095453218 0.16005655 0.41400003
-0.094727337 0.16005655 0.41400003
-0.093774401 0.15966994 0.41300002
-0.093050279 0.15966994 0.41300002
-0.092326149 0.15966994 0.41300002
-0.091823816 0.16005655 0.41400003
-0.091097936 0.16005655 0.41400003
-0.090153769 0.15966994 0.41300002
-0.088996567 0.15889671 0.41100001
-0.088490732 0.15928333 0.41200003
-0.087768361 0.15928333 0.41200003
-0.087257266 0.15966994 0.41300002
-0.086533137 0.15966994 0.41300002
-0.085809007 0.15966994 0.41300002
-0.085496917 0.16044314 0.41500002
-0.084565021 0.16005655 0.41400003
-0.084041648 0.16044314 0.41500002
-0.083314016 0.16044314 0.41500002
-0.082586385 0.16044314 0.41500002
-0.081858747 0.16044314 0.41500002
-0.081131116 0.16044314 0.41500002
-0.080403484 0.16044314 0.41500002
-0.079675846 0.16044314 0.41500002
-0.078567743 0.15966994 0.41300002
-0.078220583 0.16044314 0.41500002
-0.077306218 0.16005655 0.41400003
-0.076765314 0.16044314 0.41500002
-0.076037683 0.16044314 0.41500002
-0.075491518 0.16082975 0.41600001
-0.074402697 0.16005655 0.41400003
-0.073854782 0.16044314 0.41500002
-0.072950937 0.16005655 0.41400003
-0.072399519 0.16044314 0.41500002
-0.071844585 0.16082975 0.41600001
-0.071115203 0.16082975 0.41600001
-0.070385814 0.16082975 0.41600001
-0.069991313 0.16160297 0.41800001
-0.069424108 0.16198958 0.41900003
-0.068361588 0.16121636 0.41700003
-0.067468263 0.16082975 0.41600001
-0.066418022 0.16005655 0.41400003
-0.065533467 0.15966994 0.41300002
-0.064809337 0.15966994 0.41300002
-0.064395547 0.16044314 0.41500002
-0.064588413 0.16276281 0.42100003
-0.063850261 0.16276281 0.42100003
-0.06311211 0.16276281 0.42100003
-0.062373955 0.16276281 0.42100003
-0.060464576 0.15966994 0.41300002
-0.059595801 0.15928333 0.41200003
-0.058873426 0.15928333 0.41200003
-0.058009911 0.15889671 0.41100001
-0.057289291 0.15889671 0.41100001
-0.056568671 0.15889671 0.41100001
-0.055848051 0.15889671 0.41100001
-0.05526156 0.15928333 0.41200003
-0.054803941 0.16005655 0.41400003
-0.053947438 0.15966994 0.41300002
-0.053352181 0.16005655 0.41400003
-0.052753415 0.16044314 0.41500002
-0.05190042 0.16005655 0.41400003
-0.051050931 0.15966994 0.41300002
-0.050326802 0.15966994 0.41300002
-0.049842883 0.16044314 0.41500002
-0.048996899 0.16005655 0.41400003
-0.048154425 0.15966994 0.41300002
-0.047545139 0.16005655 0.41400003
-0.04670617 0.15966994 0.41300002
-0.045982044 0.15966994 0.41300002
-0.044929165 0.1585101 0.41000003
-0.0442103 0.1585101 0.41000003
-0.043491434 0.1585101 0.41000003
-0.042876888 0.15889671 0.41100001
-0.042156268 0.15889671 0.41100001
-0.041536465 0.15928333 0.41200003
-0.040814094 0.15928333 0.41200003
-0.039994411 0.15889671 0.41100001
-0.039273791 0.15889671 0.41100001
-0.038646974 0.15928333 0.41200003
-0.038016651 0.15966994 0.41300002
-0.037834302 0.16198958 0.41900003
-0.037011113 0.16160297 0.41800001
-0.03584427 0.15966994 0.41300002
-0.035120144 0.15966994 0.41300002
-0.034396015 0.15966994 0.41300002
-0.033671889 0.15966994 0.41300002
-0.032947764 0.15966994 0.41300002
-0.032301661 0.16005655 0.41400003
-0.03157578 0.16005655 0.41400003
-0.030924417 0.16044314 0.41500002
-0.030196784 0.16044314 0.41500002
-0.029540161 0.16082975 0.41600001
-0.028810773 0.16082975 0.41600001
-0.028081387 0.16082975 0.41600001
-0.027352 0.16082975 0.41600001
-0.026622614 0.16082975 0.41600001
-0.025893226 0.16082975 0.41600001
-0.02522433 0.16121636 0.41700003
-0.02449319 0.16121636 0.41700003
-0.023762049 0.16121636 0.41700003
-0.02308614 0.16160297 0.41800001
-0.022353247 0.16160297 0.41800001
-0.02156863 0.16121636 0.41700003
-0.02078752 0.16082975 0.41600001
-0.0199617 0.16005655 0.41400003
-0.01923582 0.16005655 0.41400003
-0.01855465 0.16044314 0.41500002
-0.017827017 0.16044314 0.41500002
-0.017099382 0.16044314 0.41500002
-0.016371749 0.16044314 0.41500002
-0.015644116 0.16044314 0.41500002
-0.014916483 0.16044314 0.41500002
-0.01415466 0.16005655 0.41400003
-0.013396343 0.15966994 0.41300002
-0.012672217 0.15966994 0.41300002
-0.01194809 0.15966994 0.41300002
-0.011196787 0.15928333 0.41200003
-0.010474414 0.15928333 0.41200003
-0.0097993799 0.16005655 0.41400003
-0.0090515837 0.15966994 0.41300002
-0.0083476203 0.16005655 0.41400003
-0.0076401499 0.16044314 0.41500002
-0.0068958597 0.16005655 0.41400003
-0.0062146899 0.16121636 0.41700003
-0.00548355 0.16121636 0.41700003
-0.0047296165 0.16044314 0.41500002
-0.0039923401 0.16005655 0.41400003
-0.0032901301 0.16121636 0.41700003
-0.0025651266 0.16160297 0.41800001
-0.0018322333 0.16160297 0.41800001
-0.00109671 0.16121636 0.41700003
-0.00036469332 0.16082975 0.41600001
0.00036381665 0.16044314 0.41500002
0.00109145 0.16044314 0.41500002
0.0018147 0.16005655 0.41400003
0.0025344433 0.15966994 0.41300002
0.0032585699 0.15966994 0.41300002
0.0039826967 0.15966994 0.41300002
0.0047068233 0.15966994 0.41300002
0.0054309499 0.15966994 0.41300002
0.0061699799 0.16005655 0.41400003
0.0069125164 0.16044314 0.41500002
0.0075849202 0.15928333 0.41200003
0.0083072931 0.15928333 0.41200003
0.0090734996 0.16005655 0.41400003
0.0097520398 0.15928333 0.41200003
0.010474414 0.15928333 0.41200003
0.01125114 0.16005655 0.41400003
0.01197702 0.16005655 0.41400003
0.0127029 0.16005655 0.41400003
0.01342878 0.16005655 0.41400003
0.01415466 0.16005655 0.41400003
0.014952427 0.16082975 0.41600001
0.015644116 0.16044314 0.41500002
0.01791293 0.16121636 0.41700003
0.01864407 0.16121636 0.41700003
0.019421672 0.16160297 0.41800001
0.020737549 0.16044314 0.41500002
0.021465182 0.16044314 0.41500002
0.022192817 0.16044314 0.41500002
0.022865219 0.16005655 0.41400003
0.023591099 0.16005655 0.41400003
0.02431698 0.16005655 0.41400003
0.02504286 0.16005655 0.41400003
0.026017712 0.16160297 0.41800001
0.026750607 0.16160297 0.41800001
0.027483501 0.16160297 0.41800001
0.028216394 0.16160297 0.41800001
0.028741516 0.16044314 0.41500002
0.02932713 0.15966994 0.41300002
0.030051256 0.15966994 0.41300002
0.030700866 0.15928333 0.41200003
0.031346969 0.15889671 0.41100001
0.032145612 0.15928333 0.41200003
0.032867987 0.15928333 0.41200003
0.033427298 0.1585101 0.41000003
0.03422945 0.15889671 0.41100001
0.034865033 0.1585101 0.41000003
0.03567069 0.15889671 0.41100001
0.036302768 0.1585101 0.41000003
0.037563413 0.16082975 0.41600001
0.038292799 0.16082975 0.41600001
0.039115991 0.16121636 0.41700003
0.039942686 0.16160297 0.41800001
0.040578268 0.16121636 0.41700003
0.041309409 0.16121636 0.41700003
0.042040549 0.16121636 0.41700003
0.042566549 0.16044314 0.41500002
0.043294184 0.16044314 0.41500002
0.043915741 0.16005655 0.41400003
0.044425961 0.15928333 0.41200003
0.045148332 0.15928333 0.41200003
0.045648035 0.1585101 0.41000003
0.0463669 0.1585101 0.41000003
0.047200609 0.15889671 0.41100001
0.047921229 0.15889671 0.41100001
0.048760198 0.15928333 0.41200003
0.049362469 0.15889671 0.41100001
0.050204948 0.15928333 0.41200003
0.051050931 0.15966994 0.41300002
0.051649693 0.15928333 0.41200003
0.052372068 0.15928333 0.41200003
0.053223308 0.15966994 0.41300002
0.053947438 0.15966994 0.41300002
0.056527466 0.16082975 0.41600001
0.05739449 0.16121636 0.41700003
0.05812563 0.16121636 0.41700003
0.058574483 0.16044314 0.41500002
0.059302118 0.16044314 0.41500002
0.060029749 0.16044314 0.41500002
0.060757384 0.16044314 0.41500002
0.061485015 0.16044314 0.41500002
0.061912831 0.15966994 0.41300002
0.062788621 0.16005655 0.41400003
0.063514501 0.16005655 0.41400003
0.064240381 0.16005655 0.41400003
0.064809337 0.15966994 0.41300002
0.065692142 0.16005655 0.41400003
0.066418022 0.16005655 0.41400003
0.066981718 0.15966994 0.41300002
0.06770584 0.15966994 0.41300002
0.068429969 0.15966994 0.41300002
0.06881921 0.15889671 0.41100001
0.074222982 0.15966994 0.41300002
0.074947111 0.15966994 0.41300002
0.075671233 0.15966994 0.41300002
0.076580338 0.16005655 0.41400003
0.077679679 0.16082975 0.41600001
0.078032099 0.16005655 0.41400003
0.07913845 0.16082975 0.41600001
0.07986784 0.16082975 0.41600001
0.080403484 0.16044314 0.41500002
0.08093562 0.16005655 0.41400003
0.0816615 0.16005655 0.41400003
0.08238738 0.16005655 0.41400003
0.083113261 0.16005655 0.41400003
0.084041648 0.16044314 0.41500002
0.085177809 0.16121636 0.41700003
0.085702933 0.16082975 0.41600001
0.08664009 0.16121636 0.41700003
0.086742662 0.16005655 0.41400003
0.087257266 0.15966994 0.41300002
0.087768361 0.15928333 0.41200003
0.088275947 0.15889671 0.41100001
0.089213103 0.15928333 0.41200003
0.089935482 0.15928333 0.41200003
0.090657853 0.15928333 0.41200003
0.091380224 0.15928333 0.41200003
0.092102602 0.15928333 0.41200003
0.093050279 0.15966994 0.41300002
0.094001457 0.16005655 0.41400003
0.09449853 0.15966994 0.41300002
0.095222659 0.15966994 0.41300002
0.095946781 0.15966994 0.41300002
0.096670911 0.15966994 0.41300002
0.097866684 0.16044314 0.41500002
0.098831892 0.16082975 0.41600001
0.099561282 0.16082975 0.41600001
0.10053175 0.16121636 0.41700003
0.10102005 0.16082975 0.41600001
0.10174944 0.16082975 0.41600001
0.10223249 0.16044314 0.41500002
0.10271202 0.16005655 0.41400003
0.1034379 0.16005655 0.41400003
0.10416378 0.16005655 0.41400003
0.10488966 0.16005655 0.41400003
0.10561554 0.16005655 0.41400003
0.10659828 0.16044314 0.41500002
0.10732592 0.16044314 0.41500002
0.10805355 0.16044314 0.41500002
0.10851906 0.16005655 0.41400003
0.10977269 0.16082975 0.41600001
0.11050208 0.16082975 0.41600001
0.11123147 0.16082975 0.41600001
0.11196085 0.16082975 0.41600001
0.11269024 0.16082975 0.41600001
0.11341963 0.16082975 0.41600001
0.11414901 0.16082975 0.41600001
0.1143261 0.16005655 0.41400003
0.11532988 0.16044314 0.41500002
0.11633717 0.16082975 0.41600001
0.11706656 0.16082975 0.41600001
0.11807911 0.16121636 0.41700003
0.11881025 0.16121636 0.41700003
0.12011473 0.16198958 0.41900003
0.1211378 0.1623762 0.42000002
0.12158402 0.16198958 0.41900003
0.12231867 0.16198958 0.41900003
0.123347 0.1623762 0.42000002
0.12437884 0.16276281 0.42100003
0.12511699 0.16276281 0.42100003
0.1255562 0.1623762 0.42000002
0.1259919 0.16198958 0.41900003
0.1264241 0.16160297 0.41800001
0.12746119 0.16198958 0.41900003
0.1285018 0.1623762 0.42000002
0.12954591 0.16276281 0.42100003
0.13059352 0.16314942 0.42200002
0.13102221 0.16276281 0.42100003
0.1314474 0.1623762 0.42000002
0.13218381 0.1623762 0.42000002
0.13292021 0.1623762 0.42000002
0.13333836 0.16198958 0.41900003
0.13407302 0.16198958 0.41900003
0.13512939 0.1623762 0.42000002
0.13586579 0.1623762 0.42000002
0.13725269 0.16314942 0.42200002
0.13831958 0.16353603 0.42300001
0.13873249 0.16314942 0.42200002
0.1398029 0.16353603 0.42300001
0.14054456 0.16353603 0.42300001
0.14128622 0.16353603 0.42300001
0.14303517 0.16469586 0.42600003
0.14378209 0.16469586 0.42600003
0.14418975 0.16430925 0.42500001
0.14493492 0.16430925 0.42500001
0.14568008 0.16430925 0.42500001
0.14676978 0.16469586 0.42600003
0.1475167 0.16469586 0.42600003
0.14861165 0.16508247 0.42700002
0.14901054 0.16469586 0.42600003
0.15010901 0.16508247 0.42700002
0.15085767 0.16508247 0.42700002
0.1512513 0.16469586 0.42600003
0.15235502 0.16508247 0.42700002
0.15346225 0.16546908 0.42800003
0.15385237 0.16508247 0.42700002
0.15460104 0.16508247 0.42700002
0.15534972 0.16508247 0.42700002
0.15646397 0.16546908 0.42800003
0.1575817 0.16585569 0.42900002
0.15759574 0.16508247 0.42700002
0.15797357 0.16469586 0.42600003
0.15909308 0.16508247 0.42700002
0.15946741 0.16469586 0.42600003
0.16021433 0.16469586 0.42600003
0.16171695 0.16546908 0.42800003
0.16208777 0.16508247 0.42700002
0.16283645 0.16508247 0.42700002
0.16396822 0.16546908 0.42800003
0.16510351 0.16585569 0.42900002
0.16585569 0.16585569 0.42900002
0.1662195 0.16546908 0.42800003
0.16657981 0.16508247 0.42700002
0.16732849 0.16508247 0.42700002
0.16807716 0.16508247 0.42700002
0.16882583 0.16508247 0.42700002
0.16957451 0.16508247 0.42700002
0.17032318 0.16508247 0.42700002
0.17227377 0.1662423 0.43000001
0.17343009 0.16662891 0.43100002
0.17337748 0.16585569 0.42900002
0.17412966 0.16585569 0.42900002
0.17488185 0.16585569 0.42900002
0.17604344 0.1662423 0.43000001
0.17679736 0.1662423 0.43000001
0.1775513 0.1662423 0.43000001
0.17789057 0.16585569 0.42900002
0.17864275 0.16585569 0.42900002
0.18023127 0.16662891 0.43100002
0.18098696 0.16662891 0.43100002
0.18174264 0.16662891 0.43100002
0.1820749 0.1662423 0.43000001
0.18282883 0.1662423 0.43000001
0.18358277 0.1662423 0.43000001
0.18476538 0.16662891 0.43100002
0.18509063 0.1662423 0.43000001
0.18584457 0.1662423 0.43000001
0.18659849 0.1662423 0.43000001
0.18778813 0.16662891 0.43100002
0.18854383 0.16662891 0.43100002
0.1888603 0.1662423 0.43000001
0.19005519 0.16662891 0.43100002
0.1912536 0.16701552 0.43200001
0.19201104 0.16701552 0.43200001
0.19276848 0.16701552 0.43200001
0.1939739 0.16740213 0.43300003
0.19563255 0.16817535 0.43500003
0.19639525 0.16817535 0.43500003
0.19715795 0.16817535 0.43500003
0.19837564 0.16856197 0.43600002
0.19959684 0.16894858 0.43700001
0.19990455 0.16856197 0.43600002
0.20066901 0.16856197 0.43600002
0.20189546 0.16894858 0.43700001
0.20219791 0.16856197 0.43600002
-0.22276101 0.1631126 0.42000002
-0.22096734 0.16233587 0.41800001
-0.21970756 0.1619475 0.41700003
-0.21897642 0.1619475 0.41700003
-0.21824528 0.1619475 0.41700003
-0.21699253 0.16155915 0.41600001
-0.21626315 0.16155915 0.41600001
-0.21553376 0.16155915 0.41600001
-0.21480437 0.16155915 0.41600001
-0.21407498 0.16155915 0.41600001
-0.2133456 0.16155915 0.41600001
-0.21312732 0.1619475 0.41700003
-0.21188682 0.16155915 0.41600001
-0.21064985 0.16117078 0.41500002
-0.20891054 0.16039406 0.41300002
-0.20768233 0.16000569 0.41200003
-0.20645763 0.15961733 0.41100001
-0.20623758 0.16000569 0.41200003
-0.20501639 0.15961733 0.41100001
-0.20429577 0.15961733 0.41100001
-0.20357515 0.15961733 0.41100001
-0.20334809 0.16000569 0.41200003
-0.20705201 0.16350096 0.42100003
-0.20631385 0.16350096 0.42100003
-0.2055757 0.16350096 0.42100003
-0.2033779 0.16233587 0.41800001
-0.202645 0.16233587 0.41800001
-0.20142907 0.1619475 0.41700003
-0.20069793 0.1619475 0.41700003
-0.19948725 0.16155915 0.41600001
-0.19780231 0.16078241 0.41400003
-0.19707642 0.16078241 0.41400003
-0.19682482 0.16117078 0.41500002
-0.19562466 0.16078241 0.41400003
-0.19489878 0.16078241 0.41400003
-0.19370387 0.16039406 0.41300002
-0.19297975 0.16039406 0.41300002
-0.19272114 0.16078241 0.41400003
-0.19292277 0.16155915 0.41600001
-0.19173138 0.16117078 0.41500002
-0.19100375 0.16117078 0.41500002
-0.18981762 0.16078241 0.41400003
-0.18863499 0.16039406 0.41300002
-0.18745588 0.16000569 0.41200003
-0.18718675 0.16039406 0.41300002
-0.18601114 0.16000569 0.41200003
-0.18483903 0.15961733 0.41100001
-0.1841184 0.15961733 0.41100001
-0.18384402 0.16000569 0.41200003
-0.18022601 0.1619475 0.41700003
-0.17906442 0.16155915 0.41600001
-0.17790635 0.16117078 0.41500002
-0.17717871 0.16117078 0.41500002
-0.17645109 0.16117078 0.41500002
-0.17572345 0.16117078 0.41500002
-0.17499581 0.16117078 0.41500002
-0.17384826 0.16078241 0.41400003
-0.1727042 0.16039406 0.41300002
-0.17198008 0.16039406 0.41300002
-0.17498793 0.16388932 0.42200002
-0.17424802 0.16388932 0.42200002
-0.17309695 0.16350096 0.42100003
-0.17031178 0.16155915 0.41600001
-0.1695824 0.16155915 0.41600001
-0.1696648 0.16233587 0.41800001
-0.16812363 0.16155915 0.41600001
-0.16739424 0.16155915 0.41600001
-0.16786677 0.16272424 0.41900003
-0.16673324 0.16233587 0.41800001
-0.16600034 0.16233587 0.41800001
-0.16526745 0.16233587 0.41800001
-0.16453455 0.16233587 0.41800001
-0.16301791 0.16155915 0.41600001
-0.16267864 0.1619475 0.41700003
-0.16117078 0.16117078 0.41500002
-0.16044314 0.16117078 0.41500002
-0.15971552 0.16117078 0.41500002
-0.15822168 0.16039406 0.41300002
-0.15826026 0.16117078 0.41500002
-0.15791221 0.16155915 0.41600001
-0.15680498 0.16117078 0.41500002
-0.15570126 0.16078241 0.41400003
-0.15422671 0.16000569 0.41200003
-0.15313175 0.15961733 0.41100001
-0.15241113 0.15961733 0.41100001
-0.15242866 0.16039406 0.41300002
-0.15133721 0.16000569 0.41200003
-0.1498837 0.15922897 0.41000003
-0.14916483 0.15922897 0.41000003
-0.14880803 0.15961733 0.41100001
-0.14880803 0.16039406 0.41300002
-0.14844246 0.16078241 0.41400003
-0.14664617 0.15961733 0.41100001
-0.14592555 0.15961733 0.41100001
-0.14555822 0.16000569 0.41200003
-0.14483586 0.16000569 0.41200003
-0.14411348 0.16000569 0.41200003
-0.14373915 0.16039406 0.41300002
-0.14301501 0.16039406 0.41300002
-0.14229089 0.16039406 0.41300002
-0.14225231 0.16117078 0.41500002
-0.14152469 0.16117078 0.41500002
-0.14079705 0.16117078 0.41500002
-0.14040694 0.16155915 0.41600001
-0.13967754 0.16155915 0.41600001
-0.13894816 0.16155915 0.41600001
-0.13755426 0.16078241 0.41400003
-0.13715889 0.16117078 0.41500002
-0.13643125 0.16117078 0.41500002
-0.13603061 0.16155915 0.41600001
-0.13530123 0.16155915 0.41600001
-0.13489532 0.1619475 0.41700003
-0.13384245 0.16155915 0.41600001
-0.1324731 0.16078241 0.41400003
-0.13174722 0.16078241 0.41400003
-0.13070486 0.16039406 0.41300002
-0.13029546 0.16078241 0.41400003
-0.12956958 0.16078241 0.41400003
-0.12884369 0.16078241 0.41400003
-0.12811781 0.16078241 0.41400003
-0.12739193 0.16078241 0.41400003
-0.12666605 0.16078241 0.41400003
-0.12563598 0.16039406 0.41300002
-0.12491185 0.16039406 0.41300002
-0.12418772 0.16039406 0.41300002
-0.12217227 0.16155915 0.41600001
-0.12144288 0.16155915 0.41600001
-0.12042332 0.16117078 0.41500002
-0.11969569 0.16117078 0.41500002
-0.11896805 0.16117078 0.41500002
-0.1179555 0.16078241 0.41400003
-0.11722962 0.16078241 0.41400003
-0.11650374 0.16078241 0.41400003
-0.11577786 0.16078241 0.41400003
-0.11477408 0.16039406 0.41300002
-0.11404995 0.16039406 0.41300002
-0.11387461 0.16117078 0.41500002
-0.11314698 0.16117078 0.41500002
-0.10198614 0.16078241 0.41400003
-0.10101567 0.16039406 0.41300002
-0.10004871 0.16000569 0.41200003
-0.099326335 0.16000569 0.41200003
-0.098843291 0.16039406 0.41300002
-0.098119162 0.16039406 0.41300002
-0.096687563 0.15922897 0.41000003
-0.096202768 0.15961733 0.41100001
-0.095946781 0.16039406 0.41300002
-0.095222659 0.16039406 0.41300002
-0.09449853 0.16039406 0.41300002
-0.093320288 0.15961733 0.41100001
-0.09237437 0.15922897 0.41000003
-0.0916555 0.15922897 0.41000003
-0.091380224 0.16000569 0.41200003
-0.090657853 0.16000569 0.41200003
-0.0894989 0.15922897 0.41000003
-0.088780031 0.15922897 0.41000003
-0.088061169 0.15922897 0.41000003
-0.087555327 0.15961733 0.41100001
-0.086834706 0.15961733 0.41100001
-0.086533137 0.16039406 0.41300002
-0.08560124 0.16000569 0.41200003
-0.085084885 0.16039406 0.41300002
-0.084360756 0.16039406 0.41300002
-0.084041648 0.16117078 0.41500002
-0.083314016 0.16117078 0.41500002
-0.08238738 0.16078241 0.41400003
-0.0816615 0.16078241 0.41400003
-0.080740124 0.16039406 0.41300002
-0.080015995 0.16039406 0.41300002
-0.078907892 0.15961733 0.41100001
-0.077997036 0.15922897 0.41000003
-0.077278167 0.15922897 0.41000003
-0.076559298 0.15922897 0.41000003
-0.076765314 0.16117078 0.41500002
-0.076037683 0.16117078 0.41500002
-0.075491518 0.16155915 0.41600001
-0.074582413 0.16117078 0.41500002
-0.073854782 0.16117078 0.41500002
-0.073303357 0.16155915 0.41600001
-0.06953983 0.15961733 0.41100001
-0.069154099 0.16039406 0.41300002
-0.068429969 0.16039406 0.41300002
-0.06770584 0.16039406 0.41300002
-0.067306086 0.16117078 0.41500002
-0.066418022 0.16078241 0.41400003
-0.065692142 0.16078241 0.41400003
-0.064966261 0.16078241 0.41400003
-0.064240381 0.16078241 0.41400003
-0.063514501 0.16078241 0.41400003
-0.062788621 0.16078241 0.41400003
-0.06206274 0.16078241 0.41400003
-0.06133686 0.16078241 0.41400003
-0.06061098 0.16078241 0.41400003
-0.05974045 0.16039406 0.41300002
-0.058873426 0.16000569 0.41200003
-0.058009911 0.15961733 0.41100001
-0.057289291 0.15961733 0.41100001
-0.056568671 0.15961733 0.41100001
-0.055848051 0.15961733 0.41100001
-0.055127431 0.15961733 0.41100001
-0.054539185 0.16000569 0.41200003
-0.053947438 0.16039406 0.41300002
-0.053094439 0.16000569 0.41200003
-0.052499183 0.16039406 0.41300002
-0.051775057 0.16039406 0.41300002
-0.050927319 0.16000569 0.41200003
-0.050204948 0.16000569 0.41200003
-0.049482573 0.16000569 0.41200003
-0.048641849 0.15961733 0.41100001
-0.048271019 0.16078241 0.41400003
-0.047315452 0.16000569 0.41200003
-0.046479989 0.15961733 0.41100001
-0.045759369 0.15961733 0.41100001
-0.044709999 0.15845224 0.40800002
-0.043994639 0.15845224 0.40800002
-0.043279279 0.15845224 0.40800002
-0.042563919 0.15845224 0.40800002
-0.041848559 0.15845224 0.40800002
-0.041334834 0.15922897 0.41000003
-0.040715031 0.15961733 0.41100001
-0.039994411 0.15961733 0.41100001
-0.039273791 0.15961733 0.41100001
-0.038646974 0.16000569 0.41200003
-0.037924599 0.16000569 0.41200003
-0.034396015 0.16039406 0.41300002
-0.033590361 0.16000569 0.41200003
-0.03278821 0.15961733 0.41100001
-0.032067589 0.15961733 0.41100001
-0.031423241 0.16000569 0.41200003
-0.030775383 0.16039406 0.41300002
-0.030051256 0.16039406 0.41300002
-0.02932713 0.16039406 0.41300002
-0.028603002 0.16039406 0.41300002
-0.027878877 0.16039406 0.41300002
-0.027154749 0.16039406 0.41300002
-0.026430624 0.16039406 0.41300002
-0.025644254 0.16000569 0.41200003
-0.024921879 0.16000569 0.41200003
-0.024258243 0.16039406 0.41300002
-0.023420149 0.15961733 0.41100001
-0.022975679 0.16155915 0.41600001
-0.022032386 0.16000569 0.41200003
-0.021310013 0.16000569 0.41200003
-0.020637609 0.16039406 0.41300002
-0.019913483 0.16039406 0.41300002
-0.019189356 0.16039406 0.41300002
-0.01846523 0.16039406 0.41300002
-0.017741103 0.16039406 0.41300002
-0.017016977 0.16039406 0.41300002
-0.01629285 0.16039406 0.41300002
-0.01560642 0.16078241 0.41400003
-0.01488054 0.16078241 0.41400003
-0.01408628 0.16000569 0.41200003
-0.013396343 0.16039406 0.41300002
-0.012672217 0.16039406 0.41300002
-0.01191916 0.16000569 0.41200003
-0.011196787 0.16000569 0.41200003
-0.010474414 0.16000569 0.41200003
-0.0097993799 0.16078241 0.41400003
-0.0090734996 0.16078241 0.41400003
-0.0083476203 0.16078241 0.41400003
-0.00762174 0.16078241 0.41400003
-0.0068958597 0.16078241 0.41400003
-0.0061848834 0.16117078 0.41500002
-0.0054703997 0.16155915 0.41600001
-0.0047296165 0.16117078 0.41500002
-0.0039826967 0.16039406 0.41300002
-0.00327435 0.16117078 0.41500002
-0.0025651266 0.16233587 0.41800001
-0.0018322333 0.16233587 0.41800001
-0.00110197 0.16272424 0.41900003
-0.00036381665 0.16117078 0.41500002
0.00036293999 0.16078241 0.41400003
0.00108882 0.16078241 0.41400003
0.0018147 0.16078241 0.41400003
0.00254058 0.16078241 0.41400003
0.00326646 0.16078241 0.41400003
0.0039826967 0.16039406 0.41300002
0.0047068233 0.16039406 0.41300002
0.0054309499 0.16039406 0.41300002
0.0061550764 0.16039406 0.41300002
0.0068792035 0.16039406 0.41300002
0.0075665098 0.15961733 0.41100001
0.0083072931 0.16000569 0.41200003
0.0090515837 0.16039406 0.41300002
0.0097520398 0.16000569 0.41200003
0.010474414 0.16000569 0.41200003
0.011223963 0.16039406 0.41300002
0.01197702 0.16078241 0.41400003
0.0127029 0.16078241 0.41400003
0.01342878 0.16078241 0.41400003
0.01415466 0.16078241 0.41400003
0.01498837 0.1619475 0.41700003
0.015681813 0.16155915 0.41600001
0.020737549 0.16117078 0.41500002
0.021465182 0.16117078 0.41500002
0.022139341 0.16078241 0.41400003
0.022865219 0.16078241 0.41400003
0.023591099 0.16078241 0.41400003
0.02431698 0.16078241 0.41400003
0.02576874 0.16078241 0.41400003
0.028672259 0.16078241 0.41400003
0.02925612 0.16000569 0.41200003
0.029978493 0.16000569 0.41200003
0.030700866 0.16000569 0.41200003
0.031346969 0.15961733 0.41100001
0.032145612 0.16000569 0.41200003
0.03278821 0.15961733 0.41100001
0.03350883 0.15961733 0.41100001
0.03422945 0.15961733 0.41100001
0.03495007 0.15961733 0.41100001
0.03567069 0.15961733 0.41100001
0.036302768 0.15922897 0.41000003
0.036931336 0.1588406 0.40900001
0.037648451 0.1588406 0.40900001
0.039115991 0.1619475 0.41700003
0.039847128 0.1619475 0.41700003
0.040578268 0.1619475 0.41700003
0.041309409 0.1619475 0.41700003
0.041939732 0.16155915 0.41600001
0.042463981 0.16078241 0.41400003
0.043085538 0.16039406 0.41300002
0.043703586 0.16000569 0.41200003
0.044318128 0.15961733 0.41100001
0.044929165 0.15922897 0.41000003
0.045648035 0.15922897 0.41000003
0.046479989 0.15961733 0.41100001
0.047315452 0.16000569 0.41200003
0.048037827 0.16000569 0.41200003
0.048760198 0.16000569 0.41200003
0.049482573 0.16000569 0.41200003
0.050204948 0.16000569 0.41200003
0.051050931 0.16039406 0.41300002
0.051649693 0.16000569 0.41200003
0.052499183 0.16039406 0.41300002
0.053223308 0.16039406 0.41300002
0.053555567 0.15922897 0.41000003
0.054274432 0.15922897 0.41000003
0.056119815 0.16039406 0.41300002
0.057256851 0.16155915 0.41600001
0.057986241 0.16155915 0.41600001
0.058574483 0.16117078 0.41500002
0.059302118 0.16117078 0.41500002
0.0598851 0.16078241 0.41400003
0.060464576 0.16039406 0.41300002
0.061188702 0.16039406 0.41300002
0.061912831 0.16039406 0.41300002
0.062788621 0.16078241 0.41400003
0.063667916 0.16117078 0.41500002
0.064240381 0.16078241 0.41400003
0.065123186 0.16117078 0.41500002
0.065692142 0.16078241 0.41400003
0.066418022 0.16078241 0.41400003
0.066981718 0.16039406 0.41300002
0.06770584 0.16039406 0.41300002
0.068264283 0.16000569 0.41200003
0.068986654 0.16000569 0.41200003
0.069370635 0.15922897 0.41000003
0.070089497 0.15922897 0.41000003
0.074947111 0.16039406 0.41300002
0.075671233 0.16039406 0.41300002
0.076395363 0.16039406 0.41300002
0.077306218 0.16078241 0.41400003
0.077655129 0.16000569 0.41200003
0.078757979 0.16078241 0.41400003
0.07986784 0.16155915 0.41600001
0.080403484 0.16117078 0.41500002
0.08093562 0.16078241 0.41400003
0.081464246 0.16039406 0.41300002
0.082188375 0.16039406 0.41300002
0.082912505 0.16039406 0.41300002
0.083839141 0.16078241 0.41400003
0.084565021 0.16078241 0.41400003
0.085084885 0.16039406 0.41300002
0.086016782 0.16078241 0.41400003
0.08695218 0.16117078 0.41500002
0.087468542 0.16078241 0.41400003
0.087981388 0.16039406 0.41300002
0.088705517 0.16039406 0.41300002
0.089213103 0.16000569 0.41200003
0.089935482 0.16000569 0.41200003
0.090877898 0.16039406 0.41300002
0.091380224 0.16000569 0.41200003
0.091879047 0.15961733 0.41100001
0.093050279 0.16039406 0.41300002
0.093774401 0.16039406 0.41300002
0.094269723 0.16000569 0.41200003
0.094992094 0.16000569 0.41200003
0.095946781 0.16039406 0.41300002
0.096436836 0.16000569 0.41200003
0.097630858 0.16078241 0.41400003
0.098831892 0.16155915 0.41600001
0.099561282 0.16155915 0.41600001
0.10029066 0.16155915 0.41600001
0.10077722 0.16117078 0.41500002
0.10174944 0.16155915 0.41600001
0.10223249 0.16117078 0.41500002
0.10271202 0.16078241 0.41400003
0.1034379 0.16078241 0.41400003
0.10416378 0.16078241 0.41400003
0.10488966 0.16078241 0.41400003
0.10561554 0.16078241 0.41400003
0.10659828 0.16117078 0.41500002
0.10732592 0.16117078 0.41500002
0.10805355 0.16117078 0.41500002
0.10904331 0.16155915 0.41600001
0.11003657 0.1619475 0.41700003
0.11076771 0.1619475 0.41700003
0.11149885 0.1619475 0.41700003
0.11196085 0.16155915 0.41600001
0.11269024 0.16155915 0.41600001
0.11341963 0.16155915 0.41600001
0.11414901 0.16155915 0.41600001
0.1143261 0.16078241 0.41400003
0.11505198 0.16078241 0.41400003
0.11605752 0.16117078 0.41500002
0.11706656 0.16155915 0.41600001
0.11779594 0.16155915 0.41600001
0.11909517 0.16233587 0.41800001
0.12011473 0.16272424 0.41900003
0.1211378 0.1631126 0.42000002
0.12158402 0.16272424 0.41900003
0.12231867 0.16272424 0.41900003
0.123347 0.1631126 0.42000002
0.12437884 0.16350096 0.42100003
0.12511699 0.16350096 0.42100003
0.1255562 0.1631126 0.42000002
0.1262926 0.1631126 0.42000002
0.12672655 0.16272424 0.41900003
0.12746119 0.16272424 0.41900003
0.1285018 0.1631126 0.42000002
0.12954591 0.16350096 0.42100003
0.13059352 0.16388932 0.42200002
0.13102221 0.16350096 0.42100003
0.1314474 0.1631126 0.42000002
0.13186908 0.16272424 0.41900003
0.13260372 0.16272424 0.41900003
0.13429306 0.16388932 0.42200002
0.13503297 0.16388932 0.42200002
0.13545114 0.16350096 0.42100003
0.13618928 0.16350096 0.42100003
0.13757794 0.16427769 0.42300001
0.13831958 0.16427769 0.42300001
0.13906124 0.16427769 0.42300001
0.14013341 0.16466606 0.42400002
0.14087683 0.16466606 0.42400002
0.14128622 0.16427769 0.42300001
0.14303517 0.16544278 0.42600003
0.14378209 0.16544278 0.42600003
0.14418975 0.16505441 0.42500001
0.14527594 0.16544278 0.42600003
0.14602286 0.16544278 0.42600003
0.14676978 0.16544278 0.42600003
0.1475167 0.16544278 0.42600003
0.14791559 0.16505441 0.42500001
0.14866075 0.16505441 0.42500001
0.14975746 0.16544278 0.42600003
0.15085767 0.16583115 0.42700002
0.1512513 0.16544278 0.42600003
0.15199822 0.16544278 0.42600003
0.15310369 0.16583115 0.42700002
0.15385237 0.16583115 0.42700002
0.15460104 0.16583115 0.42700002
0.15534972 0.16583115 0.42700002
0.1560984 0.16583115 0.42700002
0.15721439 0.1662195 0.42800003
0.15796481 0.1662195 0.42800003
0.15908606 0.16660787 0.42900002
0.15946567 0.1662195 0.42800003
0.15984176 0.16583115 0.42700002
0.16096652 0.1662195 0.42800003
0.16171695 0.1662195 0.42800003
0.16208777 0.16583115 0.42700002
0.16283645 0.16583115 0.42700002
0.16396822 0.1662195 0.42800003
0.16510351 0.16660787 0.42900002
0.16546908 0.1662195 0.42800003
0.16583115 0.16583115 0.42700002
0.16657981 0.16583115 0.42700002
0.16732849 0.16583115 0.42700002
0.16807716 0.16583115 0.42700002
0.16882583 0.16583115 0.42700002
0.16957451 0.16583115 0.42700002
0.17032318 0.16583115 0.42700002
0.17227377 0.16699623 0.43000001
0.17343009 0.16738459 0.43100002
0.1725692 0.16583115 0.42700002
0.17331788 0.16583115 0.42700002
0.1752895 0.16699623 0.43000001
0.17686224 0.16777296 0.43200001
0.17679736 0.16699623 0.43000001
0.17796421 0.16738459 0.43100002
0.17789057 0.16660787 0.42900002
0.17864275 0.16660787 0.42900002
0.18064944 0.16777296 0.43200001
0.18140689 0.16777296 0.43200001
0.18216431 0.16777296 0.43200001
0.18249834 0.16738459 0.43100002
0.18282883 0.16699623 0.43000001
0.18358277 0.16699623 0.43000001
0.18476538 0.16738459 0.43100002
0.18552108 0.16738459 0.43100002
0.18584457 0.16699623 0.43000001
0.18703245 0.16738459 0.43100002
0.18778813 0.16738459 0.43100002
0.18854383 0.16738459 0.43100002
0.19017793 0.16816132 0.43300003
0.19093712 0.16816132 0.43300003
0.19169632 0.16816132 0.43300003
0.19201104 0.16777296 0.43200001
0.1932147 0.16816132 0.43300003
0.1939739 0.16816132 0.43300003
0.19608228 0.16932641 0.43600002
0.19639525 0.16893806 0.43500003
0.19715795 0.16893806 0.43500003
0.19792065 0.16893806 0.43500003
0.19914009 0.16932641 0.43600002
0.19990455 0.16932641 0.43600002
0.20066901 0.16932641 0.43600002
0.20097145 0.16893806 0.43500003
0.20173416 0.16893806 0.43500003
-0.22170024 0.16306877 0.41800001
-0.2204387 0.16267864 0.41700003
-0.21918069 0.16228853 0.41600001
-0.21845131 0.16228853 0.41600001
-0.21824528 0.16267864 0.41700003
-0.21699253 0.16228853 0.41600001
-0.21626315 0.16228853 0.41600001
-0.21553376 0.16228853 0.41600001
-0.21480437 0.16228853 0.41600001
-0.21356039 0.16189842 0.41500002
-0.21283275 0.16189842 0.41500002
-0.21363841 0.16306877 0.41800001
-0.21239617 0.16267864 0.41700003
-0.21064985 0.16189842 0.41500002
-0.20941637 0.16150829 0.41400003
-0.20818642 0.16111818 0.41300002
-0.20645763 0.16033795 0.41100001
-0.20573701 0.16033795 0.41100001
-0.20501639 0.16033795 0.41100001
-0.20429577 0.16033795 0.41100001
-0.20307983 0.15994783 0.41000003
-0.20285453 0.16033795 0.41100001
-0.20213391 0.16033795 0.41100001
-0.20141329 0.16033795 0.41100001
-0.20069267 0.16033795 0.41100001
-0.2024048 0.16228853 0.41600001
-0.20167542 0.16228853 0.41600001
-0.20046298 0.16189842 0.41500002
-0.19973534 0.16189842 0.41500002
-0.19900772 0.16189842 0.41500002
-0.19828008 0.16189842 0.41500002
-0.19755244 0.16189842 0.41500002
-0.19729909 0.16228853 0.41600001
-0.19609718 0.16189842 0.41500002
-0.19489878 0.16150829 0.41400003
-0.19370387 0.16111818 0.41300002
-0.19344702 0.16150829 0.41400003
-0.19179012 0.16072807 0.41200003
-0.19106774 0.16072807 0.41200003
-0.19173138 0.16189842 0.41500002
-0.1905435 0.16150829 0.41400003
-0.18981762 0.16150829 0.41400003
-0.18863499 0.16111818 0.41300002
-0.18745588 0.16072807 0.41200003
-0.1867335 0.16072807 0.41200003
-0.18555965 0.16033795 0.41100001
-0.18528876 0.16072807 0.41200003
-0.18456638 0.16072807 0.41200003
-0.18429023 0.16111818 0.41300002
-0.17747766 0.16150829 0.41400003
-0.17675178 0.16150829 0.41400003
-0.17645109 0.16189842 0.41500002
-0.17487659 0.16111818 0.41300002
-0.17457414 0.16150829 0.41400003
-0.17300841 0.16072807 0.41200003
-0.17228603 0.16072807 0.41200003
-0.17198008 0.16111818 0.41300002
-0.17125596 0.16111818 0.41300002
-0.17053182 0.16111818 0.41300002
-0.1698077 0.16111818 0.41300002
-0.16949297 0.16150829 0.41400003
-0.16917475 0.16189842 0.41500002
-0.16722943 0.16072807 0.41200003
-0.16650705 0.16072807 0.41200003
-0.16618706 0.16111818 0.41300002
-0.16786677 0.16345888 0.41900003
-0.16673324 0.16306877 0.41800001
-0.16520607 0.16228853 0.41600001
-0.16447669 0.16228853 0.41600001
-0.16374731 0.16228853 0.41600001
-0.16262604 0.16189842 0.41500002
-0.16228853 0.16228853 0.41600001
-0.16039406 0.16111818 0.41300002
-0.15966994 0.16111818 0.41300002
-0.15933067 0.16150829 0.41400003
-0.15822168 0.16111818 0.41300002
-0.15787891 0.16150829 0.41400003
-0.15715303 0.16150829 0.41400003
-0.15642715 0.16150829 0.41400003
-0.15532517 0.16111818 0.41300002
-0.15422671 0.16072807 0.41200003
-0.15387692 0.16111818 0.41300002
-0.15278196 0.16072807 0.41200003
-0.15169051 0.16033795 0.41100001
-0.15096989 0.16033795 0.41100001
-0.1498837 0.15994783 0.41000003
-0.14916483 0.15994783 0.41000003
-0.14844596 0.15994783 0.41000003
-0.14844772 0.16072807 0.41200003
-0.14736679 0.16033795 0.41100001
-0.14628936 0.15994783 0.41000003
-0.1455705 0.15994783 0.41000003
-0.14485162 0.15994783 0.41000003
-0.14413276 0.15994783 0.41000003
-0.14411348 0.16072807 0.41200003
-0.1433911 0.16072807 0.41200003
-0.14232245 0.16033795 0.41100001
-0.14160183 0.16033795 0.41100001
-0.14225231 0.16189842 0.41500002
-0.14084263 0.16111818 0.41300002
-0.13977924 0.16072807 0.41200003
-0.13905686 0.16072807 0.41200003
-0.13900602 0.16150829 0.41400003
-0.13828014 0.16150829 0.41400003
-0.13755426 0.16150829 0.41400003
-0.13715889 0.16189842 0.41500002
-0.13676 0.16228853 0.41600001
-0.13570361 0.16189842 0.41500002
-0.13497598 0.16189842 0.41500002
-0.13489532 0.16267864 0.41700003
-0.13384245 0.16228853 0.41600001
-0.13215311 0.16111818 0.41300002
-0.13111076 0.16072807 0.41200003
-0.13038838 0.16072807 0.41200003
-0.13029546 0.16150829 0.41400003
-0.12956958 0.16150829 0.41400003
-0.12853248 0.16111818 0.41300002
-0.12780836 0.16111818 0.41300002
-0.12769964 0.16189842 0.41500002
-0.12697202 0.16189842 0.41500002
-0.12533177 0.16072807 0.41200003
-0.12491185 0.16111818 0.41300002
-0.12418772 0.16111818 0.41300002
-0.12246595 0.16267864 0.41700003
-0.12144288 0.16228853 0.41600001
-0.12042332 0.16189842 0.41500002
-0.11911884 0.16111818 0.41300002
-0.11810804 0.16072807 0.41200003
-0.11738566 0.16072807 0.41200003
-0.11666329 0.16072807 0.41200003
-0.11594092 0.16072807 0.41200003
-0.11521854 0.16072807 0.41200003
-0.11449617 0.16072807 0.41200003
-0.1137738 0.16072807 0.41200003
-0.10825694 0.16111818 0.41300002
-0.10779318 0.16150829 0.41400003
-0.10680868 0.16111818 0.41300002
-0.10608456 0.16111818 0.41300002
-0.10561554 0.16150829 0.41400003
-0.1046363 0.16111818 0.41300002
-0.10441538 0.16189842 0.41500002
-0.10173979 0.16111818 0.41300002
-0.10101567 0.16111818 0.41300002
-0.10029154 0.16111818 0.41300002
-0.099567413 0.16111818 0.41300002
-0.099082619 0.16150829 0.41400003
-0.097881585 0.16072807 0.41200003
-0.096451744 0.15955772 0.40900001
-0.095968701 0.15994783 0.41000003
-0.095946781 0.16111818 0.41300002
-0.095222659 0.16111818 0.41300002
-0.09449853 0.16111818 0.41300002
-0.093320288 0.16033795 0.41100001
-0.092599668 0.16033795 0.41100001
-0.091879047 0.16033795 0.41100001
-0.091158427 0.16033795 0.41100001
-0.090437807 0.16033795 0.41100001
-0.0894989 0.15994783 0.41000003
-0.088563494 0.15955772 0.40900001
-0.087631598 0.1591676 0.40800002
-0.087129273 0.15955772 0.40900001
-0.086412154 0.15955772 0.40900001
-0.086114086 0.16033795 0.41100001
-0.085185699 0.15994783 0.41000003
-0.084672846 0.16033795 0.41100001
-0.083747968 0.15994783 0.41000003
-0.083231613 0.16033795 0.41100001
-0.082711749 0.16072807 0.41200003
-0.081591368 0.15994783 0.41000003
-0.081266999 0.16072807 0.41200003
-0.080544628 0.16072807 0.41200003
-0.07982225 0.16072807 0.41200003
-0.078907892 0.16033795 0.41100001
-0.077997036 0.15994783 0.41000003
-0.077278167 0.15994783 0.41000003
-0.076372571 0.15955772 0.40900001
-0.075655453 0.15955772 0.40900001
-0.075304791 0.16033795 0.41100001
-0.074402697 0.15994783 0.41000003
-0.06920144 0.15955772 0.40900001
-0.069154099 0.16111818 0.41300002
-0.068429969 0.16111818 0.41300002
-0.06770584 0.16111818 0.41300002
-0.067306086 0.16189842 0.41500002
-0.066578448 0.16189842 0.41500002
-0.065692142 0.16150829 0.41400003
-0.064966261 0.16150829 0.41400003
-0.064240381 0.16150829 0.41400003
-0.063514501 0.16150829 0.41400003
-0.062788621 0.16150829 0.41400003
-0.06206274 0.16150829 0.41400003
-0.061188702 0.16111818 0.41300002
-0.060318172 0.16072807 0.41200003
-0.059595801 0.16072807 0.41200003
-0.058730531 0.16033795 0.41100001
-0.058009911 0.16033795 0.41100001
-0.057149898 0.15994783 0.41000003
-0.056431033 0.15994783 0.41000003
-0.055712167 0.15994783 0.41000003
-0.055127431 0.16033795 0.41100001
-0.054406811 0.16033795 0.41100001
-0.05368619 0.16033795 0.41100001
-0.052836701 0.15994783 0.41000003
-0.052117832 0.15994783 0.41000003
-0.051398966 0.15994783 0.41000003
-0.05080371 0.16033795 0.41100001
-0.050204948 0.16072807 0.41200003
-0.049482573 0.16072807 0.41200003
-0.048641849 0.16033795 0.41100001
-0.048037827 0.16072807 0.41200003
-0.047315452 0.16072807 0.41200003
-0.0463669 0.15994783 0.41000003
-0.045648035 0.15994783 0.41000003
-0.044819582 0.15955772 0.40900001
-0.043886811 0.15877748 0.40700001
-0.043173201 0.15877748 0.40700001
-0.042459596 0.15877748 0.40700001
-0.041951131 0.15955772 0.40900001
-0.041234016 0.15955772 0.40900001
-0.040814094 0.16072807 0.41200003
-0.039897099 0.15994783 0.41000003
-0.039178234 0.15994783 0.41000003
-0.038553171 0.16033795 0.41100001
-0.034396015 0.16111818 0.41300002
-0.033671889 0.16111818 0.41300002
-0.032867987 0.16072807 0.41200003
-0.032067589 0.16033795 0.41100001
-0.031346969 0.16033795 0.41100001
-0.030700866 0.16072807 0.41200003
-0.029978493 0.16072807 0.41200003
-0.02932713 0.16111818 0.41300002
-0.028603002 0.16111818 0.41300002
-0.02774387 0.16033795 0.41100001
-0.02702325 0.16033795 0.41100001
-0.026366627 0.16072807 0.41200003
-0.025644254 0.16072807 0.41200003
-0.02498237 0.16111818 0.41300002
-0.024258243 0.16111818 0.41300002
-0.023420149 0.16033795 0.41100001
-0.022699529 0.16033795 0.41100001
-0.022032386 0.16072807 0.41200003
-0.021361737 0.16111818 0.41300002
-0.02058764 0.16072807 0.41200003
-0.019865267 0.16072807 0.41200003
-0.019142894 0.16072807 0.41200003
-0.018420519 0.16072807 0.41200003
-0.017698146 0.16072807 0.41200003
-0.01693457 0.16033795 0.41100001
-0.016174501 0.15994783 0.41000003
-0.015455633 0.15994783 0.41000003
-0.014772709 0.16033795 0.41100001
-0.01405209 0.16033795 0.41100001
-0.01333147 0.16033795 0.41100001
-0.01261085 0.16033795 0.41100001
-0.01189023 0.16033795 0.41100001
-0.01116961 0.16033795 0.41100001
-0.010474414 0.16072807 0.41200003
-0.0097520398 0.16072807 0.41200003
-0.0090734996 0.16150829 0.41400003
-0.0083476203 0.16150829 0.41400003
-0.00762174 0.16150829 0.41400003
-0.0068958597 0.16150829 0.41400003
-0.0061848834 0.16189842 0.41500002
-0.0054572499 0.16189842 0.41500002
-0.0047068233 0.16111818 0.41300002
-0.0039730533 0.16072807 0.41200003
-0.00327435 0.16189842 0.41500002
-0.00036381665 0.16189842 0.41500002
0.00036293999 0.16150829 0.41400003
0.00108619 0.16111818 0.41300002
0.0018147 0.16150829 0.41400003
0.00254058 0.16150829 0.41400003
0.00326646 0.16150829 0.41400003
0.0039826967 0.16111818 0.41300002
0.0046840301 0.16033795 0.41100001
0.0054178 0.16072807 0.41200003
0.0061252699 0.16033795 0.41100001
0.0068458901 0.16033795 0.41100001
0.0075296899 0.15955772 0.40900001
0.0082669668 0.15994783 0.41000003
0.0090077501 0.16033795 0.41100001
0.0097046997 0.15994783 0.41000003
0.01044899 0.16033795 0.41100001
0.011196787 0.16072807 0.41200003
0.01194809 0.16111818 0.41300002
0.012672217 0.16111818 0.41300002
0.013396343 0.16111818 0.41300002
0.01415466 0.16150829 0.41400003
0.014844596 0.16111818 0.41300002
0.015568723 0.16111818 0.41300002
0.022139341 0.16150829 0.41400003
0.022865219 0.16150829 0.41400003
0.023591099 0.16150829 0.41400003
0.028533746 0.16072807 0.41200003
0.02932713 0.16111818 0.41300002
0.030051256 0.16111818 0.41300002
0.030700866 0.16072807 0.41200003
0.031423241 0.16072807 0.41200003
0.032145612 0.16072807 0.41200003
0.032947764 0.16111818 0.41300002
0.033671889 0.16111818 0.41300002
0.03422945 0.16033795 0.41100001
0.03495007 0.16033795 0.41100001
0.03567069 0.16033795 0.41100001
0.036302768 0.15994783 0.41000003
0.036841039 0.1591676 0.40800002
0.037648451 0.15955772 0.40900001
0.038553171 0.16033795 0.41100001
0.039369345 0.16072807 0.41200003
0.040091719 0.16072807 0.41200003
0.041309409 0.16267864 0.41700003
0.041939732 0.16228853 0.41600001
0.04225884 0.16072807 0.41200003
0.042981215 0.16072807 0.41200003
0.043597508 0.16033795 0.41100001
0.0442103 0.15994783 0.41000003
0.044929165 0.15994783 0.41000003
0.045648035 0.15994783 0.41000003
0.046479989 0.16033795 0.41100001
0.047200609 0.16033795 0.41100001
0.047921229 0.16033795 0.41100001
0.048760198 0.16072807 0.41200003
0.04972278 0.16150829 0.41400003
0.050326802 0.16111818 0.41300002
0.05117454 0.16150829 0.41400003
0.051649693 0.16072807 0.41200003
0.052372068 0.16072807 0.41200003
0.052836701 0.15994783 0.41000003
0.053555567 0.15994783 0.41000003
0.05526156 0.16072807 0.41200003
0.056706306 0.16072807 0.41200003
0.05742868 0.16072807 0.41200003
0.058009911 0.16033795 0.41100001
0.058873426 0.16072807 0.41200003
0.059595801 0.16072807 0.41200003
0.060318172 0.16072807 0.41200003
0.061040547 0.16072807 0.41200003
0.061912831 0.16111818 0.41300002
0.062940285 0.16189842 0.41500002
0.063667916 0.16189842 0.41500002
0.064240381 0.16150829 0.41400003
0.064966261 0.16150829 0.41400003
0.065533467 0.16111818 0.41300002
0.066418022 0.16150829 0.41400003
0.066981718 0.16111818 0.41300002
0.06770584 0.16111818 0.41300002
0.068264283 0.16072807 0.41200003
0.068986654 0.16072807 0.41200003
0.06953983 0.16033795 0.41100001
0.07026045 0.16033795 0.41100001
0.070808366 0.15994783 0.41000003
0.07135278 0.15955772 0.40900001
0.072422311 0.16033795 0.41100001
0.072964966 0.15994783 0.41000003
0.073863551 0.16033795 0.41100001
0.074584171 0.16033795 0.41100001
0.075488016 0.16072807 0.41200003
0.076395363 0.16111818 0.41300002
0.077119492 0.16111818 0.41300002
0.077655129 0.16072807 0.41200003
0.078757979 0.16150829 0.41400003
0.079483859 0.16150829 0.41400003
0.08020974 0.16150829 0.41400003
0.080740124 0.16111818 0.41300002
0.081266999 0.16072807 0.41200003
0.08198937 0.16072807 0.41200003
0.082711749 0.16072807 0.41200003
0.083636627 0.16111818 0.41300002
0.084360756 0.16111818 0.41300002
0.085084885 0.16111818 0.41300002
0.086016782 0.16150829 0.41400003
0.087161705 0.16228853 0.41600001
0.087891094 0.16228853 0.41600001
0.088194422 0.16150829 0.41400003
0.088705517 0.16111818 0.41300002
0.089213103 0.16072807 0.41200003
0.089935482 0.16072807 0.41200003
0.090877898 0.16111818 0.41300002
0.09160202 0.16111818 0.41300002
0.091879047 0.16033795 0.41100001
0.093050279 0.16111818 0.41300002
0.093774401 0.16111818 0.41300002
0.094269723 0.16072807 0.41200003
0.094992094 0.16072807 0.41200003
0.095714465 0.16072807 0.41200003
0.096436836 0.16072807 0.41200003
0.097630858 0.16150829 0.41400003
0.098594315 0.16189842 0.41500002
0.099321947 0.16189842 0.41500002
0.10004959 0.16189842 0.41500002
0.10077722 0.16189842 0.41500002
0.10174944 0.16228853 0.41600001
0.10198614 0.16150829 0.41400003
0.10271202 0.16150829 0.41400003
0.1034379 0.16150829 0.41400003
0.10416378 0.16150829 0.41400003
0.10488966 0.16150829 0.41400003
0.10587065 0.16189842 0.41500002
0.10659828 0.16189842 0.41500002
0.10732592 0.16189842 0.41500002
0.10831392 0.16228853 0.41600001
0.10930543 0.16267864 0.41700003
0.11003657 0.16267864 0.41700003
0.11076771 0.16267864 0.41700003
0.11149885 0.16267864 0.41700003
0.11196085 0.16228853 0.41600001
