# .PCD v0.7 - Point Cloud Data file format
VERSION 0.7
FIELDS x y z
SIZE 4 4 4
TYPE F F F
COUNT 1 1 1
WIDTH 758
HEIGHT 1
VIEWPOINT 0 0 0 1 0 0 0
POINTS 758
DATA ascii
-0.33628932 -0.85513574 2.1920002
-0.33199105 -0.8539654 2.1890001
-0.3284528 -0.85474563 2.1910002
-0.33628932 -0.85129243 2.1920002
-0.33214271 -0.85051572 2.1900001
-0.32860273 -0.85129243 2.1920002
-0.33229437 -0.84706253 2.1910002
-0.32860273 -0.84744912 2.1920002
-0.33244604 -0.84360582 2.1920002
-0.32860273 -0.84360582 2.1920002
-0.30721557 -0.8482241 2.204
-0.30307594 -0.84745437 2.2020001
-0.33628932 -0.83976251 2.1920002
-0.33244604 -0.83976251 2.1920002
-0.32860273 -0.83976251 2.1920002
-0.31537294 -0.84550905 2.207
-0.31150332 -0.84550905 2.207
-0.30763373 -0.84550905 2.207
-0.30348885 -0.84474283 2.2050002
-0.34013262 -0.8359192 2.1920002
-0.33628932 -0.8359192 2.1920002
-0.33244604 -0.8359192 2.1920002
-0.32860273 -0.8359192 2.1920002
-0.32475942 -0.8359192 2.1920002
-0.31537294 -0.84163946 2.207
-0.31150332 -0.84163946 2.207
-0.30763373 -0.84163946 2.207
-0.30307594 -0.83973271 2.2020001
-0.34013262 -0.83207589 2.1920002
-0.33628932 -0.83207589 2.1920002
-0.33244604 -0.83207589 2.1920002
-0.32860273 -0.83207589 2.1920002
-0.32475942 -0.83207589 2.1920002
-0.31880859 -0.83663106 2.204
-0.31465846 -0.83587188 2.2020001
-0.31122103 -0.83701062 2.2050002
-0.30735496 -0.83701062 2.2050002
-0.34013262 -0.82823259 2.1920002
-0.33628932 -0.82823259 2.1920002
-0.33244604 -0.82823259 2.1920002
-0.32860273 -0.82823259 2.1920002
-0.32475942 -0.82823259 2.1920002
-0.32003769 -0.82596552 2.1860001
-0.31851929 -0.83201104 2.2020001
-0.31437266 -0.83125532 2.2
-0.31051534 -0.83125532 2.2
-0.33628932 -0.82438928 2.1920002
-0.33244604 -0.82438928 2.1920002
-0.32860273 -0.82438928 2.1920002
-0.32475942 -0.82438928 2.1920002
-0.31930566 -0.8202523 2.181
-0.31779605 -0.82626975 2.197
-0.31394398 -0.82626975 2.197
-0.31009191 -0.82626975 2.197
-0.33244604 -0.82054597 2.1920002
-0.32860273 -0.82054597 2.1920002
-0.32683361 -0.82578671 2.2060001
-0.32179451 -0.82279199 2.1980002
-0.31794071 -0.82279199 2.1980002
-0.31437266 -0.82354069 2.2
-0.3103742 -0.82316631 2.1990001
-0.33244604 -0.81670266 2.1920002
-0.32860273 -0.81670266 2.1920002
-0.32683361 -0.82191885 2.2060001
-0.32208732 -0.81968331 2.2
-0.31837463 -0.8200559 2.2010002
-0.31437266 -0.81968331 2.2
-0.31065649 -0.8200559 2.2010002
-0.32860273 -0.81285936 2.1920002
-0.32683361 -0.81805098 2.2060001
-0.32223374 -0.8161968 2.2010002
-0.31851929 -0.81656766 2.2020001
-0.31465846 -0.81656766 2.2020001
-0.31079763 -0.81656766 2.2020001
-0.33070147 -0.81418312 2.2060001
-0.32683361 -0.81418312 2.2060001
-0.32208732 -0.81196868 2.2
-0.31837463 -0.81233776 2.2010002
-0.31465846 -0.81270683 2.2020001
-0.33070147 -0.81031525 2.2060001
-0.32683361 -0.81031525 2.2060001
-0.32267293 -0.80958062 2.204
-0.31880859 -0.80958062 2.204
-0.31494424 -0.80958062 2.204
-0.31065649 -0.80847865 2.2010002
-0.33070147 -0.80644739 2.2060001
-0.32683361 -0.80644739 2.2060001
-0.32281935 -0.80608183 2.2050002
-0.31895325 -0.80608183 2.2050002
-0.31437266 -0.804254 2.2
-0.31079763 -0.80498511 2.2020001
-0.32683361 -0.80257958 2.2060001
-0.32296574 -0.80257958 2.2060001
-0.31909791 -0.80257958 2.2060001
-0.31465846 -0.80112427 2.2020001
-0.31093878 -0.8014881 2.2030001
-0.30693677 -0.80112427 2.2020001
-0.32683361 -0.79871172 2.2060001
-0.31508714 -0.79834962 2.2050002
-0.31107992 -0.79798758 2.204
-0.30721557 -0.79798758 2.204
-0.32683361 -0.79484385 2.2060001
-0.31494424 -0.79412323 2.204
-0.31065649 -0.7930423 2.2010002
-0.30679739 -0.7930423 2.2010002
-0.32683361 -0.79097599 2.2060001
-0.31422976 -0.7884661 2.1990001
-0.30995077 -0.78739041 2.1960001
-0.31437266 -0.7849673 2.2
-0.31051534 -0.7849673 2.2
-0.32311216 -0.78359532 2.207
-0.3193872 -0.78395039 2.2080002
-0.31508714 -0.78288525 2.2050002
-0.31150332 -0.78359532 2.207
-0.32325855 -0.78007901 2.2080002
-0.3193872 -0.78007901 2.2080002
-0.31565875 -0.78043234 2.2090001
-0.31178561 -0.78043234 2.2090001
-0.32325855 -0.77620769 2.2080002
-0.3193872 -0.77620769 2.2080002
-0.31565875 -0.77655923 2.2090001
-0.31164446 -0.77620769 2.2080002
-0.32311216 -0.77198654 2.207
-0.31953186 -0.77268612 2.2090001
-0.31580162 -0.77303588 2.21
-0.32296574 -0.76776886 2.2060001
-0.3193872 -0.76846498 2.2080002
-0.31565875 -0.76881301 2.2090001
-0.32472259 -0.74472308 2.2180002
-0.34447739 -0.68700862 2.22
-0.34447739 -0.6831162 2.22
-0.34447739 -0.67922378 2.22
-0.34836981 -0.67533141 2.22
-0.3213746 -0.66443706 2.2490001
-0.31743136 -0.66443706 2.2490001
-0.31334871 -0.6641416 2.2480001
-0.3216604 -0.66108119 2.2510002
-0.31771365 -0.66108119 2.2510002
-0.31334871 -0.66020012 2.2480001
-0.30940723 -0.66020012 2.2480001
-0.30546573 -0.66020012 2.2480001
-0.31743136 -0.65655059 2.2490001
-0.31306994 -0.65567476 2.2460001
-0.30913195 -0.65567476 2.2460001
-0.30519396 -0.65567476 2.2460001
-0.30125597 -0.65567476 2.2460001
-0.32690901 -0.65579927 2.26
-0.31700793 -0.6517368 2.2460001
-0.31306994 -0.6517368 2.2460001
-0.30913195 -0.6517368 2.2460001
-0.30519396 -0.6517368 2.2460001
-0.30125597 -0.6517368 2.2460001
-0.32705364 -0.65212518 2.2610002
-0.31700793 -0.64779878 2.2460001
-0.31306994 -0.64779878 2.2460001
-0.30926958 -0.6480872 2.2470002
-0.30519396 -0.64779878 2.2460001
-0.31306994 -0.64386082 2.2460001
-0.30926958 -0.64414752 2.2470002
-0.30519396 -0.64386082 2.2460001
-0.31743136 -0.64077759 2.2490001
-0.31334871 -0.64049268 2.2480001
-0.33527854 -0.62492746 2.263
-0.33131075 -0.62492746 2.263
-0.34488067 -0.6168437 2.2480001
-0.34321412 -0.62095964 2.263
-0.33924633 -0.62095964 2.263
-0.33527854 -0.62095964 2.263
-0.33131075 -0.62095964 2.263
-0.35276365 -0.61290222 2.2480001
-0.34882215 -0.61290222 2.2480001
-0.34488067 -0.61290222 2.2480001
-0.34093916 -0.61290222 2.2480001
-0.33699769 -0.61290222 2.2480001
-0.33527854 -0.61699188 2.263
-0.33131075 -0.61699188 2.263
-0.34944284 -0.6100443 2.2520001
-0.35840061 -0.58166659 2.2340002
-0.35448366 -0.58166659 2.2340002
-0.35056672 -0.58166659 2.2340002
-0.34664977 -0.58166659 2.2340002
-0.35464236 -0.57800823 2.2350001
-0.35276365 -0.57742876 2.2480001
-0.35638779 -0.57297707 2.2460001
-0.35276365 -0.57348728 2.2480001
-0.34093916 -0.56954581 2.2480001
-0.33699769 -0.56954581 2.2480001
-0.34093916 -0.56560427 2.2480001
-0.33699769 -0.56560427 2.2480001
-0.33305618 -0.56560427 2.2480001
-0.33699769 -0.56166279 2.2480001
-0.33305618 -0.56166279 2.2480001
-0.32911471 -0.56166279 2.2480001
-0.33305618 -0.55772132 2.2480001
-0.32911471 -0.55772132 2.2480001
-0.33305618 -0.5498383 2.2480001
-0.32911471 -0.5498383 2.2480001
-0.33513036 -0.54929656 2.2620001
-0.33116433 -0.54929656 2.2620001
-0.3271983 -0.54929656 2.2620001
-0.35496059 -0.54533052 2.2620001
-0.35083938 -0.54508942 2.2610002
-0.34672168 -0.54484832 2.26
-0.33513036 -0.54533052 2.2620001
-0.33116433 -0.54533052 2.2620001
-0.3271983 -0.54533052 2.2620001
-0.35480365 -0.54112512 2.2610002
-0.35083938 -0.54112512 2.2610002
-0.34687507 -0.54112512 2.2610002
-0.34306246 -0.54136443 2.2620001
-0.33909643 -0.54136443 2.2620001
-0.33513036 -0.54136443 2.2620001
-0.33116433 -0.54136443 2.2620001
-0.3271983 -0.54136443 2.2620001
-0.35496059 -0.5373984 2.2620001
-0.35099453 -0.5373984 2.2620001
-0.34687507 -0.53716081 2.2610002
-0.34306246 -0.5373984 2.2620001
-0.33909643 -0.5373984 2.2620001
-0.33513036 -0.5373984 2.2620001
-0.33116433 -0.5373984 2.2620001
-0.3271983 -0.5373984 2.2620001
-0.35496059 -0.53343236 2.2620001
-0.35099453 -0.53343236 2.2620001
-0.34687507 -0.53319657 2.2610002
-0.34306246 -0.53343236 2.2620001
-0.33909643 -0.53343236 2.2620001
-0.33305618 -0.53013086 2.2480001
-0.35860926 -0.5289982 2.26
-0.35480365 -0.52923226 2.2610002
-0.33305618 -0.52618933 2.2480001
-0.33804706 -0.5238741 2.2550001
-0.33305618 -0.52224785 2.2480001
-0.33305618 -0.51830637 2.2480001
-0.36702088 -0.51382923 2.263
-0.36305308 -0.51382923 2.263
-0.34321412 -0.51382923 2.263
-0.33924633 -0.51382923 2.263
-0.36702088 -0.50986147 2.263
-0.36305308 -0.50986147 2.263
-0.34321412 -0.50986147 2.263
-0.33924633 -0.50986147 2.263
-0.36702088 -0.50589365 2.263
-0.36305308 -0.50589365 2.263
-0.34321412 -0.50589365 2.263
-0.33924633 -0.50589365 2.263
-0.36702088 -0.50192583 2.263
-0.34718192 -0.50192583 2.263
-0.34321412 -0.50192583 2.263
-0.33924633 -0.50192583 2.263
-0.34718192 -0.49795806 2.263
-0.34321412 -0.49795806 2.263
-0.33924633 -0.49795806 2.263
-0.36305308 -0.49399027 2.263
-0.34702849 -0.49377197 2.2620001
-0.34321412 -0.49399027 2.263
-0.36305308 -0.49002248 2.263
-0.35908529 -0.49002248 2.263
-0.34718192 -0.49002248 2.263
-0.34321412 -0.49002248 2.263
-0.36305308 -0.48605469 2.263
-0.35908529 -0.48605469 2.263
-0.34718192 -0.48605469 2.263
-0.34321412 -0.48605469 2.263
-0.36305308 -0.4820869 2.263
-0.35908529 -0.4820869 2.263
-0.34718192 -0.4820869 2.263
-0.34321412 -0.4820869 2.263
-0.37115261 -0.47833037 2.2640002
-0.36702088 -0.47811911 2.263
-0.34702849 -0.47790781 2.2620001
-0.34533742 -0.48107696 2.2770002
-0.34104526 -0.48065442 2.2750001
-0.37115261 -0.47436082 2.2640002
-0.36702088 -0.47415131 2.263
-0.34533742 -0.47708464 2.2770002
-0.34089532 -0.47645605 2.2740002
-0.36702088 -0.47018352 2.263
-0.35347727 -0.47330007 2.2780001
-0.34948316 -0.47330007 2.2780001
-0.37131655 -0.46662775 2.2650001
-0.36750743 -0.46683377 2.266
-0.36594084 -0.469924 2.2810001
-0.36162412 -0.46951199 2.279
-0.35762829 -0.46951199 2.279
-0.35394278 -0.469924 2.2810001
-0.37148049 -0.4628607 2.266
-0.36750743 -0.4628607 2.266
-0.36594084 -0.46592465 2.2810001
-0.35394278 -0.46592465 2.2810001
-0.36594084 -0.4619253 2.2810001
-0.35956132 -0.45888767 2.266
-0.35558826 -0.45888767 2.266
-0.35394278 -0.4619253 2.2810001
-0.36594084 -0.45792595 2.2810001
-0.35956132 -0.4549146 2.266
-0.35558826 -0.4549146 2.266
-0.35956132 -0.45094156 2.266
-0.35558826 -0.45094156 2.266
-0.35363242 -0.43354937 2.279
-0.34419337 -0.43678337 2.296
-0.38526082 -0.42917654 2.2770002
-0.38277546 -0.43087289 2.286
-0.37926441 -0.43143836 2.289
-0.36786598 -0.43219227 2.2930002
-0.36384559 -0.43219227 2.2930002
-0.35982519 -0.43219227 2.2930002
-0.3558048 -0.43219227 2.2930002
-0.35178441 -0.43219227 2.2930002
-0.34776402 -0.43219227 2.2930002
-0.34374362 -0.43219227 2.2930002
-0.33972323 -0.43219227 2.2930002
-0.38475323 -0.42462403 2.2740002
-0.38210568 -0.42611787 2.2820001
-0.37876734 -0.42686477 2.286
-0.37541497 -0.42761171 2.2900002
-0.36786598 -0.42817187 2.2930002
-0.36384559 -0.42817187 2.2930002
-0.35982519 -0.42817187 2.2930002
-0.3558048 -0.42817187 2.2930002
-0.35178441 -0.42817187 2.2930002
-0.34776402 -0.42817187 2.2930002
-0.34374362 -0.42817187 2.2930002
-0.33972323 -0.42817187 2.2930002
-0.33570284 -0.42817187 2.2930002
-0.39238197 -0.42026699 2.2720001
-0.38475323 -0.42063695 2.2740002
-0.38076612 -0.42063695 2.2740002
-0.37677905 -0.42063695 2.2740002
-0.37590677 -0.42415148 2.2930002
-0.37188637 -0.42415148 2.2930002
-0.36786598 -0.42415148 2.2930002
-0.36384559 -0.42415148 2.2930002
-0.35982519 -0.42415148 2.2930002
-0.3558048 -0.42415148 2.2930002
-0.35178441 -0.42415148 2.2930002
-0.34776402 -0.42415148 2.2930002
-0.33972323 -0.42415148 2.2930002
-0.39255467 -0.41646662 2.273
-0.3887403 -0.41664985 2.2740002
-0.38729116 -0.41939822 2.289
-0.38327777 -0.41939822 2.289
-0.37926441 -0.41939822 2.289
-0.37590677 -0.42013109 2.2930002
-0.37188637 -0.42013109 2.2930002
-0.35982519 -0.42013109 2.2930002
-0.3558048 -0.42013109 2.2930002
-0.35178441 -0.42013109 2.2930002
-0.34776402 -0.42013109 2.2930002
-0.34374362 -0.42013109 2.2930002
-0.39255467 -0.41248131 2.273
-0.3887403 -0.41266277 2.2740002
-0.38729116 -0.41538483 2.289
-0.38327777 -0.41538483 2.289
-0.37926441 -0.41538483 2.289
-0.37590677 -0.41611069 2.2930002
-0.37188637 -0.41611069 2.2930002
-0.35982519 -0.41611069 2.2930002
-0.3558048 -0.41611069 2.2930002
-0.35178441 -0.41611069 2.2930002
-0.34776402 -0.41611069 2.2930002
-0.34374362 -0.41611069 2.2930002
-0.3887403 -0.4086757 2.2740002
-0.38746035 -0.41155118 2.2900002
-0.38327777 -0.41137144 2.289
-0.37926441 -0.41137144 2.289
-0.37590677 -0.4120903 2.2930002
-0.35982519 -0.4120903 2.2930002
-0.3558048 -0.4120903 2.2930002
-0.35178441 -0.4120903 2.2930002
-0.34776402 -0.4120903 2.2930002
-0.34374362 -0.4120903 2.2930002
-0.3887403 -0.40468863 2.2740002
-0.38729116 -0.40735808 2.289
-0.38327777 -0.40735808 2.289
-0.37926441 -0.40735808 2.289
-0.37590677 -0.40806991 2.2930002
-0.35982519 -0.40806991 2.2930002
-0.3558048 -0.40806991 2.2930002
-0.34374362 -0.40806991 2.2930002
-0.39186385 -0.39982048 2.2690001
-0.3887403 -0.40070152 2.2740002
-0.38327777 -0.40334469 2.289
-0.3558048 -0.40404952 2.2930002
-0.34374362 -0.40404952 2.2930002
-0.3887403 -0.39671445 2.2740002
-0.3558048 -0.40002912 2.2930002
-0.35178441 -0.40002912 2.2930002
-0.34761235 -0.39985469 2.2920001
-0.34374362 -0.40002912 2.2930002
-0.33972323 -0.40002912 2.2930002
-0.39130455 -0.39531794 2.289
-0.38729116 -0.39531794 2.289
-0.35178441 -0.39600873 2.2930002
-0.34761235 -0.39583603 2.2920001
-0.34374362 -0.39600873 2.2930002
-0.33972323 -0.39600873 2.2930002
-0.33570284 -0.39600873 2.2930002
-0.39130455 -0.39130455 2.289
-0.34761235 -0.39181739 2.2920001
-0.34374362 -0.39198834 2.2930002
-0.33972323 -0.39198834 2.2930002
-0.33570284 -0.39198834 2.2930002
-0.39130455 -0.38729116 2.289
-0.34359372 -0.38779876 2.2920001
-0.33957508 -0.38779876 2.2920001
-0.39272738 -0.38076612 2.2740002
-0.39130455 -0.38327777 2.289
-0.39671445 -0.37677905 2.2740002
-0.39255467 -0.37661338 2.273
-0.38999832 -0.38191545 2.3050001
-0.39636555 -0.37246409 2.2720001
-0.39220926 -0.37230018 2.2710001
-0.39335594 -0.37721828 2.3010001
-0.38982913 -0.37771007 2.3040001
-0.38612431 -0.37803796 2.306
-0.39335594 -0.37318385 2.3010001
-0.38982913 -0.3736704 2.3040001
-0.38612431 -0.37399477 2.306
-0.38224682 -0.37415695 2.3070002
-0.39479983 -0.36674297 2.286
-0.39335594 -0.36914942 2.3010001
-0.38982913 -0.36963072 2.3040001
-0.38612431 -0.36995158 2.306
-0.38224682 -0.370112 2.3070002
-0.35469934 -0.37091416 2.312
-0.35064563 -0.37091416 2.312
-0.34659192 -0.37091416 2.312
-0.3384845 -0.37091416 2.312
-0.39479983 -0.36273485 2.286
-0.37075374 -0.36670178 2.3110001
-0.36622575 -0.36622575 2.3080001
-0.36312059 -0.36717781 2.3140001
-0.35875303 -0.36686045 2.312
-0.35469934 -0.36686045 2.312
-0.35064563 -0.36686045 2.312
-0.34659192 -0.36686045 2.312
-0.34120479 -0.36543235 2.3030002
-0.3384845 -0.36686045 2.312
-0.33443078 -0.36686045 2.312
-0.3303771 -0.36686045 2.312
-0.39704496 -0.36076674 2.299
-0.39301404 -0.36076674 2.299
-0.38949072 -0.3612375 2.302
-0.38578942 -0.36155134 2.3040001
-0.36312059 -0.36312059 2.3140001
-0.35890821 -0.36296368 2.3130002
-0.35469934 -0.36280674 2.312
-0.35064563 -0.36280674 2.312
-0.34464309 -0.36076674 2.299
-0.34105664 -0.3612375 2.302
-0.3384845 -0.36280674 2.312
-0.33443078 -0.36280674 2.312
-0.3303771 -0.36280674 2.312
-0.39215928 -0.35595998 2.2940001
-0.38847554 -0.35627031 2.296
-0.38578942 -0.35751167 2.3040001
-0.36717781 -0.35906339 2.3140001
-0.36312059 -0.35906339 2.3140001
-0.35890821 -0.35890821 2.3130002
-0.35469934 -0.35875303 2.312
-0.35064563 -0.35875303 2.312
-0.34659192 -0.35875303 2.312
-0.34253821 -0.35875303 2.312
-0.3384845 -0.35875303 2.312
-0.33443078 -0.35875303 2.312
-0.3303771 -0.35875303 2.312
-0.39198834 -0.35178441 2.2930002
-0.38779876 -0.35163099 2.2920001
-0.38394755 -0.35178441 2.2930002
-0.38125268 -0.35301176 2.3010001
-0.37091416 -0.35469934 2.312
-0.36686045 -0.35469934 2.312
-0.36280674 -0.35469934 2.312
-0.35875303 -0.35469934 2.312
-0.35469934 -0.35469934 2.312
-0.35064563 -0.35469934 2.312
-0.34659192 -0.35469934 2.312
-0.34253821 -0.35469934 2.312
-0.3384845 -0.35469934 2.312
-0.33443078 -0.35469934 2.312
-0.39198834 -0.34776402 2.2930002
-0.38779876 -0.34761235 2.2920001
-0.38394755 -0.34776402 2.2930002
-0.38174975 -0.34943232 2.3040001
-0.37091416 -0.35064563 2.312
-0.36686045 -0.35064563 2.312
-0.36280674 -0.35064563 2.312
-0.35875303 -0.35064563 2.312
-0.35469934 -0.35064563 2.312
-0.35064563 -0.35064563 2.312
-0.34659192 -0.35064563 2.312
-0.34253821 -0.35064563 2.312
-0.3384845 -0.35064563 2.312
-0.33443078 -0.35064563 2.312
-0.37091416 -0.34659192 2.312
-0.36686045 -0.34659192 2.312
-0.36280674 -0.34659192 2.312
-0.35875303 -0.34659192 2.312
-0.35469934 -0.34659192 2.312
-0.35064563 -0.34659192 2.312
-0.34659192 -0.34659192 2.312
-0.34253821 -0.34659192 2.312
-0.3384845 -0.34659192 2.312
-0.37496787 -0.34253821 2.312
-0.37091416 -0.34253821 2.312
-0.36670178 -0.34239006 2.3110001
-0.36280674 -0.34253821 2.312
-0.35875303 -0.34253821 2.312
-0.35469934 -0.34253821 2.312
-0.35064563 -0.34253821 2.312
-0.34659192 -0.34253821 2.312
-0.34253821 -0.34253821 2.312
-0.3384845 -0.34253821 2.312
-0.37836581 -0.33789888 2.3080001
-0.37431914 -0.33789888 2.3080001
-0.37027243 -0.33789888 2.3080001
-0.36622575 -0.33789888 2.3080001
-0.36280674 -0.3384845 2.312
-0.35875303 -0.3384845 2.312
-0.35469934 -0.3384845 2.312
-0.35064563 -0.3384845 2.312
-0.34659192 -0.3384845 2.312
-0.34253821 -0.3384845 2.312
-0.3384845 -0.3384845 2.312
-0.37836581 -0.3338522 2.3080001
-0.37431914 -0.3338522 2.3080001
-0.37027243 -0.3338522 2.3080001
-0.36622575 -0.3338522 2.3080001
-0.36280674 -0.33443078 2.312
-0.35875303 -0.33443078 2.312
-0.35469934 -0.33443078 2.312
-0.35064563 -0.33443078 2.312
-0.34659192 -0.33443078 2.312
-0.34253821 -0.33443078 2.312
-0.37836581 -0.32980549 2.3080001
-0.3746435 -0.3300913 2.3100002
-0.37027243 -0.32980549 2.3080001
-0.36622575 -0.32980549 2.3080001
-0.36280674 -0.3303771 2.312
-0.35875303 -0.3303771 2.312
-0.35469934 -0.3303771 2.312
-0.35064563 -0.3303771 2.312
-0.34659192 -0.3303771 2.312
-0.34253821 -0.3303771 2.312
-0.3786937 -0.3260411 2.3100002
-0.37480569 -0.32618225 2.3110001
-0.37059331 -0.3260411 2.3100002
-0.36654308 -0.3260411 2.3100002
-0.36296368 -0.32646453 2.3130002
-0.35906339 -0.32660568 2.3140001
-0.35500616 -0.32660568 2.3140001
-0.35094896 -0.32660568 2.3140001
-0.34644201 -0.32618225 2.3110001
-0.38224682 -0.32157272 2.3070002
-0.37885764 -0.32213029 2.3110001
-0.37480569 -0.32213029 2.3110001
-0.37075374 -0.32213029 2.3110001
-0.36670178 -0.32213029 2.3110001
-0.36264983 -0.32213029 2.3110001
-0.35890821 -0.32240906 2.3130002
-0.35485274 -0.32240906 2.3130002
-0.35049397 -0.32213029 2.3110001
-0.34599227 -0.32171211 2.3080001
-0.38224682 -0.3175278 2.3070002
-0.3786937 -0.31794071 2.3100002
-0.3746435 -0.31794071 2.3100002
-0.37075374 -0.31807834 2.3110001
-0.36670178 -0.31807834 2.3110001
-0.36249289 -0.31794071 2.3100002
-0.35890821 -0.31835359 2.3130002
-0.35500616 -0.31849125 2.3140001
-0.35307223 -0.32041815 2.3280001
-0.34869066 -0.32014289 2.3260002
-0.38224682 -0.31348285 2.3070002
-0.3786937 -0.31389049 2.3100002
-0.37480569 -0.31402639 2.3110001
-0.37075374 -0.31402639 2.3110001
-0.36670178 -0.31402639 2.3110001
-0.36249289 -0.31389049 2.3100002
-0.35890821 -0.31429815 2.3130002
-0.35500616 -0.31443402 2.3140001
-0.35307223 -0.31633639 2.3280001
-0.34839085 -0.31579286 2.3240001
-0.38224682 -0.3094379 2.3070002
-0.37885764 -0.30997443 2.3110001
-0.37545443 -0.31051093 2.3150001
-0.37107459 -0.31024268 2.3130002
-0.36670178 -0.30997443 2.3110001
-0.36249289 -0.30984029 2.3100002
-0.36108059 -0.3121205 2.3270001
-0.35715401 -0.31225464 2.3280001
-0.35292056 -0.3121205 2.3270001
-0.34809101 -0.31144986 2.322
-0.38629177 -0.30539298 2.3070002
-0.38257819 -0.30565771 2.309
-0.37902158 -0.30605486 2.312
-0.37348104 -0.30817288 2.3280001
-0.36908191 -0.30790812 2.3260002
-0.36500368 -0.30790812 2.3260002
-0.36092541 -0.30790812 2.3260002
-0.35684717 -0.30790812 2.3260002
-0.35216227 -0.30737862 2.322
-0.34689173 -0.30631959 2.3140001
-0.34298268 -0.30645198 2.3150001
-0.33936292 -0.30684912 2.3180001
-0.38629177 -0.30134803 2.3070002
-0.38257819 -0.30160928 2.309
-0.37902158 -0.30200115 2.312
-0.37723842 -0.30382988 2.3260002
-0.37316018 -0.30382988 2.3260002
-0.36844721 -0.30330738 2.322
-0.36453289 -0.30343801 2.3230002
-0.36092541 -0.30382988 2.3260002
-0.35669374 -0.30369925 2.325
-0.35246557 -0.30356863 2.3240001
-0.34644201 -0.30187052 2.3110001
-0.39033672 -0.29730308 2.3070002
-0.38629177 -0.29730308 2.3070002
-0.38224682 -0.29730308 2.3070002
-0.3786937 -0.29768971 2.3100002
-0.37723842 -0.29975161 2.3260002
-0.37316018 -0.29975161 2.3260002
-0.36908191 -0.29975161 2.3260002
-0.36500368 -0.29975161 2.3260002
-0.36061507 -0.29949388 2.3240001
-0.35669374 -0.29962274 2.325
-0.35261723 -0.29962274 2.325
-0.34629211 -0.29768971 2.3100002
-0.39033672 -0.29325816 2.3070002
-0.38629177 -0.29325816 2.3070002
-0.38224682 -0.29325816 2.3070002
-0.3786937 -0.29363951 2.3100002
-0.37723842 -0.29567337 2.3260002
-0.37267888 -0.29529202 2.3230002
-0.36860588 -0.29529202 2.3230002
-0.36468983 -0.29541913 2.3240001
-0.36061507 -0.29541913 2.3240001
-0.35669374 -0.29554623 2.325
-0.35216227 -0.29516491 2.322
-0.34629211 -0.29363951 2.3100002
-0.38880342 -0.29109365 2.322
-0.38473219 -0.29109365 2.322
-0.38131669 -0.2915951 2.3260002
-0.37691405 -0.29134437 2.3240001
-0.37267888 -0.29121903 2.3230002
-0.36860588 -0.29121903 2.3230002
-0.36453289 -0.29121903 2.3230002
-0.36045989 -0.29121903 2.3230002
-0.3563869 -0.29121903 2.3230002
-0.35231394 -0.29121903 2.3230002
-0.34644201 -0.28971466 2.3110001
-0.34342715 -0.29059219 2.3180001
-0.38880342 -0.28702241 2.322
-0.38473219 -0.28702241 2.322
-0.38131669 -0.28751686 2.3260002
-0.37675187 -0.28714603 2.3230002
-0.37267888 -0.28714603 2.3230002
-0.36860588 -0.28714603 2.3230002
-0.36453289 -0.28714603 2.3230002
-0.36045989 -0.28714603 2.3230002
-0.3563869 -0.28714603 2.3230002
-0.35231394 -0.28714603 2.3230002
-0.38880342 -0.28295118 2.322
-0.38473219 -0.28295118 2.322
-0.38131669 -0.28343859 2.3260002
-0.37675187 -0.28307304 2.3230002
-0.37267888 -0.28307304 2.3230002
-0.36844721 -0.28295118 2.322
-0.36374828 -0.28246376 2.3180001
-0.35577324 -0.28258562 2.319
-0.35170728 -0.28258562 2.319
-0.34416795 -0.28307304 2.3230002
-0.38880342 -0.27887994 2.322
-0.38473219 -0.27887994 2.322
-0.38131669 -0.27936035 2.3260002
-0.37675187 -0.27900004 2.3230002
-0.37267888 -0.27900004 2.3230002
-0.3563869 -0.27900004 2.3230002
-0.35231394 -0.27900004 2.3230002
-0.34809101 -0.27887994 2.322
-0.38880342 -0.2748087 2.322
-0.38473219 -0.2748087 2.322
-0.38115275 -0.27516374 2.325
-0.35592666 -0.27457199 2.3200002
-0.35201061 -0.27469036 2.3210001
-0.34809101 -0.2748087 2.322
-0.35999441 -0.27050427 2.3200002
-0.35592666 -0.27050427 2.3200002
-0.35185894 -0.27050427 2.3200002
-0.35983923 -0.26632169 2.319
-0.35592666 -0.26643652 2.3200002
-0.35216227 -0.2666662 2.322
-0.35999441 -0.2623688 2.3200002
-0.35561982 -0.26214263 2.3180001
-0.35216227 -0.26259497 2.322
-0.35999441 -0.25830108 2.3200002
-0.35561982 -0.2580784 2.3180001
-0.35216227 -0.25852373 2.322
-0.35983923 -0.25412375 2.319
-0.35546643 -0.25390458 2.3170002
-0.35201061 -0.25434291 2.3210001
-0.35999441 -0.25016561 2.3200002
-0.35623351 -0.25038126 2.322
-0.35216227 -0.25038126 2.322
-0.36437598 -0.24631003 2.322
-0.36014956 -0.24620394 2.3210001
-0.35623351 -0.24631003 2.322
-0.35216227 -0.24631003 2.322
-0.36453289 -0.2423431 2.3230002
-0.36045989 -0.2423431 2.3230002
-0.3563869 -0.2423431 2.3230002
-0.35246557 -0.24244742 2.3240001
-0.36860588 -0.2382701 2.3230002
-0.36468983 -0.23837268 2.3240001
-0.36061507 -0.23837268 2.3240001
-0.35654032 -0.23837268 2.3240001
-0.36876458 -0.23429793 2.3240001
-0.36484674 -0.23439875 2.325
-0.36077026 -0.23439875 2.325
-0.35684717 -0.23449956 2.3260002
-0.37299976 -0.23032224 2.325
-0.36939928 -0.23061945 2.3280001
-0.36547443 -0.23071851 2.329
-0.36139092 -0.23071851 2.329
-0.35700059 -0.23052038 2.3270001
-0.37299976 -0.22624575 2.325
-0.36939928 -0.22653767 2.3280001
-0.36547443 -0.22663499 2.329
-0.36139092 -0.22663499 2.329
-0.37251845 -0.22188258 2.322
-0.36908191 -0.22226481 2.3260002
-0.36547443 -0.22255148 2.329
-0.38164455 -0.21837416 2.3280001
-0.37561661 -0.21724851 2.3160002
-0.37235802 -0.21771753 2.3210001
-0.36860588 -0.21790515 2.3230002
-0.36531752 -0.21837416 2.3280001
-0.38115275 -0.21401624 2.325
-0.37187675 -0.2133719 2.3180001
-0.36860588 -0.21383215 2.3230002
-0.36340815 -0.2155811 2.342
-0.38082486 -0.20975916 2.3230002
-0.37788716 -0.21039124 2.3300002
-0.3749249 -0.21102332 2.3370001
-0.36340815 -0.21147479 2.342
-0.38180849 -0.20621742 2.329
-0.37918463 -0.20701431 2.3380001
-0.37556663 -0.20727994 2.3410001
-0.37146208 -0.20727994 2.3410001
-0.36798522 -0.20763412 2.345
-0.36387366 -0.20763412 2.345
-0.35960865 -0.20754558 2.3440001
-0.38279212 -0.20265464 2.335
-0.37967119 -0.2031754 2.3410001
-0.37556663 -0.2031754 2.3410001
-0.37162074 -0.20326218 2.342
-0.36387366 -0.20352255 2.345
