# .PCD v0.7 - Point Cloud Data file format
VERSION 0.7
FIELDS x y z
SIZE 4 4 4
TYPE F F F
COUNT 1 1 1
WIDTH 1456
HEIGHT 1
VIEWPOINT 0 0 0 1 0 0 0
POINTS 1456
DATA ascii
-0.26234251 -0.63711751 2.25
-0.2581678 -0.63655114 2.2480001
-0.25580958 -0.64051545 2.2620001
-0.25028482 -0.63655114 2.2480001
-0.24634333 -0.63655114 2.2480001
-0.2436958 -0.63994914 2.26
-0.23973326 -0.63994914 2.26
-0.23597938 -0.64051545 2.2620001
-0.23201334 -0.64051545 2.2620001
-0.22764403 -0.63938278 2.2580001
-0.22299156 -0.63740069 2.2510002
-0.2190448 -0.63740069 2.2510002
-0.21509805 -0.63740069 2.2510002
-0.21208933 -0.64023226 2.2610002
-0.2082171 -0.64051545 2.2620001
-0.20425107 -0.64051545 2.2620001
-0.20028502 -0.64051545 2.2620001
-0.19631898 -0.64051545 2.2620001
-0.19235294 -0.64051545 2.2620001
-0.18847018 -0.64079863 2.263
-0.18450239 -0.64079863 2.263
-0.18045482 -0.64051545 2.2620001
-0.17648877 -0.64051545 2.2620001
-0.17252274 -0.64051545 2.2620001
-0.16855671 -0.64051545 2.2620001
-0.16459066 -0.64051545 2.2620001
-0.16076665 -0.64108181 2.2640002
-0.15672784 -0.64079863 2.263
-0.15249003 -0.63966596 2.2590001
-0.148858 -0.64108181 2.2640002
-0.14488845 -0.64108181 2.2640002
-0.14091891 -0.64108181 2.2640002
-0.13767524 -0.64447975 2.276
-0.13374339 -0.64476293 2.2770002
-0.12975106 -0.64476293 2.2770002
-0.12658715 -0.64901036 2.2920001
-0.1219268 -0.64561242 2.2800002
-0.1179292 -0.64561242 2.2800002
-0.11378169 -0.64476293 2.2770002
-0.10978935 -0.64476293 2.2770002
-0.10570408 -0.64419657 2.2750001
-0.10180467 -0.64476293 2.2770002
-0.097812332 -0.64476293 2.2770002
-0.093778789 -0.64447975 2.276
-0.089709297 -0.64391339 2.2740002
-0.085722223 -0.64391339 2.2740002
-0.081735142 -0.64391339 2.2740002
-0.077850632 -0.64476293 2.2770002
-0.073858291 -0.64476293 2.2770002
-0.069835268 -0.64447975 2.276
-0.066278629 -0.64872718 2.2910001
-0.062234566 -0.64844406 2.2900002
-0.058244858 -0.64872718 2.2910001
-0.0542043 -0.64844406 2.2900002
-0.050167251 -0.64816087 2.289
-0.046174034 -0.64844406 2.2900002
-0.042177308 -0.64872718 2.2910001
-0.038193736 -0.64929354 2.2930002
-0.034173343 -0.64929354 2.2930002
-0.0301398 -0.64901036 2.2920001
-0.02618954 -0.65070933 2.2980001
-0.022237526 -0.65297467 2.306
-0.018423149 -0.6611864 2.335
-0.014237067 -0.65693891 2.3200002
-0.010173717 -0.65722209 2.3210001
-0.0061094901 -0.6577884 2.3230002
-0.0020364968 -0.6577884 2.3230002
0.0020338667 -0.65693891 2.3200002
0.0061015999 -0.65693891 2.3200002
0.010169333 -0.65693891 2.3200002
0.01424934 -0.65750527 2.322
0.01844682 -0.66203588 2.3380001
0.022546113 -0.66203588 2.3380001
0.026645407 -0.66203588 2.3380001
0.0307447 -0.66203588 2.3380001
0.034843992 -0.66203588 2.3380001
0.038943287 -0.66203588 2.3380001
0.043042582 -0.66203588 2.3380001
0.047141872 -0.66203588 2.3380001
0.051241167 -0.66203588 2.3380001
0.055340461 -0.66203588 2.3380001
0.059846528 -0.66656649 2.3540001
0.063973874 -0.66656649 2.3540001
0.067638338 -0.66203588 2.3380001
0.071737632 -0.66203588 2.3380001
0.075836927 -0.66203588 2.3380001
0.080483258 -0.66656649 2.3540001
0.084610604 -0.66656649 2.3540001
0.08873795 -0.66656649 2.3540001
0.092865296 -0.66656649 2.3540001
-1.0129551 -1.1329566 4.026
-0.994403 -1.1200118 3.9800003
-0.99114615 -1.1242329 3.9950001
-0.98167819 -1.1214188 3.9850001
-0.97469115 -1.1214188 3.9850001
-0.9703753 -1.1245143 3.9960003
-0.79171765 -0.92415041 3.2840002
-0.78667772 -0.92499465 3.2870002
-0.77996421 -0.92386901 3.2830002
-0.74732411 -0.8917883 3.1690001
-0.74481076 -0.8954466 3.1820002
-0.70275789 -0.85126525 3.0250001
-0.69007605 -0.84226012 2.993
-0.67567593 -0.83100373 2.9530001
-0.67095244 -0.83156657 2.9550002
-0.51188916 -0.63936353 2.2720001
-0.50499946 -0.63570517 2.2590001
-0.49793351 -0.63176543 2.2450001
-0.49047658 -0.62726289 2.2290001
-0.48482209 -0.62501162 2.2210002
-0.48244369 -0.6269815 2.2280002
-0.47832248 -0.62670004 2.227
-0.47441781 -0.62670004 2.227
-0.47135824 -0.62782568 2.2310002
-0.46765608 -0.62810713 2.2320001
-0.46374264 -0.62810713 2.2320001
-0.4600352 -0.62838852 2.233
-0.45612001 -0.62838852 2.233
-0.45179981 -0.62782568 2.2310002
-0.44788811 -0.62782568 2.2310002
-0.44397643 -0.62782568 2.2310002
-0.44006476 -0.62782568 2.2310002
-0.43048367 -0.61966479 2.2020001
-0.42662281 -0.61966479 2.2020001
-0.422378 -0.619102 2.2
-0.41852066 -0.619102 2.2
-0.41447484 -0.61882061 2.1990001
-0.41136619 -0.61994624 2.2030001
-0.40768856 -0.62022763 2.204
-0.40638936 -0.62416738 2.2180002
-0.40195605 -0.62332314 2.2150002
-0.39807242 -0.62332314 2.2150002
-0.39934972 -0.63148403 2.2440002
-0.39523903 -0.63120264 2.243
-0.3937487 -0.63514239 2.2570002
-0.38944602 -0.63457954 2.2550001
-0.38207325 -0.62895137 2.2350001
-0.37815455 -0.62895137 2.2350001
-0.37339863 -0.62754428 2.23
-0.36948869 -0.62754428 2.23
-0.36574271 -0.62782568 2.2310002
-0.36183101 -0.62782568 2.2310002
-0.35791934 -0.62782568 2.2310002
-0.35400763 -0.62782568 2.2310002
-0.35009596 -0.62782568 2.2310002
-0.34664977 -0.62866992 2.2340002
-0.34488067 -0.63260967 2.2480001
-0.34093916 -0.63260967 2.2480001
-0.33699769 -0.63260967 2.2480001
-0.33305618 -0.63260967 2.2480001
-0.32911471 -0.63260967 2.2480001
-0.3251732 -0.63260967 2.2480001
-0.32123169 -0.63260967 2.2480001
-0.31714907 -0.63232827 2.2470002
-0.31320933 -0.63232827 2.2470002
-0.30830613 -0.6303584 2.24
-0.30492219 -0.63148403 2.2440002
-0.30286554 -0.63542378 2.2580001
-0.29731798 -0.63204688 2.2460001
-0.29337999 -0.63204688 2.2460001
-0.28969976 -0.63260967 2.2480001
-0.28575826 -0.63260967 2.2480001
-0.28206751 -0.63317251 2.25
-0.27812248 -0.63317251 2.25
-0.27417749 -0.63317251 2.25
-0.2703526 -0.63345391 2.2510002
-0.26628751 -0.63317251 2.25
-0.26210931 -0.63260967 2.2480001
-0.25793812 -0.63204688 2.2460001
-0.25569648 -0.63626802 2.2610002
-0.25017348 -0.63232827 2.2470002
-0.24612416 -0.63204688 2.2460001
-0.24337231 -0.63514239 2.2570002
-0.23952112 -0.63542378 2.2580001
-0.23597938 -0.63654941 2.2620001
-0.23201334 -0.63654941 2.2620001
-0.22764403 -0.63542378 2.2580001
-0.22269437 -0.63260967 2.2480001
-0.21875288 -0.63260967 2.2480001
-0.21481138 -0.63260967 2.2480001
-0.21086989 -0.63260967 2.2480001
-0.20830914 -0.63683081 2.263
-0.20425107 -0.63654941 2.2620001
-0.2010819 -0.63908213 2.2710001
-0.19710009 -0.63908213 2.2710001
-0.19235294 -0.63654941 2.2620001
-0.18921973 -0.63936353 2.2720001
-0.18523616 -0.63936353 2.2720001
-0.18069415 -0.63739365 2.2650001
-0.17648877 -0.63654941 2.2620001
-0.17252274 -0.63654941 2.2620001
-0.16855671 -0.63654941 2.2620001
-0.16459066 -0.63654941 2.2620001
-0.16062462 -0.63654941 2.2620001
-0.15645081 -0.63570517 2.2590001
-0.15174749 -0.63260967 2.2480001
-0.147806 -0.63260967 2.2480001
-0.1439285 -0.63289106 2.2490001
-0.14085667 -0.63683081 2.263
-0.13773572 -0.64077055 2.2770002
-0.13368465 -0.64048916 2.276
-0.13054882 -0.6447103 2.2910001
-0.12609009 -0.64245903 2.283
-0.12171289 -0.64048916 2.276
-0.11777403 -0.64077055 2.2770002
-0.11453124 -0.6449917 2.2920001
-0.11046438 -0.6447103 2.2910001
-0.10565762 -0.63992631 2.2740002
-0.10167054 -0.63992631 2.2740002
-0.09768346 -0.63992631 2.2740002
-0.093696378 -0.63992631 2.2740002
-0.089709297 -0.63992631 2.2740002
-0.085722223 -0.63992631 2.2740002
-0.081735142 -0.63992631 2.2740002
-0.077850632 -0.64077055 2.2770002
-0.073858291 -0.64077055 2.2770002
-0.069835268 -0.64048916 2.276
-0.066278629 -0.6447103 2.2910001
-0.062234566 -0.64442891 2.2900002
-0.058244858 -0.6447103 2.2910001
-0.0542043 -0.64442891 2.2900002
-0.050167251 -0.64414752 2.289
-0.046174034 -0.64442891 2.2900002
-0.042177308 -0.6447103 2.2910001
-0.038193736 -0.64527315 2.2930002
-0.034173343 -0.64527315 2.2930002
-0.0301398 -0.6449917 2.2920001
-0.02618954 -0.64668018 2.2980001
-0.022237526 -0.64893144 2.306
-0.018423149 -0.65709233 2.335
-0.014237067 -0.65287119 2.3200002
-0.010182483 -0.65371543 2.3230002
-0.0061279 -0.65568531 2.3300002
-0.0020426332 -0.65568531 2.3300002
0.0020338667 -0.65287119 2.3200002
0.0061015999 -0.65287119 2.3200002
0.010169333 -0.65287119 2.3200002
0.01424934 -0.65343404 2.322
0.01844682 -0.65793657 2.3380001
0.022546113 -0.65793657 2.3380001
0.026645407 -0.65793657 2.3380001
0.0307447 -0.65793657 2.3380001
0.034843992 -0.65793657 2.3380001
0.038943287 -0.65793657 2.3380001
0.043042582 -0.65793657 2.3380001
0.047141872 -0.65793657 2.3380001
0.051241167 -0.65793657 2.3380001
0.055340461 -0.65793657 2.3380001
0.059439752 -0.65793657 2.3380001
0.063539043 -0.65793657 2.3380001
0.067638338 -0.65793657 2.3380001
0.071737632 -0.65793657 2.3380001
0.075804487 -0.65765518 2.3370001
0.080449067 -0.66215771 2.3530002
0.084610604 -0.66243911 2.3540001
0.08873795 -0.66243911 2.3540001
0.092865296 -0.66243911 2.3540001
-1.0106906 -1.1233808 4.0170002
-0.99365342 -1.1121945 3.9770002
-0.99759668 -1.1244994 4.0210004
-0.99276364 -1.1270163 4.0300002
-0.97689247 -1.1169487 3.9940002
-0.97474635 -1.1225419 4.0140004
-0.79629827 -0.92370594 3.3030002
-0.79050696 -0.92370594 3.3030002
-0.77354962 -0.9105621 3.256
-0.72869408 -0.86413908 3.0900002
-0.70806175 -0.84596139 3.0250001
-0.69741464 -0.83952934 3.0020001
-0.68615645 -0.83225822 2.9760001
-0.67498952 -0.82498717 2.95
-0.67617476 -0.83281755 2.9780002
-0.50580597 -0.62782919 2.2450001
-0.50186974 -0.62782919 2.2450001
-0.49793351 -0.62782919 2.2450001
-0.49047658 -0.62335473 2.2290001
-0.48635012 -0.62307507 2.2280002
-0.48244369 -0.62307507 2.2280002
-0.47853726 -0.62307507 2.2280002
-0.47463083 -0.62307507 2.2280002
-0.47009057 -0.62223607 2.2250001
-0.46744657 -0.623914 2.2310002
-0.46353486 -0.623914 2.2310002
-0.45962319 -0.623914 2.2310002
-0.45571148 -0.623914 2.2310002
-0.45179981 -0.623914 2.2310002
-0.44788811 -0.623914 2.2310002
-0.44397643 -0.623914 2.2310002
-0.44006476 -0.623914 2.2310002
-0.43322062 -0.61971915 2.2160001
-0.42933524 -0.61971915 2.2160001
-0.42487386 -0.61888021 2.2130001
-0.42099375 -0.61888021 2.2130001
-0.4171136 -0.61888021 2.2130001
-0.41360694 -0.61943954 2.2150002
-0.40990829 -0.61971915 2.2160001
-0.40620613 -0.61999881 2.217
-0.40231898 -0.61999881 2.217
-0.40130731 -0.62447333 2.233
-0.40006158 -0.62866819 2.2480001
-0.39858702 -0.63258338 2.2620001
-0.39427206 -0.63202405 2.26
-0.38892791 -0.62978679 2.2520001
-0.38480845 -0.62950712 2.2510002
-0.3808617 -0.62950712 2.2510002
-0.37574282 -0.62754953 2.2440002
-0.36948869 -0.62363434 2.23
-0.36574271 -0.623914 2.2310002
-0.36183101 -0.623914 2.2310002
-0.35791934 -0.623914 2.2310002
-0.35400763 -0.623914 2.2310002
-0.3524498 -0.62810886 2.2460001
-0.34882215 -0.62866819 2.2480001
-0.34488067 -0.62866819 2.2480001
-0.34093916 -0.62866819 2.2480001
-0.33699769 -0.62866819 2.2480001
-0.33305618 -0.62866819 2.2480001
-0.32911471 -0.62866819 2.2480001
-0.3251732 -0.62866819 2.2480001
-0.3215175 -0.62922752 2.25
-0.31700793 -0.62810886 2.2460001
-0.31306994 -0.62810886 2.2460001
-0.3100954 -0.63006645 2.253
-0.30641693 -0.63062578 2.2550001
-0.30246314 -0.63062578 2.2550001
-0.29731798 -0.62810886 2.2460001
-0.29364124 -0.62866819 2.2480001
-0.28969976 -0.62866819 2.2480001
-0.28575826 -0.62866819 2.2480001
-0.28181678 -0.62866819 2.2480001
-0.27762806 -0.62810886 2.2460001
-0.27369007 -0.62810886 2.2460001
-0.26999229 -0.62866819 2.2480001
-0.26593244 -0.62838852 2.2470002
-0.26187611 -0.62810886 2.2460001
-0.25793812 -0.62810886 2.2460001
-0.25558341 -0.63202405 2.26
-0.2517322 -0.63230371 2.2610002
-0.24754874 -0.63174438 2.2590001
-0.24315664 -0.63062578 2.2550001
-0.23930895 -0.63090545 2.256
-0.23577073 -0.63202405 2.26
-0.23201334 -0.63258338 2.2620001
-0.22764403 -0.63146472 2.2580001
-0.22269437 -0.62866819 2.2480001
-0.21875288 -0.62866819 2.2480001
-0.21481138 -0.62866819 2.2480001
-0.21086989 -0.62866819 2.2480001
-0.20830914 -0.63286304 2.263
-0.20497343 -0.63482064 2.2700002
-0.20152463 -0.63649857 2.276
-0.19753404 -0.63649857 2.276
-0.19235294 -0.63258338 2.2620001
-0.18921973 -0.63537997 2.2720001
-0.18523616 -0.63537997 2.2720001
-0.18069415 -0.63342237 2.2650001
-0.17648877 -0.63258338 2.2620001
-0.17252274 -0.63258338 2.2620001
-0.169898 -0.63761717 2.2800002
-0.16480894 -0.63342237 2.2650001
-0.16062462 -0.63258338 2.2620001
-0.15665857 -0.63258338 2.2620001
-0.15174749 -0.62866819 2.2480001
-0.14879225 -0.63286304 2.263
-0.14482446 -0.63286304 2.263
-0.14172807 -0.63677824 2.2770002
-0.13761474 -0.63621891 2.2750001
-0.1340958 -0.63845617 2.283
-0.13009295 -0.63845617 2.283
-0.12664239 -0.64125276 2.2930002
-0.122622 -0.64125276 2.2930002
-0.11865333 -0.64153236 2.2940001
-0.11463118 -0.64153236 2.2940001
-0.1105126 -0.64097309 2.2920001
-0.10635457 -0.6401341 2.289
-0.10234119 -0.6401341 2.289
-0.09768346 -0.63593924 2.2740002
-0.093696378 -0.63593924 2.2740002
-0.089709297 -0.63593924 2.2740002
-0.085684523 -0.63565958 2.273
-0.081699193 -0.63565958 2.273
-0.077850632 -0.63677824 2.2770002
-0.074442148 -0.64181203 2.2950001
-0.070326202 -0.64097309 2.2920001
-0.06630756 -0.64097309 2.2920001
-0.062288921 -0.64097309 2.2920001
-0.058244858 -0.64069343 2.2910001
-0.0542043 -0.64041376 2.2900002
-0.050189167 -0.64041376 2.2900002
-0.046174034 -0.64041376 2.2900002
-0.042140491 -0.6401341 2.289
-0.038143765 -0.64041376 2.2900002
-0.034367088 -0.64488828 2.306
-0.03031075 -0.64460862 2.3050001
-0.026349094 -0.64656621 2.312
-0.022372533 -0.64880347 2.3200002
-0.018423149 -0.65299833 2.335
-0.014329117 -0.65299833 2.335
-0.010248234 -0.65383726 2.3380001
-0.0061673499 -0.65579486 2.345
-0.0020426332 -0.6516 2.3300002
0.0020338667 -0.64880347 2.3200002
0.0061042299 -0.64908314 2.3210001
0.010173717 -0.64908314 2.3210001
0.01424934 -0.6493628 2.322
0.01844682 -0.65383726 2.3380001
0.022546113 -0.65383726 2.3380001
0.026645407 -0.65383726 2.3380001
0.0307447 -0.65383726 2.3380001
0.034843992 -0.65383726 2.3380001
0.038943287 -0.65383726 2.3380001
0.043042582 -0.65383726 2.3380001
0.047141872 -0.65383726 2.3380001
0.051241167 -0.65383726 2.3380001
0.055340461 -0.65383726 2.3380001
0.059439752 -0.65383726 2.3380001
0.063539043 -0.65383726 2.3380001
0.067638338 -0.65383726 2.3380001
0.071737632 -0.65383726 2.3380001
0.075804487 -0.6535576 2.3370001
0.080483258 -0.65831178 2.3540001
0.084610604 -0.65831178 2.3540001
0.08873795 -0.65831178 2.3540001
0.092865296 -0.65831178 2.3540001
-1.0109422 -1.1166155 4.0180001
-0.99415314 -1.1057774 3.9790001
-1.0020624 -1.1224515 4.039
-0.99498069 -1.1224515 4.039
-0.98349637 -1.1174493 4.0210004
-0.98373133 -1.1257864 4.0510001
-0.79702151 -0.91874844 3.3060002
-0.79122496 -0.91874844 3.3060002
-0.73981375 -0.86539096 3.1140001
-0.71454471 -0.8420471 3.0300002
-0.70384848 -0.83565533 3.0070002
-0.69927317 -0.83648902 3.0100002
-0.68800098 -0.82926357 2.9840002
-0.68185377 -0.82815194 2.9800003
-0.67662889 -0.82815194 2.9800003
-0.50580597 -0.62389296 2.2450001
-0.50186974 -0.62389296 2.2450001
-0.49793351 -0.62389296 2.2450001
-0.49399728 -0.62389296 2.2450001
-0.49006104 -0.62389296 2.2450001
-0.48612481 -0.62389296 2.2450001
-0.48218858 -0.62389296 2.2450001
-0.47526991 -0.62000233 2.2310002
-0.46966803 -0.61777914 2.223
-0.46744657 -0.62000233 2.2310002
-0.46644366 -0.62389296 2.2450001
-0.46291944 -0.62444878 2.2470002
-0.4589797 -0.62444878 2.2470002
-0.45200232 -0.62028027 2.2320001
-0.44808888 -0.62028027 2.2320001
-0.44397643 -0.62000233 2.2310002
-0.44282624 -0.62389296 2.2450001
-0.43322062 -0.61583376 2.2160001
-0.42894775 -0.61527801 2.214
-0.42487386 -0.61500007 2.2130001
-0.42099375 -0.61500007 2.2130001
-0.4171136 -0.61500007 2.2130001
-0.41360694 -0.61555588 2.2150002
-0.40990829 -0.61583376 2.2160001
-0.40895447 -0.62028027 2.2320001
-0.40504104 -0.62028027 2.2320001
-0.40130731 -0.62055814 2.233
-0.40255305 -0.62861735 2.2620001
-0.39858702 -0.62861735 2.2620001
-0.39706337 -0.63250798 2.276
-0.38892791 -0.62583828 2.2520001
-0.38480845 -0.6255604 2.2510002
-0.3808617 -0.6255604 2.2510002
-0.37574282 -0.62361509 2.2440002
-0.37197405 -0.62389296 2.2450001
-0.36820176 -0.6241709 2.2460001
-0.36183101 -0.62000233 2.2310002
-0.35791934 -0.62000233 2.2310002
-0.35638779 -0.6241709 2.2460001
-0.3524498 -0.6241709 2.2460001
-0.34882215 -0.62472671 2.2480001
-0.34488067 -0.62472671 2.2480001
-0.34093916 -0.62472671 2.2480001
-0.33699769 -0.62472671 2.2480001
-0.33305618 -0.62472671 2.2480001
-0.32911471 -0.62472671 2.2480001
-0.32734296 -0.62889522 2.263
-0.32337517 -0.62889522 2.263
-0.31700793 -0.6241709 2.2460001
-0.31306994 -0.6241709 2.2460001
-0.30940723 -0.62472671 2.2480001
-0.30532986 -0.62444878 2.2470002
-0.30139011 -0.62444878 2.2470002
-0.29758275 -0.62472671 2.2480001
-0.29364124 -0.62472671 2.2480001
-0.28969976 -0.62472671 2.2480001
-0.28575826 -0.62472671 2.2480001
-0.28181678 -0.62472671 2.2480001
-0.2793586 -0.62806153 2.26
-0.27527422 -0.6277836 2.2590001
-0.27167374 -0.62861735 2.2620001
-0.26758936 -0.62833941 2.2610002
-0.26339188 -0.6277836 2.2590001
-0.25943109 -0.6277836 2.2590001
-0.25569648 -0.62833941 2.2610002
-0.25150952 -0.6277836 2.2590001
-0.24732958 -0.62722784 2.2570002
-0.24197052 -0.62361509 2.2440002
-0.23792996 -0.62333715 2.243
-0.23545776 -0.62722784 2.2570002
-0.23139791 -0.62694991 2.256
-0.22754322 -0.62722784 2.2570002
-0.22378407 -0.6277836 2.2590001
-0.22011521 -0.62861735 2.2620001
-0.21614918 -0.62861735 2.2620001
-0.21227694 -0.62889522 2.263
-0.20830914 -0.62889522 2.263
-0.20497343 -0.63084054 2.2700002
-0.20152463 -0.63250798 2.276
-0.19762082 -0.63278586 2.2770002
-0.19235294 -0.62861735 2.2620001
-0.1883869 -0.62861735 2.2620001
-0.18442085 -0.62861735 2.2620001
-0.18045482 -0.62861735 2.2620001
-0.17648877 -0.62861735 2.2620001
-0.17252274 -0.62861735 2.2620001
-0.169898 -0.63361961 2.2800002
-0.16480894 -0.62945104 2.2650001
-0.16062462 -0.62861735 2.2620001
-0.15769742 -0.63278586 2.2770002
-0.15370509 -0.63278586 2.2770002
-0.14971276 -0.63278586 2.2770002
-0.14565641 -0.63250798 2.276
-0.14172807 -0.63278586 2.2770002
-0.1385221 -0.63639861 2.2900002
-0.13444823 -0.63612074 2.289
-0.1312896 -0.64028925 2.3040001
-0.12802313 -0.64417994 2.3180001
-0.12390544 -0.643902 2.3170002
-0.11958434 -0.6425125 2.312
-0.11553064 -0.6425125 2.312
-0.11123585 -0.641123 2.3070002
-0.10635457 -0.63612074 2.289
-0.10234119 -0.63612074 2.289
-0.098327808 -0.63612074 2.289
-0.094314426 -0.63612074 2.289
-0.090301052 -0.63612074 2.289
-0.086212277 -0.63556492 2.2870002
-0.081663251 -0.63139635 2.2720001
-0.077884823 -0.63306379 2.2780001
-0.074442148 -0.63778812 2.2950001
-0.070326202 -0.63695443 2.2920001
-0.06630756 -0.63695443 2.2920001
-0.062288921 -0.63695443 2.2920001
-0.058244858 -0.63667655 2.2910001
-0.0542043 -0.63639861 2.2900002
-0.050189167 -0.63639861 2.2900002
-0.046174034 -0.63639861 2.2900002
-0.042122081 -0.6358428 2.2880001
-0.038143765 -0.63639861 2.2900002
-0.034352183 -0.64056718 2.3050001
-0.03031075 -0.64056718 2.3050001
-0.026349094 -0.6425125 2.312
-0.022372533 -0.64473575 2.3200002
-0.018423149 -0.64890426 2.335
-0.014329117 -0.64890426 2.335
-0.010235083 -0.64890426 2.335
-0.0061410498 -0.64890426 2.335
-0.0020470168 -0.64890426 2.335
0.0020470168 -0.64890426 2.335
0.0061463099 -0.64946008 2.3370001
0.01024385 -0.64946008 2.3370001
0.014347526 -0.64973801 2.3380001
0.01844682 -0.64973801 2.3380001
0.022546113 -0.64973801 2.3380001
0.026645407 -0.64973801 2.3380001
0.0307447 -0.64973801 2.3380001
0.034843992 -0.64973801 2.3380001
0.039209794 -0.65418446 2.3540001
0.04333714 -0.65418446 2.3540001
0.047464486 -0.65418446 2.3540001
0.051591832 -0.65418446 2.3540001
0.055719178 -0.65418446 2.3540001
0.059846528 -0.65418446 2.3540001
0.063973874 -0.65418446 2.3540001
0.068072289 -0.65390652 2.3530002
0.071706951 -0.64946008 2.3370001
0.075836927 -0.64973801 2.3380001
0.080483258 -0.65418446 2.3540001
0.084610604 -0.65418446 2.3540001
0.08873795 -0.65418446 2.3540001
0.092865296 -0.65418446 2.3540001
-1.0172323 -1.1164744 4.0430002
-1.007645 -1.1137129 4.033
-0.99040186 -1.1023908 3.9920001
-0.98340261 -1.1023908 3.9920001
-0.9764033 -1.1023908 3.9920001
-0.96940398 -1.1023908 3.9920001
-0.96144032 -1.1012862 3.9880002
-0.73833305 -0.85192275 3.085
-0.7279349 -0.84612358 3.0640001
-0.71478051 -0.83701062 3.0310001
-0.70314628 -0.82955462 3.0040002
-0.69857621 -0.83038306 3.0070002
-0.68707871 -0.822927 2.9800003
-0.68185377 -0.822927 2.9800003
-0.67662889 -0.822927 2.9800003
-0.67140394 -0.822927 2.9800003
-0.49874005 -0.61609066 2.2310002
-0.49482837 -0.61609066 2.2310002
-0.49399728 -0.61995673 2.2450001
-0.49006104 -0.61995673 2.2450001
-0.48612481 -0.61995673 2.2450001
-0.48218858 -0.61995673 2.2450001
-0.47526991 -0.61609066 2.2310002
-0.47135824 -0.61609066 2.2310002
-0.47037989 -0.61995673 2.2450001
-0.46644366 -0.61995673 2.2450001
-0.46559766 -0.62409902 2.26
-0.46163514 -0.62409902 2.26
-0.45463493 -0.61995673 2.2450001
-0.4506987 -0.61995673 2.2450001
-0.44974753 -0.62409902 2.26
-0.44400975 -0.62161362 2.2510002
-0.43889001 -0.61995673 2.2450001
-0.43204764 -0.61581451 2.23
-0.42756173 -0.61498606 2.227
-0.42593989 -0.61829984 2.2390001
-0.42088327 -0.61664295 2.233
-0.41659462 -0.61609066 2.2310002
-0.41268295 -0.61609066 2.2310002
-0.41170284 -0.62050903 2.2470002
-0.40776309 -0.62050903 2.2470002
-0.40651909 -0.62465131 2.2620001
-0.40255305 -0.62465131 2.2620001
-0.39911565 -0.62547976 2.2650001
-0.39514434 -0.62547976 2.2650001
-0.38771898 -0.61995673 2.2450001
-0.38378274 -0.61995673 2.2450001
-0.3808617 -0.62161362 2.2510002
-0.37691495 -0.62161362 2.2510002
-0.37197405 -0.61995673 2.2450001
-0.36820176 -0.62023288 2.2460001
-0.36426377 -0.62023288 2.2460001
-0.36032578 -0.62023288 2.2460001
-0.35670516 -0.62078518 2.2480001
-0.35276365 -0.62078518 2.2480001
-0.34882215 -0.62078518 2.2480001
-0.34488067 -0.62078518 2.2480001
-0.34093916 -0.62078518 2.2480001
-0.33699769 -0.62078518 2.2480001
-0.33527854 -0.62492746 2.263
-0.33131075 -0.62492746 2.263
-0.32734296 -0.62492746 2.263
-0.32337517 -0.62492746 2.263
-0.31912509 -0.62437516 2.2610002
-0.3150214 -0.62409902 2.26
-0.31119651 -0.62437516 2.2610002
-0.30709633 -0.62409902 2.26
-0.30313379 -0.62409902 2.26
-0.29956838 -0.62492746 2.263
-0.29560059 -0.62492746 2.263
-0.2916328 -0.62492746 2.263
-0.28766501 -0.62492746 2.263
-0.28369722 -0.62492746 2.263
-0.28121275 -0.62824124 2.2750001
-0.27710205 -0.62796509 2.2740002
-0.27335519 -0.62851739 2.276
-0.26758936 -0.62437516 2.2610002
-0.26339188 -0.62382287 2.2590001
-0.26115373 -0.62796509 2.2740002
-0.25569648 -0.62437516 2.2610002
-0.25061885 -0.62161362 2.2510002
-0.2465625 -0.62133747 2.25
-0.24197052 -0.61968058 2.2440002
-0.23792996 -0.61940444 2.243
-0.23545776 -0.62327057 2.2570002
-0.23139791 -0.62299442 2.256
-0.22754322 -0.62327057 2.2570002
-0.22378407 -0.62382287 2.2590001
-0.22011521 -0.62465131 2.2620001
-0.21614918 -0.62465131 2.2620001
-0.21227694 -0.62492746 2.263
-0.20830914 -0.62492746 2.263
-0.20452195 -0.62547976 2.2650001
-0.20055065 -0.62547976 2.2650001
-0.19649255 -0.62520361 2.2640002
-0.19235294 -0.62465131 2.2620001
-0.1883869 -0.62465131 2.2620001
-0.18442085 -0.62465131 2.2620001
-0.18045482 -0.62465131 2.2620001
-0.17765912 -0.62879354 2.2770002
-0.17366679 -0.62879354 2.2770002
-0.16982348 -0.62934583 2.279
-0.16582763 -0.62934583 2.279
-0.16168977 -0.62879354 2.2770002
-0.15769742 -0.62879354 2.2770002
-0.15370509 -0.62879354 2.2770002
-0.15076475 -0.63321197 2.2930002
-0.14674436 -0.63321197 2.2930002
-0.14272396 -0.63321197 2.2930002
-0.13942945 -0.63652575 2.3050001
-0.13538802 -0.63652575 2.3050001
-0.13220133 -0.64066797 2.3200002
-0.12824406 -0.64122027 2.322
-0.12411934 -0.64094412 2.3210001
-0.1196878 -0.63901109 2.3140001
-0.11638013 -0.64315337 2.329
-0.11118763 -0.6368019 2.306
-0.10705152 -0.6362496 2.3040001
-0.10234119 -0.63210732 2.289
-0.098327808 -0.63210732 2.289
-0.094314426 -0.63210732 2.289
-0.090301052 -0.63210732 2.289
-0.086212277 -0.63155502 2.2870002
-0.082202405 -0.63155502 2.2870002
-0.07846605 -0.63376427 2.2950001
-0.074474588 -0.63404042 2.296
-0.070387565 -0.63348812 2.2940001
-0.066770442 -0.6373542 2.3080001
-0.062723748 -0.6373542 2.3080001
-0.058626205 -0.6368019 2.306
-0.05455935 -0.63652575 2.3050001
-0.050189167 -0.63238353 2.2900002
-0.046174034 -0.63238353 2.2900002
-0.04243505 -0.63652575 2.3050001
-0.038393617 -0.63652575 2.3050001
-0.034352183 -0.63652575 2.3050001
-0.03031075 -0.63652575 2.3050001
-0.026349094 -0.63845879 2.312
-0.022382177 -0.64094412 2.3210001
-0.018423149 -0.64481026 2.335
-0.014329117 -0.64481026 2.335
-0.010235083 -0.64481026 2.335
-0.0061410498 -0.64481026 2.335
-0.0020470168 -0.64481026 2.335
0.0020470168 -0.64481026 2.335
0.0061463099 -0.64536256 2.3370001
0.01024385 -0.64536256 2.3370001
0.014347526 -0.6456387 2.3380001
0.01844682 -0.6456387 2.3380001
0.022546113 -0.6456387 2.3380001
0.026645407 -0.6456387 2.3380001
0.0307447 -0.6456387 2.3380001
0.035067543 -0.64978093 2.3530002
0.039193135 -0.64978093 2.3530002
0.04333714 -0.65005708 2.3540001
0.047464486 -0.65005708 2.3540001
0.051548 -0.64950478 2.352
0.055671841 -0.64950478 2.352
0.059846528 -0.65005708 2.3540001
0.063973874 -0.65005708 2.3540001
0.068043359 -0.64950478 2.352
0.072167203 -0.64950478 2.352
0.076355912 -0.65005708 2.3540001
0.080483258 -0.65005708 2.3540001
0.084610604 -0.65005708 2.3540001
0.08873795 -0.65005708 2.3540001
0.092865296 -0.65005708 2.3540001
-1.0202515 -1.1126785 4.0550003
-1.0091442 -1.1082882 4.039
-0.99040186 -1.0953915 3.9920001
-0.98340261 -1.0953915 3.9920001
-0.9764033 -1.0953915 3.9920001
-0.96964681 -1.0956659 3.9930003
-0.96288681 -1.0959402 3.9940002
-0.74000835 -0.84843451 3.0920002
-0.7348246 -0.84870887 3.0930002
-0.71312976 -0.82977551 3.0240002
-0.70642328 -0.82812911 3.0180001
-0.69300061 -0.81852525 2.983
-0.68777043 -0.81852525 2.983
-0.68459952 -0.82099479 2.9920001
-0.68321353 -0.82565957 3.0090001
-0.67793775 -0.82565957 3.0090001
-0.49874005 -0.61217898 2.2310002
-0.49482837 -0.61217898 2.2310002
-0.49421734 -0.61629492 2.2460001
-0.49027935 -0.61629492 2.2460001
-0.48634136 -0.61629492 2.2460001
-0.48218858 -0.6160205 2.2450001
-0.47633508 -0.61355096 2.2360001
-0.47283718 -0.61409974 2.2380002
-0.47037989 -0.6160205 2.2450001
-0.46956021 -0.62013644 2.26
-0.4684819 -0.62397802 2.2740002
-0.46163514 -0.62013644 2.26
-0.45463493 -0.6160205 2.2450001
-0.4506987 -0.6160205 2.2450001
-0.44974753 -0.62013644 2.26
-0.44440424 -0.61821568 2.253
-0.43889001 -0.6160205 2.2450001
-0.43224138 -0.61217898 2.2310002
-0.42813769 -0.61190456 2.23
-0.42403752 -0.61163014 2.2290001
-0.41937542 -0.61053258 2.2250001
-0.41659462 -0.61217898 2.2310002
-0.41268295 -0.61217898 2.2310002
-0.41151962 -0.61629492 2.2460001
-0.40758163 -0.61629492 2.2460001
-0.40400305 -0.6168437 2.2480001
-0.40255305 -0.62068528 2.2620001
-0.3984108 -0.62041086 2.2610002
-0.39671445 -0.62397802 2.2740002
-0.38771898 -0.6160205 2.2450001
-0.3860051 -0.61958766 2.2580001
-0.38187689 -0.6193133 2.2570002
-0.37791961 -0.6193133 2.2570002
-0.3729682 -0.6176669 2.2510002
-0.36852962 -0.6168437 2.2480001
-0.36426377 -0.61629492 2.2460001
-0.36032578 -0.61629492 2.2460001
-0.35670516 -0.6168437 2.2480001
-0.35276365 -0.6168437 2.2480001
-0.34882215 -0.6168437 2.2480001
-0.34488067 -0.6168437 2.2480001
-0.34321412 -0.62095964 2.263
-0.33924633 -0.62095964 2.263
-0.33527854 -0.62095964 2.263
-0.33131075 -0.62095964 2.263
-0.32734296 -0.62095964 2.263
-0.32337517 -0.62095964 2.263
-0.31912509 -0.62041086 2.2610002
-0.3150214 -0.62013644 2.26
-0.31119651 -0.62041086 2.2610002
-0.30709633 -0.62013644 2.26
-0.30313379 -0.62013644 2.26
-0.29956838 -0.62095964 2.263
-0.29560059 -0.62095964 2.263
-0.2916328 -0.62095964 2.263
-0.28766501 -0.62095964 2.263
-0.28369722 -0.62095964 2.263
-0.28145996 -0.62480122 2.2770002
-0.27746764 -0.62480122 2.2770002
-0.2738356 -0.62562442 2.2800002
-0.26960129 -0.62507558 2.2780001
-0.26560721 -0.62507558 2.2780001
-0.2610389 -0.6237036 2.273
-0.25705355 -0.6237036 2.273
-0.25195488 -0.62095964 2.263
-0.24765833 -0.62013644 2.26
-0.24207835 -0.6160205 2.2450001
-0.23803604 -0.61574614 2.2440002
-0.23524912 -0.61876446 2.2550001
-0.23303904 -0.62342924 2.2720001
-0.22915629 -0.6237036 2.273
-0.22527002 -0.62397802 2.2740002
-0.22157487 -0.62480122 2.2770002
-0.21758252 -0.62480122 2.2770002
-0.21368399 -0.62507558 2.2780001
-0.2096899 -0.62507558 2.2780001
-0.20578611 -0.62535 2.279
-0.2004621 -0.62123406 2.2640002
-0.19649255 -0.62123406 2.2640002
-0.19243798 -0.62095964 2.263
-0.18847018 -0.62095964 2.263
-0.18442085 -0.62068528 2.2620001
-0.18045482 -0.62068528 2.2620001
-0.17765912 -0.62480122 2.2770002
-0.17366679 -0.62480122 2.2770002
-0.17094123 -0.62946594 2.2940001
-0.16691908 -0.62946594 2.2940001
-0.16282593 -0.62919158 2.2930002
-0.15984438 -0.63330752 2.3080001
-0.15579769 -0.63330752 2.3080001
-0.151751 -0.63330752 2.3080001
-0.1477683 -0.63358188 2.309
-0.14371985 -0.63358188 2.309
-0.1403368 -0.63660026 2.3200002
-0.13626906 -0.63660026 2.3200002
-0.13220133 -0.63660026 2.3200002
-0.12824406 -0.63714904 2.322
-0.12417282 -0.63714904 2.322
-0.11989468 -0.63605148 2.3180001
-0.11662998 -0.64044183 2.3340001
-0.11128406 -0.63330752 2.3080001
-0.10705152 -0.6322099 2.3040001
-0.10234119 -0.62809396 2.289
-0.098327808 -0.62809396 2.289
-0.094396837 -0.62864274 2.2910001
-0.090656102 -0.63056356 2.2980001
-0.086551547 -0.63001472 2.296
-0.082633726 -0.63083792 2.299
-0.078773759 -0.6322099 2.3040001
-0.074798957 -0.63275874 2.306
-0.070725083 -0.63248432 2.3050001
-0.066741511 -0.6330331 2.3070002
-0.062723748 -0.63330752 2.3080001
-0.058626205 -0.63275874 2.306
-0.05455935 -0.63248432 2.3050001
-0.050517917 -0.63248432 2.3050001
-0.046476483 -0.63248432 2.3050001
-0.04243505 -0.63248432 2.3050001
-0.038393617 -0.63248432 2.3050001
-0.034381989 -0.6330331 2.3070002
-0.030337051 -0.6330331 2.3070002
-0.026371887 -0.63495386 2.3140001
-0.02239182 -0.63714904 2.322
-0.018423149 -0.6407162 2.335
-0.014329117 -0.6407162 2.335
-0.010235083 -0.6407162 2.335
-0.0061410498 -0.6407162 2.335
-0.0020470168 -0.6407162 2.335
0.00204877 -0.64126503 2.3370001
0.00614894 -0.64153939 2.3380001
0.010248234 -0.64153939 2.3380001
0.014347526 -0.64153939 2.3380001
0.01844682 -0.64153939 2.3380001
0.022517184 -0.6407162 2.335
0.026622614 -0.64099061 2.3360002
0.0309288 -0.64538097 2.352
0.035052639 -0.64538097 2.352
0.039176479 -0.64538097 2.352
0.043300319 -0.64538097 2.352
0.047746774 -0.64977127 2.368
0.051898666 -0.64977127 2.368
0.055671841 -0.64538097 2.352
0.059821103 -0.64565533 2.3530002
0.063946694 -0.64565533 2.3530002
0.068043359 -0.64538097 2.352
0.072167203 -0.64538097 2.352
0.076355912 -0.64592975 2.3540001
0.080483258 -0.64592975 2.3540001
0.084610604 -0.64592975 2.3540001
0.089378797 -0.65059447 2.3710001
0.092865296 -0.64592975 2.3540001
-1.0285544 -1.114566 4.0880003
-1.0068955 -1.0987526 4.0300002
-0.99982953 -1.0987526 4.0300002
-0.99522704 -1.1014791 4.04
-0.9764033 -1.0883921 3.9920001
-0.9703753 -1.0894828 3.9960003
-0.96385115 -1.090028 3.9980001
-0.95827729 -1.091664 4.0040002
-0.73221129 -0.84028673 3.0820003
-0.7107715 -0.821747 3.0140002
-0.70525289 -0.82147437 3.0130002
-0.69578838 -0.81656677 2.9950001
-0.69145942 -0.81765735 2.9990001
-0.68917572 -0.82120174 3.0120001
-0.68457586 -0.82201964 3.0150001
-0.67861366 -0.82120174 3.0120001
-0.49918714 -0.60881257 2.233
-0.49527195 -0.60881257 2.233
-0.4946574 -0.61290222 2.2480001
-0.49071592 -0.61290222 2.2480001
-0.4865579 -0.61262959 2.2470002
-0.48261815 -0.61262959 2.2470002
-0.47825235 -0.61208427 2.2450001
-0.47410485 -0.61181164 2.2440002
-0.47037989 -0.61208427 2.2450001
-0.46956021 -0.61617392 2.26
-0.46559766 -0.61617392 2.26
-0.46163514 -0.61617392 2.26
-0.45463493 -0.61208427 2.2450001
-0.4506987 -0.61208427 2.2450001
-0.44676247 -0.61208427 2.2450001
-0.44282624 -0.61208427 2.2450001
-0.43849903 -0.61153901 2.243
-0.43456629 -0.61153901 2.243
-0.42832968 -0.60826725 2.2310002
-0.424418 -0.60826725 2.2310002
-0.42050633 -0.60826725 2.2310002
-0.41678137 -0.60853994 2.2320001
-0.41268295 -0.60826725 2.2310002
-0.41133639 -0.61208427 2.2450001
-0.40740016 -0.61208427 2.2450001
-0.40400305 -0.61290222 2.2480001
-0.40219712 -0.61617392 2.26
-0.39805838 -0.61590129 2.2590001
-0.39427206 -0.61617392 2.26
-0.38754627 -0.61181164 2.2440002
-0.38566321 -0.61508334 2.256
-0.38170767 -0.61508334 2.256
-0.37775216 -0.61508334 2.256
-0.37329957 -0.61426544 2.253
-0.36836568 -0.61262959 2.2470002
-0.36426377 -0.6123569 2.2460001
-0.36032578 -0.6123569 2.2460001
-0.35670516 -0.61290222 2.2480001
-0.35276365 -0.61290222 2.2480001
-0.34882215 -0.61290222 2.2480001
-0.34488067 -0.61290222 2.2480001
-0.34093916 -0.61290222 2.2480001
-0.33699769 -0.61290222 2.2480001
-0.33527854 -0.61699188 2.263
-0.33131075 -0.61699188 2.263
-0.32734296 -0.61699188 2.263
-0.32337517 -0.61699188 2.263
-0.31912509 -0.61644655 2.2610002
-0.3150214 -0.61617392 2.26
-0.31105888 -0.61617392 2.26
-0.30709633 -0.61617392 2.26
-0.30313379 -0.61617392 2.26
-0.29930365 -0.61644655 2.2610002
-0.29546997 -0.61671919 2.2620001
-0.2916328 -0.61699188 2.263
-0.28766501 -0.61699188 2.263
-0.28369722 -0.61699188 2.263
-0.2817072 -0.62135416 2.279
-0.27771133 -0.62135416 2.279
-0.2738356 -0.62162679 2.2800002
-0.26960129 -0.62108153 2.2780001
-0.26560721 -0.62108153 2.2780001
-0.26149827 -0.62080884 2.2770002
-0.25750592 -0.62080884 2.2770002
-0.25251156 -0.6183551 2.2680001
-0.24820624 -0.61753714 2.2650001
-0.24455844 -0.6183551 2.2680001
-0.24058188 -0.6183551 2.2680001
-0.23723125 -0.61999094 2.2740002
-0.23324418 -0.61999094 2.2740002
-0.22925709 -0.61999094 2.2740002
-0.22527002 -0.61999094 2.2740002
-0.22157487 -0.62080884 2.2770002
-0.21758252 -0.62080884 2.2770002
-0.21359019 -0.62080884 2.2770002
-0.2096899 -0.62108153 2.2780001
-0.20578611 -0.62135416 2.279
-0.2004621 -0.61726451 2.2640002
-0.19640577 -0.61699188 2.263
-0.19235294 -0.61671919 2.2620001
-0.1883869 -0.61671919 2.2620001
-0.18442085 -0.61671919 2.2620001
-0.18045482 -0.61671919 2.2620001
-0.17765912 -0.62080884 2.2770002
-0.17366679 -0.62080884 2.2770002
-0.17086671 -0.62517118 2.2930002
-0.16793777 -0.62926084 2.3080001
-0.16389108 -0.62926084 2.3080001
-0.15984438 -0.62926084 2.3080001
-0.15681024 -0.63335043 2.3230002
-0.15293449 -0.63416839 2.3260002
-0.14866425 -0.63335043 2.3230002
-0.14459126 -0.63335043 2.3230002
-0.14045778 -0.6330778 2.322
-0.13638654 -0.6330778 2.322
-0.13231529 -0.6330778 2.322
-0.12824406 -0.6330778 2.322
-0.12417282 -0.6330778 2.322
-0.12092915 -0.63744009 2.3380001
-0.11662998 -0.63634956 2.3340001
-0.11128406 -0.62926084 2.3080001
-0.10714445 -0.62871552 2.306
-0.1023859 -0.62435323 2.2900002
-0.098585546 -0.62571645 2.2950001
-0.094932482 -0.62817025 2.3040001
-0.090892799 -0.62817025 2.3040001
-0.086777724 -0.62762493 2.302
-0.082741551 -0.62762493 2.302
-0.078773759 -0.62817025 2.3040001
-0.074734077 -0.62817025 2.3040001
-0.071123965 -0.63198721 2.3180001
-0.066712581 -0.62871552 2.306
-0.062723748 -0.62926084 2.3080001
-0.058626205 -0.62871552 2.306
-0.05455935 -0.62844288 2.3050001
-0.050496001 -0.62817025 2.3040001
-0.046476483 -0.62844288 2.3050001
-0.04243505 -0.62844288 2.3050001
-0.038410272 -0.62871552 2.306
-0.034441601 -0.63007873 2.3110001
-0.03038965 -0.63007873 2.3110001
-0.026371887 -0.63089669 2.3140001
-0.02239182 -0.6330778 2.322
-0.01843104 -0.63689482 2.3360002
-0.014329117 -0.63662219 2.335
-0.010235083 -0.63662219 2.335
-0.0061410498 -0.63662219 2.335
-0.0020470168 -0.63662219 2.335
0.0020496466 -0.63744009 2.3380001
0.00615157 -0.63771278 2.3390002
0.010252616 -0.63771278 2.3390002
0.014347526 -0.63744009 2.3380001
0.01844682 -0.63744009 2.3380001
0.022517184 -0.63662219 2.335
0.026804959 -0.64125711 2.352
0.0309288 -0.64125711 2.352
0.035052639 -0.64125711 2.352
0.039176479 -0.64125711 2.352
0.043300319 -0.64125711 2.352
0.047746774 -0.64561939 2.368
0.051898666 -0.64561939 2.368
0.055671841 -0.64125711 2.352
0.059821103 -0.64152974 2.3530002
0.064381525 -0.64589202 2.3690002
0.06810122 -0.64180243 2.3540001
0.072228566 -0.64180243 2.3540001
0.076355912 -0.64180243 2.3540001
0.080483258 -0.64180243 2.3540001
0.084574662 -0.64152974 2.3530002
0.089303404 -0.64589202 2.3690002
0.093299247 -0.6448015 2.365
-1.0295608 -1.1084819 4.092
-1.0078949 -1.0927702 4.0340004
-1.00107 -1.0930412 4.0350003
-0.99645877 -1.0957501 4.0450001
-0.9776262 -1.0827473 3.9970002
-0.97086096 -1.0830182 3.9980001
-0.96385115 -1.0830182 3.9980001
-0.71870798 -0.81348264 3.0030003
-0.71320516 -0.8132118 3.0020001
-0.7107715 -0.81646246 3.0140002
-0.70525289 -0.81619155 3.0130002
-0.70275789 -0.81944227 3.0250001
-0.69215113 -0.8132118 3.0020001
-0.68734521 -0.81375355 3.0040002
-0.68207824 -0.81375355 3.0040002
-0.49634326 -0.59677064 2.2030001
-0.48979804 -0.59351999 2.1910002
-0.49882069 -0.60923159 2.2490001
-0.49487746 -0.60923159 2.2490001
-0.49093419 -0.60923159 2.2490001
-0.48699096 -0.60923159 2.2490001
-0.48261815 -0.60868984 2.2470002
-0.47846538 -0.60841894 2.2460001
-0.47431612 -0.60814804 2.2450001
-0.47037989 -0.60814804 2.2450001
-0.46956021 -0.61221141 2.26
-0.46559766 -0.61221141 2.26
-0.46163514 -0.61221141 2.26
-0.45463493 -0.60814804 2.2450001
-0.4506987 -0.60814804 2.2450001
-0.44676247 -0.60814804 2.2450001
-0.44282624 -0.60814804 2.2450001
-0.43889001 -0.60814804 2.2450001
-0.43495378 -0.60814804 2.2450001
-0.43005759 -0.60679358 2.24
-0.424418 -0.60435557 2.2310002
-0.42050633 -0.60435557 2.2310002
-0.41678137 -0.60462648 2.2320001
-0.41268295 -0.60435557 2.2310002
-0.41133639 -0.60814804 2.2450001
-0.40740016 -0.60814804 2.2450001
-0.40382335 -0.60868984 2.2470002
-0.40130731 -0.61085695 2.2550001
-0.39788216 -0.6116696 2.2580001
-0.3940976 -0.6119405 2.2590001
-0.38754627 -0.60787714 2.2440002
-0.38480845 -0.6097734 2.2510002
-0.38170767 -0.61112785 2.256
-0.37775216 -0.61112785 2.256
-0.37346527 -0.61058605 2.2540002
-0.36836568 -0.60868984 2.2470002
-0.36507469 -0.6097734 2.2510002
-0.36257181 -0.61221141 2.26
-0.35892662 -0.61275315 2.2620001
-0.35339135 -0.6100443 2.2520001
-0.34944284 -0.6100443 2.2520001
-0.34488067 -0.60896069 2.2480001
-0.34093916 -0.60896069 2.2480001
-0.33699769 -0.60896069 2.2480001
-0.33527854 -0.61302406 2.263
-0.33131075 -0.61302406 2.263
-0.32734296 -0.61302406 2.263
-0.32337517 -0.61302406 2.263
-0.31912509 -0.61248231 2.2610002
-0.3150214 -0.61221141 2.26
-0.31105888 -0.61221141 2.26
-0.30709633 -0.61221141 2.26
-0.30313379 -0.61221141 2.26
-0.29943603 -0.61275315 2.2620001
-0.29533935 -0.61248231 2.2610002
-0.2916328 -0.61302406 2.263
-0.28766501 -0.61302406 2.263
-0.28369722 -0.61302406 2.263
-0.2817072 -0.61735833 2.279
-0.27771133 -0.61735833 2.279
-0.2737155 -0.61735833 2.279
-0.26960129 -0.61708742 2.2780001
-0.26560721 -0.61708742 2.2780001
-0.26149827 -0.61681652 2.2770002
-0.25750592 -0.61681652 2.2770002
-0.25351357 -0.61681652 2.2770002
-0.24941167 -0.61654562 2.276
-0.24520542 -0.61600387 2.2740002
-0.24111226 -0.61573297 2.273
-0.23723125 -0.61600387 2.2740002
-0.23334675 -0.61627477 2.2750001
-0.22935791 -0.61627477 2.2750001
-0.22546814 -0.61654562 2.276
-0.22157487 -0.61681652 2.2770002
-0.21758252 -0.61681652 2.2770002
-0.21359019 -0.61681652 2.2770002
-0.20978194 -0.61735833 2.279
-0.20578611 -0.61735833 2.279
-0.20037356 -0.61302406 2.263
-0.19631898 -0.61275315 2.2620001
-0.19235294 -0.61275315 2.2620001
-0.1883869 -0.61275315 2.2620001
-0.18442085 -0.61275315 2.2620001
-0.18045482 -0.61275315 2.2620001
-0.17765912 -0.61681652 2.2770002
-0.17366679 -0.61681652 2.2770002
-0.17198446 -0.6252141 2.3080001
-0.16793777 -0.6252141 2.3080001
-0.16389108 -0.6252141 2.3080001
-0.16074473 -0.62873566 2.3210001
-0.15687774 -0.62954837 2.3240001
-0.15286875 -0.62981927 2.325
-0.14860027 -0.62900656 2.322
-0.14452901 -0.62900656 2.322
-0.14045778 -0.62900656 2.322
-0.13638654 -0.62900656 2.322
-0.13242927 -0.62954837 2.3240001
-0.12835452 -0.62954837 2.3240001
-0.12427977 -0.62954837 2.3240001
-0.12020502 -0.62954837 2.3240001
-0.11603034 -0.62900656 2.322
-0.11133228 -0.625485 2.309
-0.10649396 -0.62087989 2.2920001
-0.10247532 -0.62087989 2.2920001
-0.098714419 -0.62250519 2.2980001
-0.094932482 -0.62413055 2.3040001
-0.090892799 -0.62413055 2.3040001
-0.086777724 -0.6235888 2.302
-0.082741551 -0.6235888 2.302
-0.078705378 -0.6235888 2.302
-0.074669205 -0.6235888 2.302
-0.071093284 -0.62765211 2.3170002
-0.06668365 -0.62440145 2.3050001
-0.062723748 -0.6252141 2.3080001
-0.058626205 -0.62467235 2.306
-0.05455935 -0.62440145 2.3050001
-0.050496001 -0.62413055 2.3040001
-0.046476483 -0.62440145 2.3050001
-0.04243505 -0.62440145 2.3050001
-0.038410272 -0.62467235 2.306
-0.034456506 -0.62629765 2.312
-0.03041595 -0.62656856 2.3130002
-0.026383283 -0.62711036 2.3150001
-0.022401463 -0.62927747 2.3230002
-0.01843104 -0.63279903 2.3360002
-0.014329117 -0.63252813 2.335
-0.010248234 -0.63334084 2.3380001
-0.00614894 -0.63334084 2.3380001
-0.0020496466 -0.63334084 2.3380001
0.0020496466 -0.63334084 2.3380001
0.00615157 -0.63361168 2.3390002
0.010252616 -0.63361168 2.3390002
0.014365937 -0.63415349 2.3410001
0.01847049 -0.63415349 2.3410001
0.02271005 -0.63794595 2.355
0.026827753 -0.63767505 2.3540001
0.030968251 -0.63794595 2.355
0.035335802 -0.64228016 2.3710001
0.039492957 -0.64228016 2.3710001
0.043594878 -0.64146751 2.368
0.047746774 -0.64146751 2.368
0.051898666 -0.64146751 2.368
0.056050561 -0.64146751 2.368
0.060278721 -0.64228016 2.3710001
0.064435877 -0.64228016 2.3710001
0.068593033 -0.64228016 2.3710001
0.072750181 -0.64228016 2.3710001
0.076907337 -0.64228016 2.3710001
0.080483258 -0.63767505 2.3540001
0.084574662 -0.63740414 2.3530002
0.089303404 -0.64173841 2.3690002
0.09306255 -0.6390295 2.3590002
-1.0295608 -1.1013073 4.092
-1.0221363 -1.1010381 4.0910001
-1.003551 -1.0886579 4.0450001
-0.99645877 -1.0886579 4.0450001
-0.96661967 -1.0636281 3.9520001
-0.72219622 -0.80041242 2.9740002
-0.71698183 -0.80041242 2.9740002
-0.71248543 -0.80121988 2.9770002
-0.71296757 -0.80767912 3.0010002
-0.71383721 -0.8146767 3.0270002
-0.70806175 -0.81413841 3.0250001
-0.70345485 -0.81494582 3.0280001
-0.69192058 -0.80767912 3.0010002
-0.68711644 -0.80821741 3.0030003
-0.68185115 -0.80821741 3.0030003
-0.49341428 -0.58940929 2.1900001
-0.48935094 -0.58914018 2.1890001
-0.48750907 -0.59156239 2.1980002
-0.48937637 -0.59855992 2.2240002
-0.49093419 -0.60528839 2.2490001
-0.48699096 -0.60528839 2.2490001
-0.48261815 -0.6047501 2.2470002
-0.47654811 -0.60205871 2.237
-0.47431612 -0.60421181 2.2450001
-0.47037989 -0.60421181 2.2450001
-0.46644366 -0.60421181 2.2450001
-0.46497962 -0.60744143 2.2570002
-0.46102235 -0.60744143 2.2570002
-0.45463493 -0.60421181 2.2450001
-0.4506987 -0.60421181 2.2450001
-0.44676247 -0.60421181 2.2450001
-0.4398675 -0.60017478 2.23
-0.43595755 -0.60017478 2.23
-0.43204764 -0.60017478 2.23
-0.42717776 -0.59882909 2.2250001
-0.42156446 -0.59640688 2.2160001
-0.41767907 -0.59640688 2.2160001
-0.41117945 -0.59263891 2.2020001
-0.40990829 -0.59640688 2.2160001
-0.40583968 -0.5961377 2.2150002
-0.40231898 -0.59667599 2.217
-0.39843184 -0.59667599 2.217
-0.39703619 -0.6004439 2.2310002
-0.39629629 -0.60528839 2.2490001
-0.39252749 -0.6055575 2.25
-0.38754627 -0.60394269 2.2440002
-0.3836118 -0.60394269 2.2440002
-0.38170767 -0.60717231 2.256
-0.37775216 -0.60717231 2.256
-0.37379664 -0.60717231 2.256
-0.36852962 -0.60501921 2.2480001
-0.36685869 -0.60878712 2.2620001
-0.36289266 -0.60878712 2.2620001
-0.35892662 -0.60878712 2.2620001
-0.35496059 -0.60878712 2.2620001
-0.35099453 -0.60878712 2.2620001
-0.34641483 -0.6077106 2.2580001
-0.34275913 -0.60824889 2.26
-0.33849677 -0.6077106 2.2580001
-0.33379698 -0.60636491 2.253
-0.32911471 -0.60501921 2.2480001
-0.3251732 -0.60501921 2.2480001
-0.32337517 -0.60905629 2.263
-0.31912509 -0.608518 2.2610002
-0.3150214 -0.60824889 2.26
-0.31105888 -0.60824889 2.26
-0.30709633 -0.60824889 2.26
-0.30313379 -0.60824889 2.26
-0.29917127 -0.60824889 2.26
-0.29533935 -0.608518 2.2610002
-0.29150394 -0.60878712 2.2620001
-0.2875379 -0.60878712 2.2620001
-0.28357187 -0.60878712 2.2620001
-0.27960581 -0.60878712 2.2620001
-0.27600536 -0.60959452 2.2650001
-0.27179384 -0.60905629 2.263
-0.26758936 -0.608518 2.2610002
-0.26397485 -0.60932541 2.2640002
-0.25931624 -0.6077106 2.2580001
-0.25569648 -0.608518 2.2610002
-0.25351357 -0.6128242 2.2770002
-0.24930207 -0.61228591 2.2750001
-0.24520542 -0.6120168 2.2740002
-0.24111226 -0.61174762 2.273
-0.23733558 -0.61228591 2.2750001
-0.23334675 -0.61228591 2.2750001
-0.22925709 -0.6120168 2.2740002
-0.22536908 -0.61228591 2.2750001
-0.22157487 -0.6128242 2.2770002
-0.21758252 -0.6128242 2.2770002
-0.21359019 -0.6128242 2.2770002
-0.20959786 -0.6128242 2.2770002
-0.20560551 -0.6128242 2.2770002
-0.20161317 -0.6128242 2.2770002
-0.19762082 -0.6128242 2.2770002
-0.19362849 -0.6128242 2.2770002
-0.1883869 -0.60878712 2.2620001
-0.18442085 -0.60878712 2.2620001
-0.18165147 -0.6128242 2.2770002
-0.17765912 -0.6128242 2.2770002
-0.17366679 -0.6128242 2.2770002
-0.17086671 -0.6171304 2.2930002
-0.16793777 -0.62116742 2.3080001
-0.16389108 -0.62116742 2.3080001
-0.15984438 -0.62116742 2.3080001
-0.15586519 -0.62143654 2.309
-0.1518825 -0.62170571 2.3100002
-0.1476403 -0.62089831 2.3070002
-0.14359537 -0.62089831 2.3070002
-0.13955043 -0.62089831 2.3070002
-0.13550548 -0.62089831 2.3070002
-0.13151753 -0.62116742 2.3080001
-0.12747084 -0.62116742 2.3080001
-0.1235311 -0.62170571 2.3100002
-0.11942918 -0.62143654 2.309
-0.11538073 -0.62143654 2.309
-0.11070547 -0.6179378 2.296
-0.10649396 -0.61686122 2.2920001
-0.10256474 -0.61739951 2.2940001
-0.098542593 -0.61739951 2.2940001
-0.094932482 -0.6200909 2.3040001
-0.090813898 -0.61955261 2.302
-0.086513847 -0.61766863 2.2950001
-0.082454003 -0.61739951 2.2940001
-0.078739569 -0.61982173 2.3030002
-0.07518819 -0.62385881 2.3180001
-0.071123965 -0.62385881 2.3180001
-0.066654719 -0.6200909 2.3040001
-0.062696569 -0.62089831 2.3070002
-0.058626205 -0.62062913 2.306
-0.05453568 -0.6200909 2.3040001
-0.050496001 -0.6200909 2.3040001
-0.046456318 -0.6200909 2.3040001
-0.04243505 -0.62036002 2.3050001
-0.038410272 -0.62062913 2.306
-0.034411795 -0.62143654 2.309
-0.0303765 -0.62170571 2.3100002
-0.026383283 -0.6230514 2.3150001
-0.022401463 -0.62520444 2.3230002
-0.01844682 -0.62924153 2.3380001
-0.01434139 -0.62897241 2.3370001
-0.010248234 -0.62924153 2.3380001
-0.00614894 -0.62924153 2.3380001
-0.0020496466 -0.62924153 2.3380001
0.0020496466 -0.62924153 2.3380001
0.00614894 -0.62924153 2.3380001
0.010248234 -0.62924153 2.3380001
0.014464123 -0.63435513 2.3570001
0.018604619 -0.63462424 2.358
0.02271005 -0.63381684 2.355
0.026827753 -0.63354772 2.3540001
0.030968251 -0.63381684 2.355
0.035335802 -0.63812304 2.3710001
0.039492957 -0.63812304 2.3710001
0.043613289 -0.63758475 2.3690002
0.047766935 -0.63758475 2.3690002
0.051964417 -0.63812304 2.3710001
0.056121569 -0.63812304 2.3710001
0.060278721 -0.63812304 2.3710001
0.064435877 -0.63812304 2.3710001
0.068593033 -0.63812304 2.3710001
0.072750181 -0.63812304 2.3710001
0.076907337 -0.63812304 2.3710001
0.081064492 -0.63812304 2.3710001
0.084790319 -0.63489342 2.3590002
0.088323288 -0.63058722 2.3430002
0.092312999 -0.62977982 2.3400002
-1.0295608 -1.0941325 4.092
-1.0221363 -1.0938652 4.0910001
-1.0030549 -1.0810308 4.0430002
-0.99571973 -1.0807635 4.0420003
-0.96564132 -1.0556294 3.9480002
-0.72195339 -0.79493064 2.973
-0.71674073 -0.79493064 2.973
-0.71152806 -0.79493064 2.973
-0.71866941 -0.80883455 3.0250001
-0.71336555 -0.80883455 3.0250001
-0.70806175 -0.80883455 3.0250001
-0.70345485 -0.80963671 3.0280001
-0.69192058 -0.8024174 3.0010002
-0.68688762 -0.80268478 3.0020001
-0.68412173 -0.80562598 3.0130002
-0.49341428 -0.5855695 2.1900001
-0.48935094 -0.58530211 2.1890001
-0.48750907 -0.58770859 2.1980002
-0.48937637 -0.59466052 2.2240002
-0.48765987 -0.59733438 2.2340002
-0.48352638 -0.597067 2.233
-0.47918162 -0.59653223 2.2310002
-0.47228751 -0.59278888 2.217
-0.47135824 -0.59653223 2.2310002
-0.47037989 -0.60027558 2.2450001
-0.46644366 -0.60027558 2.2450001
-0.46250743 -0.60027558 2.2450001
-0.45857117 -0.60027558 2.2450001
-0.45179981 -0.59653223 2.2310002
-0.44909266 -0.59813648 2.237
