# .PCD v0.7 - Point Cloud Data file format
VERSION 0.7
FIELDS x y z
SIZE 4 4 4
TYPE F F F
COUNT 1 1 1
WIDTH 1378
HEIGHT 1
VIEWPOINT 0 0 0 1 0 0 0
POINTS 1378
DATA ascii
0.02041143 0.043439709 0.597
0.021494113 0.043512475 0.59800005
0.022542607 0.043512475 0.59800005
0.0235122 0.043366946 0.59600002
0.024515983 0.043294184 0.59500003
0.025559217 0.043294184 0.59500003
0.02664716 0.043366946 0.59600002
0.027692147 0.043366946 0.59600002
0.028737133 0.043366946 0.59600002
0.029832089 0.043439709 0.597
0.030878831 0.043439709 0.597
0.031979047 0.043512475 0.59800005
0.033027541 0.043512475 0.59800005
0.034076031 0.043512475 0.59800005
0.035183262 0.043585237 0.59900004
0.036293998 0.043657999 0.60000002
0.037408244 0.043730762 0.60100001
0.038525995 0.043803528 0.60200006
0.0395815 0.043803528 0.60200006
0.040637005 0.043803528 0.60200006
0.041761771 0.04387629 0.60300004
0.042890038 0.043949053 0.60400003
0.044094581 0.044094581 0.60600001
0.045380648 0.044312868 0.60900003
0.046295889 0.044167344 0.60700005
0.047516208 0.044312868 0.60900003
-0.00593065 0.04582775 0.61500001
-0.0048286798 0.045604199 0.61200005
-0.0037495033 0.045529682 0.611
-0.0026694499 0.045380648 0.60900003
-0.00159904 0.045306131 0.60800004
-0.00053301331 0.045306131 0.60800004
0.00053125998 0.045157101 0.60600001
0.00159115 0.045082584 0.60500002
0.0026519166 0.045082584 0.60500002
0.0037065467 0.045008067 0.60400003
0.0047655599 0.045008067 0.60400003
0.00581493 0.04493355 0.60300004
0.0068607931 0.044859033 0.60200006
0.0079294499 0.04493355 0.60300004
0.0090016136 0.045008067 0.60400003
0.01004397 0.04493355 0.60300004
0.01110123 0.04493355 0.60300004
0.012138327 0.044859033 0.60200006
0.013171917 0.044784516 0.60100001
0.01422567 0.044784516 0.60100001
0.015279423 0.044784516 0.60100001
0.016333176 0.044784516 0.60100001
0.01738693 0.044784516 0.60100001
0.018379316 0.044635482 0.59900004
0.019397127 0.044560965 0.59800005
0.02041143 0.044486448 0.597
0.021422226 0.044411931 0.59600002
0.022504909 0.044486448 0.597
0.023472751 0.044337418 0.59500003
0.024515983 0.044337418 0.59500003
0.025602173 0.044411931 0.59600002
0.026691869 0.044486448 0.597
0.02773861 0.044486448 0.597
0.02878535 0.044486448 0.597
0.02988206 0.044560965 0.59800005
0.030982276 0.044635482 0.59900004
0.032086 0.044709999 0.60000002
0.033082768 0.044635482 0.59900004
0.034189999 0.044709999 0.60000002
0.035300735 0.044784516 0.60100001
0.03635449 0.044784516 0.60100001
0.037470486 0.044859033 0.60200006
0.038525995 0.044859033 0.60200006
0.039712999 0.045008067 0.60400003
0.040772013 0.045008067 0.60400003
0.041900285 0.045082584 0.60500002
0.043032061 0.045157101 0.60600001
0.044167344 0.045231618 0.60700005
0.045380648 0.045380648 0.60900003
0.046448428 0.045380648 0.60900003
0.047672257 0.045529682 0.611
0.048583988 0.045380648 0.60900003
-0.0070203468 0.046982318 0.61600006
-0.0059113633 0.046753511 0.61300004
-0.0048286798 0.046677239 0.61200005
-0.0037495033 0.046600971 0.611
-0.0026782167 0.046600971 0.611
-0.0016016699 0.046448428 0.60900003
-0.00053388998 0.046448428 0.60900003
0.00053301331 0.04637216 0.60800004
0.00159378 0.046219621 0.60600001
0.0026563001 0.046219621 0.60600001
0.0037126832 0.046143349 0.60500002
0.0047655599 0.046067081 0.60400003
0.00581493 0.04599081 0.60300004
0.0068607931 0.045914538 0.60200006
0.0079294499 0.04599081 0.60300004
0.0089867096 0.04599081 0.60300004
0.01004397 0.04599081 0.60300004
0.01110123 0.04599081 0.60300004
0.01215849 0.04599081 0.60300004
0.01321575 0.04599081 0.60300004
0.01427301 0.04599081 0.60300004
0.015279423 0.04583827 0.60100001
0.016333176 0.04583827 0.60100001
0.01738693 0.04583827 0.60100001
0.018409999 0.045761999 0.60000002
0.019429563 0.045685731 0.59900004
0.020445621 0.045609459 0.59800005
0.021422226 0.04545692 0.59600002
0.022504909 0.045533191 0.597
0.023472751 0.045380648 0.59500003
0.024557186 0.04545692 0.59600002
0.025731044 0.045685731 0.59900004
0.02673658 0.045609459 0.59800005
0.027831536 0.045685731 0.59900004
0.028833566 0.045609459 0.59800005
0.02988206 0.045609459 0.59800005
0.030982276 0.045685731 0.59900004
0.032086 0.045761999 0.60000002
0.033193231 0.04583827 0.60100001
0.034246985 0.04583827 0.60100001
0.035359472 0.045914538 0.60200006
0.036414981 0.045914538 0.60200006
0.037532728 0.04599081 0.60300004
0.038525995 0.045914538 0.60200006
0.039647251 0.04599081 0.60300004
0.040839516 0.046143349 0.60500002
0.041969541 0.046219621 0.60600001
0.043032061 0.046219621 0.60600001
0.044240106 0.04637216 0.60800004
0.045306131 0.04637216 0.60800004
0.046448428 0.046448428 0.60900003
0.047672257 0.046600971 0.611
0.048583988 0.046448428 0.60900003
-0.0070203468 0.048062373 0.61600006
-0.0059113633 0.047828302 0.61300004
-0.0048286798 0.047750279 0.61200005
-0.0037433666 0.047594234 0.61000001
-0.0026738334 0.047594234 0.61000001
-0.00159904 0.047438186 0.60800004
-0.00053301331 0.047438186 0.60800004
0.00053301331 0.047438186 0.60800004
0.0015964099 0.047360163 0.60700005
0.0026563001 0.047282141 0.60600001
0.0037126832 0.047204118 0.60500002
0.0047655599 0.047126092 0.60400003
0.0058245733 0.047126092 0.60400003
0.0068721902 0.04704807 0.60300004
0.0079294499 0.04704807 0.60300004
0.0089867096 0.04704807 0.60300004
0.010027314 0.046970047 0.60200006
0.01108282 0.046970047 0.60200006
0.012178653 0.047126092 0.60400003
0.013237666 0.047126092 0.60400003
0.01427301 0.04704807 0.60300004
0.015304847 0.046970047 0.60200006
0.016333176 0.046892025 0.60100001
0.017357999 0.046813998 0.60000002
0.018379316 0.046735976 0.59900004
0.019429563 0.046735976 0.59900004
0.020445621 0.046657953 0.59800005
0.021458169 0.046579931 0.597
0.022504909 0.046579931 0.597
0.02355165 0.046579931 0.597
0.024680797 0.046735976 0.59900004
0.025774 0.046813998 0.60000002
0.026781289 0.046735976 0.59900004
0.027924463 0.046892025 0.60100001
0.028929999 0.046813998 0.60000002
0.029982001 0.046813998 0.60000002
0.031034 0.046813998 0.60000002
0.032139476 0.046892025 0.60100001
0.033248458 0.046970047 0.60200006
0.034303967 0.046970047 0.60200006
0.035300735 0.046892025 0.60100001
0.03635449 0.046892025 0.60100001
0.037532728 0.04704807 0.60300004
0.038525995 0.046970047 0.60200006
0.039712999 0.047126092 0.60400003
0.040839516 0.047204118 0.60500002
0.041969541 0.047282141 0.60600001
0.043103069 0.047360163 0.60700005
0.044240106 0.047438186 0.60800004
0.045306131 0.047438186 0.60800004
0.046448428 0.047516208 0.60900003
0.047594234 0.047594234 0.61000001
0.048583988 0.047516208 0.60900003
0.052127477 0.047828302 0.61300004
-0.00593065 0.049062651 0.61500001
-0.00483657 0.048903096 0.61300004
-0.0037433666 0.048663765 0.61000001
-0.0026694499 0.048583988 0.60900003
-0.0016043 0.048663765 0.61000001
-0.00053476664 0.048663765 0.61000001
0.00053301331 0.048504215 0.60800004
0.0015964099 0.048424438 0.60700005
0.0026606834 0.048424438 0.60700005
0.0037126832 0.048264883 0.60500002
0.0047734501 0.048264883 0.60500002
0.00581493 0.048105329 0.60300004
0.0068721902 0.048105329 0.60300004
0.0079426002 0.048185106 0.60400003
0.0090016136 0.048185106 0.60400003
0.01004397 0.048105329 0.60300004
0.01110123 0.048105329 0.60300004
0.012178653 0.048185106 0.60400003
0.01321575 0.048105329 0.60300004
0.01427301 0.048105329 0.60300004
0.015304847 0.048025552 0.60200006
0.016333176 0.047945775 0.60100001
0.017357999 0.047865998 0.60000002
0.018379316 0.047786225 0.59900004
0.019397127 0.047706448 0.59800005
0.020445621 0.047706448 0.59800005
0.021458169 0.04762667 0.597
0.022655696 0.047945775 0.60100001
0.02363055 0.047786225 0.59900004
0.024680797 0.047786225 0.59900004
0.025774 0.047865998 0.60000002
0.02691542 0.048025552 0.60200006
0.027970927 0.048025552 0.60200006
0.028929999 0.047865998 0.60000002
0.030081939 0.048025552 0.60200006
0.031137446 0.048025552 0.60200006
0.032139476 0.047945775 0.60100001
0.033303689 0.048105329 0.60300004
0.034360949 0.048105329 0.60300004
0.035359472 0.048025552 0.60200006
0.036414981 0.048025552 0.60200006
0.037470486 0.048025552 0.60200006
0.038589988 0.048105329 0.60300004
0.039712999 0.048185106 0.60400003
0.040839516 0.048264883 0.60500002
0.041900285 0.048264883 0.60500002
0.043032061 0.048344661 0.60600001
0.044167344 0.048424438 0.60700005
0.045231618 0.048424438 0.60700005
0.04637216 0.048504215 0.60800004
0.047594234 0.048663765 0.61000001
0.048663765 0.048663765 0.61000001
0.049896359 0.048823319 0.61200005
-0.0059595802 0.050385538 0.61800003
-0.00483657 0.049977891 0.61300004
-0.00375564 0.049896359 0.61200005
-0.0026782167 0.049814831 0.611
-0.0016043 0.0497333 0.61000001
-0.00053476664 0.0497333 0.61000001
0.00053301331 0.04957024 0.60800004
0.0015964099 0.049488708 0.60700005
0.0026606834 0.049488708 0.60700005
0.0037188199 0.04940718 0.60600001
0.0047734501 0.049325649 0.60500002
0.0058245733 0.049244121 0.60400003
0.0068835868 0.049244121 0.60400003
0.0079557495 0.049325649 0.60500002
0.0090016136 0.049244121 0.60400003
0.01004397 0.049162589 0.60300004
0.01110123 0.049162589 0.60300004
0.012138327 0.049081061 0.60200006
0.013193834 0.049081061 0.60200006
0.01424934 0.049081061 0.60200006
0.015304847 0.049081061 0.60200006
0.016333176 0.048999529 0.60100001
0.01738693 0.048999529 0.60100001
0.018440682 0.048999529 0.60100001
0.019429563 0.04883647 0.59900004
0.020445621 0.048754938 0.59800005
0.021601943 0.048999529 0.60100001
0.022693394 0.049081061 0.60200006
0.023748901 0.049081061 0.60200006
0.024804406 0.049081061 0.60200006
0.025902869 0.049162589 0.60300004
0.026960129 0.049162589 0.60300004
0.027970927 0.049081061 0.60200006
0.029026434 0.049081061 0.60200006
0.030081939 0.049081061 0.60200006
0.031137446 0.049081061 0.60200006
0.032086 0.048918001 0.60000002
0.033193231 0.048999529 0.60100001
0.034303967 0.049081061 0.60200006
0.035418209 0.049162589 0.60300004
0.036475468 0.049162589 0.60300004
0.037532728 0.049162589 0.60300004
0.038653985 0.049244121 0.60400003
0.039712999 0.049244121 0.60400003
0.040839516 0.049325649 0.60500002
0.041900285 0.049325649 0.60500002
0.043032061 0.04940718 0.60600001
0.044167344 0.049488708 0.60700005
0.045231618 0.049488708 0.60700005
0.046295889 0.049488708 0.60700005
0.047516208 0.049651768 0.60900003
0.048663765 0.0497333 0.61000001
0.049977891 0.049977891 0.61300004
0.052127477 0.049977891 0.61300004
-0.0059402934 0.051302534 0.61600006
-0.0048444602 0.051135965 0.61400002
-0.0037617767 0.051052682 0.61300004
-0.0026782167 0.050886117 0.611
-0.00160693 0.050886117 0.611
-0.00053476664 0.050802834 0.61000001
0.00053301331 0.050636265 0.60800004
0.00159904 0.050636265 0.60800004
0.0026606834 0.050552983 0.60700005
0.0037249567 0.050552983 0.60700005
0.0047813398 0.0504697 0.60600001
0.0058342167 0.050386418 0.60500002
0.0068949834 0.050386418 0.60500002
0.0079557495 0.050386418 0.60500002
0.0090314196 0.0504697 0.60600001
0.010060627 0.050303131 0.60400003
0.01110123 0.050219849 0.60300004
0.012138327 0.050136566 0.60200006
0.01321575 0.050219849 0.60300004
0.01427301 0.050219849 0.60300004
0.015304847 0.050136566 0.60200006
0.016360354 0.050136566 0.60200006
0.01738693 0.050053284 0.60100001
0.018440682 0.050053284 0.60100001
0.019462001 0.049970001 0.60000002
0.020479809 0.049886715 0.59900004
0.021637887 0.050136566 0.60200006
0.022693394 0.050136566 0.60200006
0.023748901 0.050136566 0.60200006
0.024804406 0.050136566 0.60200006
0.025859913 0.050136566 0.60200006
0.026960129 0.050219849 0.60300004
0.027970927 0.050136566 0.60200006
0.02907465 0.050219849 0.60300004
0.03013191 0.050219849 0.60300004
0.031137446 0.050136566 0.60200006
0.032086 0.049970001 0.60000002
0.033137999 0.049970001 0.60000002
0.034246985 0.050053284 0.60100001
0.035418209 0.050219849 0.60300004
0.03653596 0.050303131 0.60400003
0.037594974 0.050303131 0.60400003
0.038653985 0.050303131 0.60400003
0.03977875 0.050386418 0.60500002
0.040839516 0.050386418 0.60500002
0.041969541 0.0504697 0.60600001
0.043032061 0.0504697 0.60600001
0.044167344 0.050552983 0.60700005
0.045231618 0.050552983 0.60700005
0.046295889 0.050552983 0.60700005
0.047516208 0.050719548 0.60900003
0.048743542 0.050886117 0.611
0.050059419 0.051135965 0.61400002
0.052127477 0.051052682 0.61300004
-0.0059499368 0.052467622 0.61700004
-0.0048444602 0.052212514 0.61400002
-0.0037617767 0.052127477 0.61300004
-0.0026825999 0.05204244 0.61200005
-0.00160693 0.051957402 0.611
-0.00053476664 0.051872365 0.61000001
0.00053564331 0.051957402 0.611
0.0016016699 0.051787328 0.60900003
0.0026650666 0.051702294 0.60800004
0.0037249567 0.051617257 0.60700005
0.0047813398 0.05153222 0.60600001
0.0058438601 0.05153222 0.60600001
0.0069063799 0.05153222 0.60600001
0.0079688998 0.05153222 0.60600001
0.0090165166 0.051447183 0.60500002
0.01004397 0.051277108 0.60300004
0.01110123 0.051277108 0.60300004
0.01215849 0.051277108 0.60300004
0.013237666 0.051362146 0.60400003
0.01432035 0.051447183 0.60500002
0.01540654 0.05153222 0.60600001
0.01646906 0.05153222 0.60600001
0.017502651 0.051447183 0.60500002
0.018440682 0.051107038 0.60100001
0.019494437 0.051107038 0.60100001
0.020548189 0.051107038 0.60100001
0.021601943 0.051107038 0.60100001
0.02273109 0.051277108 0.60300004
0.02378835 0.051277108 0.60300004
0.024845609 0.051277108 0.60300004
0.025902869 0.051277108 0.60300004
0.026960129 0.051277108 0.60300004
0.028017391 0.051277108 0.60300004
0.02907465 0.051277108 0.60300004
0.03013191 0.051277108 0.60300004
0.03118917 0.051277108 0.60300004
0.032086 0.051022001 0.60000002
0.033303689 0.051277108 0.60300004
0.034417935 0.051362146 0.60400003
0.035535682 0.051447183 0.60500002
0.036656938 0.05153222 0.60600001
0.037719458 0.05153222 0.60600001
0.038781978 0.05153222 0.60600001
0.039844498 0.05153222 0.60600001
0.040974524 0.051617257 0.60700005
0.042038795 0.051617257 0.60700005
0.043103069 0.051617257 0.60700005
0.044167344 0.051617257 0.60700005
0.045231618 0.051617257 0.60700005
0.046295889 0.051617257 0.60700005
0.047516208 0.051787328 0.60900003
0.048823319 0.05204244 0.61200005
0.049977891 0.052127477 0.61300004
0.051135965 0.052212514 0.61400002
0.052127477 0.052127477 0.61300004
-0.0059595802 0.053636219 0.61800003
-0.0048523499 0.053375851 0.61500001
-0.0037801866 0.053462639 0.61600006
-0.00269575 0.053375851 0.61500001
-0.00160956 0.05311548 0.61200005
-0.00053564331 0.053028688 0.611
0.00053651998 0.05311548 0.61200005
0.00160693 0.053028688 0.611
0.0026694499 0.052855108 0.60900003
0.0037372301 0.052855108 0.60900003
0.0047971201 0.05276832 0.60800004
0.0058535035 0.052681528 0.60700005
0.0069177765 0.052681528 0.60700005
0.0079688998 0.05259474 0.60600001
0.0090165166 0.052507948 0.60500002
0.010060627 0.05242116 0.60400003
0.01111964 0.05242116 0.60400003
0.012178653 0.05242116 0.60400003
0.013259583 0.052507948 0.60500002
0.01434402 0.05259474 0.60600001
0.01540654 0.05259474 0.60600001
0.01646906 0.05259474 0.60600001
0.017531579 0.05259474 0.60600001
0.018563416 0.052507948 0.60500002
0.019559311 0.052334368 0.60300004
0.02058238 0.05224758 0.60200006
0.021601943 0.052160788 0.60100001
0.02273109 0.052334368 0.60300004
0.02378835 0.052334368 0.60300004
0.024845609 0.052334368 0.60300004
0.025945827 0.05242116 0.60400003
0.02700484 0.05242116 0.60400003
0.028017391 0.052334368 0.60300004
0.029026434 0.05224758 0.60200006
0.030081939 0.05224758 0.60200006
0.031137446 0.05224758 0.60200006
0.032086 0.052074 0.60000002
0.033303689 0.052334368 0.60300004
0.034474917 0.052507948 0.60500002
0.035535682 0.052507948 0.60500002
0.036656938 0.05259474 0.60600001
0.037719458 0.05259474 0.60600001
0.038781978 0.05259474 0.60600001
0.039910249 0.052681528 0.60700005
0.040974524 0.052681528 0.60700005
0.042038795 0.052681528 0.60700005
0.043032061 0.05259474 0.60600001
0.044167344 0.052681528 0.60700005
0.045231618 0.052681528 0.60700005
0.046448428 0.052855108 0.60900003
0.047672257 0.053028688 0.611
0.048982874 0.05328906 0.61400002
0.050059419 0.05328906 0.61400002
0.052212514 0.05328906 0.61400002
-0.0059692231 0.054808322 0.61900002
-0.0048444602 0.054365605 0.61400002
-0.0037801866 0.054542694 0.61600006
-0.00269575 0.054454148 0.61500001
-0.00161219 0.054277062 0.61300004
-0.00053651998 0.05418852 0.61200005
0.00053739664 0.054277062 0.61300004
0.00160693 0.054099977 0.611
0.0026738334 0.054011434 0.61000001
0.0037372301 0.053922888 0.60900003
0.0047971201 0.053834345 0.60800004
0.0058535035 0.053745802 0.60700005
0.0069177765 0.053745802 0.60700005
0.0079820501 0.053745802 0.60700005
0.0090314196 0.05365726 0.60600001
0.010077284 0.053568717 0.60500002
0.01113805 0.053568717 0.60500002
0.012198817 0.053568717 0.60500002
0.013259583 0.053568717 0.60500002
0.01436769 0.053745802 0.60700005
0.015431963 0.053745802 0.60700005
0.016496237 0.053745802 0.60700005
0.017531579 0.05365726 0.60600001
0.018563416 0.053568717 0.60500002
0.019526873 0.053303085 0.60200006
0.020548189 0.053214543 0.60100001
0.02167383 0.053391628 0.60300004
0.022768786 0.053480174 0.60400003
0.02378835 0.053391628 0.60300004
0.024845609 0.053391628 0.60300004
0.025902869 0.053391628 0.60300004
0.026960129 0.053391628 0.60300004
0.027970927 0.053303085 0.60200006
0.029026434 0.053303085 0.60200006
0.03013191 0.053391628 0.60300004
0.031137446 0.053303085 0.60200006
0.032086 0.053126 0.60000002
0.033303689 0.053391628 0.60300004
0.034474917 0.053568717 0.60500002
0.035535682 0.053568717 0.60500002
0.036656938 0.05365726 0.60600001
0.037781704 0.053745802 0.60700005
0.038845975 0.053745802 0.60700005
0.039910249 0.053745802 0.60700005
0.041042026 0.053834345 0.60800004
0.042108051 0.053834345 0.60800004
0.043103069 0.053745802 0.60700005
0.044167344 0.053745802 0.60700005
0.045380648 0.053922888 0.60900003
0.046600971 0.054099977 0.611
0.047828302 0.054277062 0.61300004
0.048982874 0.054365605 0.61400002
0.051219251 0.054454148 0.61500001
-0.0059788665 0.055983935 0.62
-0.00486024 0.055622745 0.61600006
-0.0037863234 0.055713043 0.61700004
-0.0027045168 0.055713043 0.61700004
-0.00161745 0.055532448 0.61500001
-0.00053739664 0.055351857 0.61300004
0.00053651998 0.05526156 0.61200005
0.00160693 0.055171262 0.611
0.0026782167 0.055171262 0.611
0.0037433666 0.055080965 0.61000001
0.0048050098 0.054990668 0.60900003
0.0058631469 0.054900374 0.60800004
0.0069291731 0.054900374 0.60800004
0.0079952003 0.054900374 0.60800004
0.0090314196 0.05471978 0.60600001
0.010093939 0.05471978 0.60600001
0.01115646 0.05471978 0.60600001
0.01221898 0.05471978 0.60600001
0.0132815 0.05471978 0.60600001
0.01436769 0.054810077 0.60700005
0.015431963 0.054810077 0.60700005
0.016496237 0.054810077 0.60700005
0.017502651 0.054629482 0.60500002
0.018532733 0.054539185 0.60400003
0.019526873 0.054358594 0.60200006
0.02058238 0.054358594 0.60200006
0.02167383 0.054448891 0.60300004
0.022768786 0.054539185 0.60400003
0.02378835 0.054448891 0.60300004
0.024845609 0.054448891 0.60300004
0.025902869 0.054448891 0.60300004
0.026960129 0.054448891 0.60300004
0.027970927 0.054358594 0.60200006
0.029026434 0.054358594 0.60200006
0.030081939 0.054358594 0.60200006
0.031137446 0.054358594 0.60200006
0.032086 0.054177999 0.60000002
0.03335892 0.054539185 0.60400003
0.034474917 0.054629482 0.60500002
0.035594419 0.05471978 0.60600001
0.036656938 0.05471978 0.60600001
0.037781704 0.054810077 0.60700005
0.038845975 0.054810077 0.60700005
0.039910249 0.054810077 0.60700005
0.041042026 0.054900374 0.60800004
0.042177308 0.054990668 0.60900003
0.043174081 0.054900374 0.60800004
0.044312868 0.054990668 0.60900003
0.045380648 0.054990668 0.60900003
0.046677239 0.05526156 0.61200005
0.047828302 0.055351857 0.61300004
0.049062651 0.055532448 0.61500001
-0.0059885099 0.057163049 0.62100005
-0.0048839101 0.056978948 0.61900002
-0.0037801866 0.0567028 0.61600006
-0.00269575 0.056610748 0.61500001
-0.00161482 0.0565187 0.61400002
-0.00053827331 0.0565187 0.61400002
0.00053827331 0.0565187 0.61400002
0.00160693 0.056242548 0.611
0.0026782167 0.056242548 0.611
0.0037495033 0.056242548 0.611
0.0048050098 0.056058448 0.60900003
0.0058631469 0.0559664 0.60800004
0.0069291731 0.0559664 0.60800004
0.0079952003 0.0559664 0.60800004
0.0090612266 0.0559664 0.60800004
0.010110596 0.055874351 0.60700005
0.01117487 0.055874351 0.60700005
0.01221898 0.055782299 0.60600001
0.0132815 0.055782299 0.60600001
0.01436769 0.055874351 0.60700005
0.015431963 0.055874351 0.60700005
0.016496237 0.055874351 0.60700005
0.017502651 0.055690251 0.60500002
0.018563416 0.055690251 0.60500002
0.019591747 0.055598199 0.60400003
0.020650759 0.055598199 0.60400003
0.021709774 0.055598199 0.60400003
0.022768786 0.055598199 0.60400003
0.023827801 0.055598199 0.60400003
0.024886813 0.055598199 0.60400003
0.025945827 0.055598199 0.60400003
0.02700484 0.055598199 0.60400003
0.028017391 0.055506151 0.60300004
0.02907465 0.055506151 0.60300004
0.03013191 0.055506151 0.60300004
0.03118917 0.055506151 0.60300004
0.032139476 0.055322051 0.60100001
0.03335892 0.055598199 0.60400003
0.034474917 0.055690251 0.60500002
0.035594419 0.055782299 0.60600001
0.036656938 0.055782299 0.60600001
0.037781704 0.055874351 0.60700005
0.038845975 0.055874351 0.60700005
0.039976001 0.0559664 0.60800004
0.041042026 0.0559664 0.60800004
0.042038795 0.055874351 0.60700005
0.043103069 0.055874351 0.60700005
0.044312868 0.056058448 0.60900003
0.045529682 0.056242548 0.611
0.046753511 0.056426648 0.61300004
0.04798435 0.056610748 0.61500001
0.049142428 0.0567028 0.61600006
0.051302534 0.0567028 0.61600006
-0.0059788665 0.058158066 0.62
-0.0048760199 0.057970461 0.61800003
-0.0037985966 0.058064263 0.61900002
-0.0027001332 0.057782851 0.61600006
-0.00161745 0.057689048 0.61500001
-0.00053914997 0.057689048 0.61500001
0.00053827331 0.057595246 0.61400002
0.00161219 0.057501443 0.61300004
0.0026782167 0.057313837 0.611
0.0037495033 0.057313837 0.611
0.0048050098 0.057126231 0.60900003
0.0058631469 0.057032425 0.60800004
0.0069291731 0.057032425 0.60800004
0.0079952003 0.057032425 0.60800004
0.0090612266 0.057032425 0.60800004
0.010110596 0.056938622 0.60700005
0.01117487 0.056938622 0.60700005
0.012239143 0.056938622 0.60700005
0.0132815 0.056844819 0.60600001
0.01436769 0.056938622 0.60700005
0.015431963 0.056938622 0.60700005
0.016496237 0.056938622 0.60700005
0.017531579 0.056844819 0.60600001
0.018563416 0.056751017 0.60500002
0.019624183 0.056751017 0.60500002
0.02068495 0.056751017 0.60500002
0.021745717 0.056751017 0.60500002
0.022768786 0.056657214 0.60400003
0.023827801 0.056657214 0.60400003
0.024886813 0.056657214 0.60400003
0.025945827 0.056657214 0.60400003
0.02700484 0.056657214 0.60400003
0.028017391 0.056563411 0.60300004
0.02907465 0.056563411 0.60300004
0.03013191 0.056563411 0.60300004
0.03118917 0.056563411 0.60300004
0.032192953 0.056469608 0.60200006
0.03335892 0.056657214 0.60400003
0.034417935 0.056657214 0.60400003
0.035535682 0.056751017 0.60500002
0.036656938 0.056844819 0.60600001
0.037843946 0.057032425 0.60800004
0.038909972 0.057032425 0.60800004
0.039976001 0.057032425 0.60800004
0.041042026 0.057032425 0.60800004
0.042038795 0.056938622 0.60700005
0.043103069 0.056938622 0.60700005
0.044385634 0.057220034 0.61000001
0.045604199 0.05740764 0.61200005
0.046829779 0.057595246 0.61400002
0.048062373 0.057782851 0.61600006
0.051302534 0.057782851 0.61600006
0.052467622 0.057876658 0.61700004
-0.0070887269 0.059436247 0.62200004
-0.0059788665 0.059245132 0.62
-0.0048760199 0.059054021 0.61800003
-0.0037924601 0.059054021 0.61800003
-0.0027001332 0.058862906 0.61600006
-0.00161482 0.058671791 0.61400002
-0.00053914997 0.058767349 0.61500001
0.00053827331 0.058671791 0.61400002
0.00161219 0.058576237 0.61300004
0.0026782167 0.058385123 0.611
0.0037495033 0.058385123 0.611
0.0048129 0.058289565 0.61000001
0.0058727898 0.058194011 0.60900003
0.0069405697 0.058194011 0.60900003
0.0080083497 0.058194011 0.60900003
0.0090463236 0.058002897 0.60700005
0.010110596 0.058002897 0.60700005
0.01117487 0.058002897 0.60700005
0.012259306 0.058098454 0.60800004
0.013325334 0.058098454 0.60800004
0.01439136 0.058098454 0.60800004
0.015457386 0.058098454 0.60800004
0.016523413 0.058098454 0.60800004
0.017589441 0.058098454 0.60800004
0.018624783 0.058002897 0.60700005
0.019656619 0.057907339 0.60600001
0.020719141 0.057907339 0.60600001
0.021781661 0.057907339 0.60600001
0.022806482 0.057811782 0.60500002
0.023867249 0.057811782 0.60500002
0.024886813 0.057716228 0.60400003
0.025945827 0.057716228 0.60400003
0.027049549 0.057811782 0.60500002
0.028063852 0.057716228 0.60400003
0.029171083 0.057811782 0.60500002
0.030181879 0.057716228 0.60400003
0.03118917 0.057620671 0.60300004
0.032246429 0.057620671 0.60300004
0.03335892 0.057716228 0.60400003
0.034474917 0.057811782 0.60500002
0.035594419 0.057907339 0.60600001
0.036777921 0.058098454 0.60800004
0.037843946 0.058098454 0.60800004
0.038909972 0.058098454 0.60800004
0.040041748 0.058194011 0.60900003
0.041109528 0.058194011 0.60900003
0.042315822 0.058385123 0.611
0.043245088 0.058194011 0.60900003
0.044385634 0.058289565 0.61000001
0.045604199 0.05848068 0.61200005
0.046829779 0.058671791 0.61400002
0.048140395 0.058958463 0.61700004
0.050304011 0.058958463 0.61700004
-0.0071001234 0.06062413 0.62300003
-0.0059788665 0.060332201 0.62
-0.0048760199 0.060137581 0.61800003
-0.0037924601 0.060137581 0.61800003
-0.0027001332 0.059942961 0.61600006
-0.00161745 0.059845649 0.61500001
-0.00053914997 0.059845649 0.61500001
0.00053827331 0.05974834 0.61400002
0.00161219 0.059651028 0.61300004
0.0026869832 0.059651028 0.61300004
0.0037495033 0.059456408 0.611
0.0048050098 0.059261791 0.60900003
0.0058727898 0.059261791 0.60900003
0.0069405697 0.059261791 0.60900003
0.0080083497 0.059261791 0.60900003
0.0090612266 0.059164479 0.60800004
0.010110596 0.059067171 0.60700005
0.01117487 0.059067171 0.60700005
0.01227947 0.059261791 0.60900003
0.013325334 0.059164479 0.60800004
0.01439136 0.059164479 0.60800004
0.015457386 0.059164479 0.60800004
0.016523413 0.059164479 0.60800004
0.017589441 0.059164479 0.60800004
0.018624783 0.059067171 0.60700005
0.019689057 0.059067171 0.60700005
0.02075333 0.059067171 0.60700005
0.021817604 0.059067171 0.60700005
0.02284418 0.058969859 0.60600001
0.0239067 0.058969859 0.60600001
0.024928017 0.058872551 0.60500002
0.025988784 0.058872551 0.60500002
0.02709426 0.058969859 0.60600001
0.028110316 0.058872551 0.60500002
0.029171083 0.058872551 0.60500002
0.030281819 0.058969859 0.60600001
0.031292617 0.058872551 0.60500002
0.032246429 0.05867793 0.60300004
0.033414152 0.058872551 0.60500002
0.034474917 0.058872551 0.60500002
0.035653155 0.059067171 0.60700005
0.03671743 0.059067171 0.60700005
0.037843946 0.059164479 0.60800004
0.038845975 0.059067171 0.60700005
0.039976001 0.059164479 0.60800004
0.041109528 0.059261791 0.60900003
0.042315822 0.059456408 0.611
0.043245088 0.059261791 0.60900003
0.044458397 0.059456408 0.611
0.045678716 0.059651028 0.61300004
0.046982318 0.059942961 0.61600006
0.048140395 0.060040269 0.61700004
0.049301978 0.060137581 0.61800003
0.050385538 0.060137581 0.61800003
0.052637696 0.060234889 0.61900002
-0.0082056001 0.061815519 0.62400001
-0.0071001234 0.061716456 0.62300003
-0.0059788665 0.061419267 0.62
-0.0048839101 0.061320204 0.61900002
-0.0037924601 0.061221141 0.61800003
-0.0027045168 0.061122075 0.61700004
-0.00161745 0.060923949 0.61500001
-0.00053914997 0.060923949 0.61500001
0.00053827331 0.060824886 0.61400002
0.00160956 0.06062676 0.61200005
0.0026738334 0.060428634 0.61000001
0.0037372301 0.060329571 0.60900003
0.0048050098 0.060329571 0.60900003
0.0058824331 0.060428634 0.61000001
0.0069519668 0.060428634 0.61000001
0.0080215 0.060428634 0.61000001
0.0090612266 0.060230505 0.60800004
0.010127253 0.060230505 0.60800004
0.01119328 0.060230505 0.60800004
0.012259306 0.060230505 0.60800004
0.013325334 0.060230505 0.60800004
0.01441503 0.060329571 0.60900003
0.015457386 0.060230505 0.60800004
0.016523413 0.060230505 0.60800004
0.01756051 0.060131442 0.60700005
0.018594099 0.060032379 0.60600001
0.019656619 0.060032379 0.60600001
0.02075333 0.060131442 0.60700005
0.021781661 0.060032379 0.60600001
0.02284418 0.060032379 0.60600001
0.0239067 0.060032379 0.60600001
0.024928017 0.059933316 0.60500002
0.025988784 0.059933316 0.60500002
0.02709426 0.060032379 0.60600001
0.028063852 0.059834253 0.60400003
0.029171083 0.059933316 0.60500002
0.030281819 0.060032379 0.60600001
0.031292617 0.059933316 0.60500002
0.032299906 0.059834253 0.60400003
0.033414152 0.059933316 0.60500002
0.034588885 0.060131442 0.60700005
0.035711892 0.060230505 0.60800004
0.036777921 0.060230505 0.60800004
0.037906189 0.060329571 0.60900003
0.038909972 0.060230505 0.60800004
0.039976001 0.060230505 0.60800004
0.041177034 0.060428634 0.61000001
0.042246565 0.060428634 0.61000001
0.0433161 0.060428634 0.61000001
0.044458397 0.060527697 0.611
0.04582775 0.060923949 0.61500001
0.04705859 0.061122075 0.61700004
0.048218418 0.061221141 0.61800003
0.049301978 0.061221141 0.61800003
0.05046707 0.061320204 0.61900002
0.051552381 0.061320204 0.61900002
0.052722733 0.061419267 0.62
-0.010460387 0.063312866 0.62800002
-0.0093592936 0.063312866 0.62800002
-0.0082318997 0.063111231 0.62600005
-0.0071001234 0.062808782 0.62300003
-0.0059885099 0.062607147 0.62100005
-0.0048839101 0.062405515 0.61900002
-0.0037863234 0.062203884 0.61700004
-0.0027045168 0.062203884 0.61700004
-0.00162008 0.062103067 0.61600006
-0.00053914997 0.062002249 0.61500001
0.00053739664 0.061800618 0.61300004
0.00161219 0.061800618 0.61300004
0.0026782167 0.061598983 0.611
0.0037495033 0.061598983 0.611
0.0048129 0.061498165 0.61000001
0.0058727898 0.061397351 0.60900003
0.0069405697 0.061397351 0.60900003
0.0080083497 0.061397351 0.60900003
0.0090761296 0.061397351 0.60900003
0.010127253 0.061296534 0.60800004
0.01119328 0.061296534 0.60800004
0.012259306 0.061296534 0.60800004
0.013325334 0.061296534 0.60800004
0.01441503 0.061397351 0.60900003
0.015457386 0.061296534 0.60800004
0.016496237 0.061195716 0.60700005
0.01756051 0.061195716 0.60700005
0.018624783 0.061195716 0.60700005
0.019656619 0.061094899 0.60600001
0.020719141 0.061094899 0.60600001
0.021781661 0.061094899 0.60600001
0.02284418 0.061094899 0.60600001
0.0239067 0.061094899 0.60600001
0.02496922 0.061094899 0.60600001
0.02603174 0.061094899 0.60600001
0.027049549 0.060994081 0.60500002
0.028063852 0.060893267 0.60400003
0.0292193 0.061094899 0.60600001
0.030281819 0.061094899 0.60600001
0.031292617 0.060994081 0.60500002
0.032406859 0.061094899 0.60600001
0.03352461 0.061195716 0.60700005
0.034645867 0.061296534 0.60800004
0.035770629 0.061397351 0.60900003
0.036838409 0.061397351 0.60900003
0.037843946 0.061296534 0.60800004
0.038845975 0.061195716 0.60700005
0.0401075 0.061498165 0.61000001
0.041109528 0.061397351 0.60900003
0.042177308 0.061397351 0.60900003
0.043174081 0.061296534 0.60800004
0.044458397 0.061598983 0.611
0.045902267 0.062103067 0.61600006
0.04705859 0.062203884 0.61700004
0.048218418 0.062304698 0.61800003
0.049301978 0.062304698 0.61800003
0.05046707 0.062405515 0.61900002
0.051635668 0.062506333 0.62
-0.010460387 0.064413957 0.62800002
-0.0093592936 0.064413957 0.62800002
-0.00824505 0.064311393 0.62700003
-0.0071229166 0.064106248 0.625
-0.00601744 0.064003676 0.62400001
-0.0048917998 0.063593403 0.62
-0.0037924601 0.063388258 0.61800003
-0.0027045168 0.063285686 0.61700004
-0.00162271 0.063285686 0.61700004
-0.00054002664 0.063183121 0.61600006
0.00053827331 0.062977977 0.61400002
0.00161219 0.062875412 0.61300004
0.0026782167 0.062670268 0.611
0.0037433666 0.062567696 0.61000001
0.0048207901 0.062670268 0.611
0.0058727898 0.062465131 0.60900003
0.0069405697 0.062465131 0.60900003
0.0080083497 0.062465131 0.60900003
0.0090761296 0.062465131 0.60900003
0.010127253 0.062362559 0.60800004
0.01119328 0.062362559 0.60800004
0.01227947 0.062465131 0.60900003
0.013325334 0.062362559 0.60800004
0.01441503 0.062465131 0.60900003
0.01548281 0.062465131 0.60900003
0.016523413 0.062362559 0.60800004
0.01756051 0.062259991 0.60700005
0.018624783 0.062259991 0.60700005
0.019656619 0.062157419 0.60600001
0.020719141 0.062157419 0.60600001
0.021745717 0.06205485 0.60500002
0.022806482 0.06205485 0.60500002
0.023827801 0.061952278 0.60400003
0.024886813 0.061952278 0.60400003
0.025945827 0.061952278 0.60400003
0.02700484 0.061952278 0.60400003
0.028110316 0.06205485 0.60500002
0.029267516 0.062259991 0.60700005
0.03033179 0.062259991 0.60700005
0.031344339 0.062157419 0.60600001
0.032460336 0.062259991 0.60700005
0.03352461 0.062259991 0.60700005
0.034645867 0.062362559 0.60800004
0.035770629 0.062465131 0.60900003
0.036838409 0.062465131 0.60900003
0.037843946 0.062362559 0.60800004
0.038845975 0.062259991 0.60700005
0.040041748 0.062465131 0.60900003
0.041109528 0.062465131 0.60900003
0.042177308 0.062465131 0.60900003
0.043174081 0.062362559 0.60800004
0.044385634 0.062567696 0.61000001
0.04582775 0.063080549 0.61500001
0.046982318 0.063183121 0.61600006
0.048218418 0.063388258 0.61800003
0.049381755 0.06349083 0.61900002
0.050548598 0.063593403 0.62
0.051635668 0.063593403 0.62
-0.01157989 0.065619379 0.62900001
-0.010460387 0.065515056 0.62800002
-0.0093592936 0.065515056 0.62800002
-0.00824505 0.065410733 0.62700003
-0.0071343132 0.065306403 0.62600005
-0.00601744 0.065097757 0.62400001
-0.0048917998 0.064680465 0.62
-0.0037985966 0.064576142 0.61900002
-0.0027089 0.064471819 0.61800003
-0.00162534 0.064471819 0.61800003
-0.00054177997 0.064471819 0.61800003
0.00053914997 0.064158849 0.61500001
0.00161745 0.064158849 0.61500001
0.0026913667 0.064054526 0.61400002
0.0037495033 0.063741557 0.611
0.0048286798 0.06384588 0.61200005
0.0058920765 0.063741557 0.611
0.0069519668 0.063637234 0.61000001
0.0080215 0.063637234 0.61000001
0.0090910336 0.063637234 0.61000001
0.01014391 0.063532911 0.60900003
0.01121169 0.063532911 0.60900003
0.012259306 0.063428588 0.60800004
0.013325334 0.063428588 0.60800004
0.01436769 0.063324265 0.60700005
0.015431963 0.063324265 0.60700005
0.016496237 0.063324265 0.60700005
0.01756051 0.063324265 0.60700005
0.018563416 0.063115619 0.60500002
0.019624183 0.063115619 0.60500002
0.020650759 0.063011296 0.60400003
0.021709774 0.063011296 0.60400003
0.022768786 0.063011296 0.60400003
0.023827801 0.063011296 0.60400003
0.024886813 0.063011296 0.60400003
0.025945827 0.063011296 0.60400003
0.02700484 0.063011296 0.60400003
0.028110316 0.063115619 0.60500002
0.029171083 0.063115619 0.60500002
0.030281819 0.063219942 0.60600001
0.031344339 0.063219942 0.60600001
0.032406859 0.063219942 0.60600001
0.033579841 0.063428588 0.60800004
0.034702849 0.063532911 0.60900003
0.035711892 0.063428588 0.60800004
0.036777921 0.063428588 0.60800004
0.037843946 0.063428588 0.60800004
0.038973968 0.063532911 0.60900003
0.040041748 0.063532911 0.60900003
0.041244537 0.063741557 0.611
0.042315822 0.063741557 0.611
0.043458119 0.06384588 0.61200005
0.044676688 0.064054526 0.61400002
0.045753233 0.064054526 0.61400002
0.04690605 0.064158849 0.61500001
0.048218418 0.064471819 0.61800003
0.049381755 0.064576142 0.61900002
0.050548598 0.064680465 0.62
-0.012723063 0.066934377 0.63100004
-0.01156148 0.066616148 0.62800002
-0.010460387 0.066616148 0.62800002
-0.0093592936 0.066616148 0.62800002
-0.0082713496 0.066722222 0.62900001
-0.0071343132 0.066403992 0.62600005
-0.00601744 0.066191837 0.62400001
-0.0048917998 0.065767534 0.62
-0.0037985966 0.065661453 0.61900002
-0.0027089 0.065555379 0.61800003
-0.00162534 0.065555379 0.61800003
-0.00054177997 0.065555379 0.61800003
0.00054002664 0.065343224 0.61600006
0.00161745 0.06523715 0.61500001
0.0026913667 0.065131076 0.61400002
0.00375564 0.06491892 0.61200005
0.0048286798 0.06491892 0.61200005
0.0058920765 0.064812846 0.611
0.0069519668 0.064706765 0.61000001
0.0079952003 0.06449461 0.60800004
0.0090761296 0.064600691 0.60900003
0.010127253 0.06449461 0.60800004
0.01119328 0.06449461 0.60800004
0.012239143 0.064388536 0.60700005
0.013303417 0.064388536 0.60700005
0.01434402 0.064282462 0.60600001
0.01540654 0.064282462 0.60600001
0.016441884 0.064176381 0.60500002
0.017502651 0.064176381 0.60500002
0.018563416 0.064176381 0.60500002
0.019624183 0.064176381 0.60500002
0.020650759 0.064070307 0.60400003
0.021709774 0.064070307 0.60400003
0.02273109 0.063964233 0.60300004
0.02378835 0.063964233 0.60300004
0.024886813 0.064070307 0.60400003
0.025945827 0.064070307 0.60400003
0.027049549 0.064176381 0.60500002
0.028110316 0.064176381 0.60500002
0.029171083 0.064176381 0.60500002
0.030281819 0.064282462 0.60600001
0.031292617 0.064176381 0.60500002
0.032406859 0.064282462 0.60600001
0.033579841 0.06449461 0.60800004
0.034645867 0.06449461 0.60800004
0.035653155 0.064388536 0.60700005
0.03671743 0.064388536 0.60700005
0.037781704 0.064388536 0.60700005
0.038973968 0.064600691 0.60900003
0.0401075 0.064706765 0.61000001
0.041177034 0.064706765 0.61000001
0.042315822 0.064812846 0.611
0.043458119 0.06491892 0.61200005
0.044676688 0.065131076 0.61400002
0.04582775 0.06523715 0.61500001
0.046982318 0.065343224 0.61600006
0.048218418 0.065555379 0.61800003
0.049381755 0.065661453 0.61900002
-0.012723063 0.068040729 0.63100004
-0.01154307 0.067609407 0.62700003
-0.010460387 0.067717239 0.62800002
-0.0093592936 0.067717239 0.62800002
-0.0082582003 0.067717239 0.62800002
-0.0071343132 0.067501582 0.62600005
-0.00601744 0.067285918 0.62400001
-0.0048917998 0.066854596 0.62
-0.0037985966 0.066746771 0.61900002
-0.0027089 0.066638939 0.61800003
-0.00162534 0.066638939 0.61800003
-0.00054177997 0.066638939 0.61800003
0.00054002664 0.066423282 0.61600006
0.00161745 0.06631545 0.61500001
0.0026913667 0.066207618 0.61400002
0.0037740499 0.06631545 0.61500001
0.0048444602 0.066207618 0.61400002
0.0059113633 0.066099793 0.61300004
0.0069519668 0.065776296 0.61000001
0.0080215 0.065776296 0.61000001
0.0090761296 0.065668471 0.60900003
0.010127253 0.065560639 0.60800004
0.01119328 0.065560639 0.60800004
0.012239143 0.065452807 0.60700005
0.013303417 0.065452807 0.60700005
0.01434402 0.065344982 0.60600001
0.015381116 0.06523715 0.60500002
0.016441884 0.06523715 0.60500002
0.017502651 0.06523715 0.60500002
0.018563416 0.06523715 0.60500002
0.019624183 0.06523715 0.60500002
0.020650759 0.065129317 0.60400003
0.021709774 0.065129317 0.60400003
0.02273109 0.065021493 0.60300004
0.023827801 0.065129317 0.60400003
0.024928017 0.06523715 0.60500002
0.025988784 0.06523715 0.60500002
0.027049549 0.06523715 0.60500002
0.028110316 0.06523715 0.60500002
0.029171083 0.06523715 0.60500002
0.030281819 0.065344982 0.60600001
0.031344339 0.065344982 0.60600001
0.032406859 0.065344982 0.60600001
0.033579841 0.065560639 0.60800004
0.034645867 0.065560639 0.60800004
0.035653155 0.065452807 0.60700005
0.03671743 0.065452807 0.60700005
0.037781704 0.065452807 0.60700005
0.039037965 0.065776296 0.61000001
0.040238999 0.06599196 0.61200005
0.041244537 0.065884128 0.611
0.042315822 0.065884128 0.611
0.043458119 0.06599196 0.61200005
0.044603921 0.066099793 0.61300004
0.04582775 0.06631545 0.61500001
0.046982318 0.066423282 0.61600006
0.048296444 0.066746771 0.61900002
0.049461532 0.066854596 0.62
-0.012743226 0.069256663 0.63200003
-0.01156148 0.068818331 0.62800002
-0.010460387 0.068818331 0.62800002
-0.0093592936 0.068818331 0.62800002
-0.0082582003 0.068818331 0.62800002
-0.0071343132 0.068599164 0.62600005
-0.00601744 0.068379998 0.62400001
-0.0048996899 0.068051249 0.62100005
-0.0038047333 0.067941666 0.62
-0.0027132833 0.067832083 0.61900002
-0.00162797 0.067832083 0.61900002
-0.00054265663 0.067832083 0.61900002
0.0005409033 0.067612916 0.61700004
0.00161745 0.06739375 0.61500001
0.0027001332 0.067503333 0.61600006
0.0037801866 0.067503333 0.61600006
0.0048523499 0.06739375 0.61500001
0.0059210067 0.067284167 0.61400002
0.0069633634 0.066955417 0.611
0.0080215 0.066845834 0.61000001
0.0091059366 0.066955417 0.611
0.01014391 0.066736251 0.60900003
0.01119328 0.066626668 0.60800004
0.012239143 0.066517085 0.60700005
0.013303417 0.066517085 0.60700005
0.01434402 0.066407502 0.60600001
0.015381116 0.066297919 0.60500002
0.016441884 0.066297919 0.60500002
0.017502651 0.066297919 0.60500002
0.018563416 0.066297919 0.60500002
0.019721493 0.066626668 0.60800004
0.02068495 0.066297919 0.60500002
0.021745717 0.066297919 0.60500002
0.022806482 0.066297919 0.60500002
0.023827801 0.066188335 0.60400003
0.02496922 0.066407502 0.60600001
0.02603174 0.066407502 0.60600001
0.02709426 0.066407502 0.60600001
0.02815678 0.066407502 0.60600001
0.029315732 0.066626668 0.60800004
0.03038176 0.066626668 0.60800004
0.031447787 0.066626668 0.60800004
0.032513812 0.066626668 0.60800004
0.03352461 0.066517085 0.60700005
0.034588885 0.066517085 0.60700005
0.035653155 0.066517085 0.60700005
0.036777921 0.066626668 0.60800004
0.037781704 0.066517085 0.60700005
0.039165959 0.067065001 0.61200005
0.040173251 0.066955417 0.611
0.041244537 0.066955417 0.611
0.042385079 0.067065001 0.61200005
0.043529131 0.067174584 0.61300004
0.044676688 0.067284167 0.61400002
0.04582775 0.06739375 0.61500001
0.046982318 0.067503333 0.61600006
0.048296444 0.067832083 0.61900002
0.049461532 0.067941666 0.62
-0.012743226 0.070364773 0.63200003
-0.0115983 0.070142098 0.63000005
-0.0104937 0.070142098 0.63000005
-0.0094040036 0.070253439 0.63100004
-0.0082713496 0.070030764 0.62900001
-0.0071343132 0.069696754 0.62600005
-0.0060077966 0.069362745 0.62300003
-0.0048917998 0.069028735 0.62
-0.0038047333 0.069028735 0.62
-0.0027132833 0.068917394 0.61900002
-0.00162797 0.068917394 0.61900002
-0.00054265663 0.068917394 0.61900002
0.00054177997 0.06880606 0.61800003
0.00162271 0.068694726 0.61700004
0.0027001332 0.068583384 0.61600006
0.0037801866 0.068583384 0.61600006
0.0048523499 0.06847205 0.61500001
0.00593065 0.06847205 0.61500001
0.0069975532 0.068360716 0.61400002
0.0080609499 0.068249375 0.61300004
0.0090910336 0.067915365 0.61000001
0.010127253 0.06769269 0.60800004
0.01119328 0.06769269 0.60800004
0.012259306 0.06769269 0.60800004
0.013303417 0.067581356 0.60700005
0.01434402 0.067470022 0.60600001
0.015381116 0.06735868 0.60500002
0.016441884 0.06735868 0.60500002
0.017502651 0.06735868 0.60500002
0.018563416 0.06735868 0.60500002
0.019721493 0.06769269 0.60800004
0.02078752 0.06769269 0.60800004
0.021817604 0.067581356 0.60700005
0.022881877 0.067581356 0.60700005
0.023946149 0.067581356 0.60700005
0.025010424 0.067581356 0.60700005
0.026074696 0.067581356 0.60700005
0.027138969 0.067581356 0.60700005
0.028203243 0.067581356 0.60700005
0.029363951 0.067804031 0.60900003
0.03038176 0.06769269 0.60800004
0.031447787 0.06769269 0.60800004
0.032513812 0.06769269 0.60800004
0.03352461 0.067581356 0.60700005
0.034588885 0.067581356 0.60700005
0.035653155 0.067581356 0.60700005
0.03671743 0.067581356 0.60700005
0.037906189 0.067804031 0.60900003
0.039165959 0.068138041 0.61200005
0.040173251 0.068026707 0.611
0.041177034 0.067915365 0.61000001
0.042454336 0.068249375 0.61300004
0.043529131 0.068249375 0.61300004
0.044676688 0.068360716 0.61400002
0.045902267 0.068583384 0.61600006
0.04705859 0.068694726 0.61700004
0.048296444 0.068917394 0.61900002
0.049621087 0.069251403 0.62200004
0.050711658 0.069251403 0.62200004
-0.01276339 0.071585968 0.63300002
-0.0115983 0.071246698 0.63000005
-0.0104937 0.071246698 0.63000005
-0.0094040036 0.071359791 0.63100004
-0.0082713496 0.071133606 0.62900001
-0.0071343132 0.070794336 0.62600005
-0.0060077966 0.070455067 0.62300003
-0.0048839101 0.070002712 0.61900002
-0.0037985966 0.070002712 0.61900002
-0.0027132833 0.070002712 0.61900002
-0.00162797 0.070002712 0.61900002
-0.00054265663 0.070002712 0.61900002
0.00054177997 0.06988962 0.61800003
0.00162534 0.06988962 0.61800003
0.0027001332 0.069663443 0.61600006
0.0037863234 0.069776528 0.61700004
0.00486024 0.069663443 0.61600006
0.00593065 0.06955035 0.61500001
0.0070089498 0.06955035 0.61500001
0.0080872504 0.06955035 0.61500001
0.0091357436 0.069324173 0.61300004
0.010160566 0.068984896 0.61000001
0.01119328 0.068758719 0.60800004
0.012259306 0.068758719 0.60800004
0.013303417 0.068645626 0.60700005
0.01434402 0.068532541 0.60600001
0.015381116 0.068419449 0.60500002
0.016441884 0.068419449 0.60500002
0.017531579 0.068532541 0.60600001
0.018624783 0.068645626 0.60700005
0.019721493 0.068758719 0.60800004
0.02075333 0.068645626 0.60700005
0.021817604 0.068645626 0.60700005
0.022881877 0.068645626 0.60700005
0.0239856 0.068758719 0.60800004
0.025010424 0.068645626 0.60700005
0.026074696 0.068645626 0.60700005
0.027138969 0.068645626 0.60700005
0.02815678 0.068532541 0.60600001
0.029267516 0.068645626 0.60700005
0.03038176 0.068758719 0.60800004
0.031447787 0.068758719 0.60800004
0.032513812 0.068758719 0.60800004
0.033579841 0.068758719 0.60800004
0.034645867 0.068758719 0.60800004
0.035829365 0.068984896 0.61000001
0.0368989 0.068984896 0.61000001
0.037968434 0.068984896 0.61000001
0.039165959 0.069211081 0.61200005
0.040238999 0.069211081 0.61200005
0.041379545 0.069324173 0.61300004
0.042523593 0.069437258 0.61400002
0.043529131 0.069324173 0.61300004
0.044676688 0.069437258 0.61400002
0.045902267 0.069663443 0.61600006
0.04705859 0.069776528 0.61700004
0.048296444 0.070002712 0.61900002
0.049621087 0.070341982 0.62200004
0.05079319 0.070455067 0.62300003
-0.012743226 0.072580986 0.63200003
-0.0115983 0.072351299 0.63000005
-0.0104937 0.072351299 0.63000005
-0.0094040036 0.072466142 0.63100004
-0.0082844999 0.072351299 0.63000005
-0.0071457098 0.072006769 0.62700003
-0.00601744 0.07166224 0.62400001
-0.0048996899 0.07131771 0.62100005
-0.0037985966 0.071088023 0.61900002
-0.0027176666 0.071202867 0.62
-0.00162797 0.071088023 0.61900002
-0.00054265663 0.071088023 0.61900002
0.00054177997 0.07097318 0.61800003
0.00162534 0.07097318 0.61800003
0.0027045168 0.070858337 0.61700004
0.0037863234 0.070858337 0.61700004
0.00486024 0.070743494 0.61600006
0.0059402934 0.070743494 0.61600006
0.0070089498 0.07062865 0.61500001
0.0080872504 0.07062865 0.61500001
0.0091506466 0.070513807 0.61400002
0.010160566 0.070054434 0.61000001
0.01119328 0.069824748 0.60800004
0.012259306 0.069824748 0.60800004
0.013325334 0.069824748 0.60800004
0.01436769 0.069709904 0.60700005
0.01540654 0.069595061 0.60600001
0.01646906 0.069595061 0.60600001
0.01756051 0.069709904 0.60700005
0.018686149 0.069939591 0.60900003
0.019786367 0.070054434 0.61000001
0.02075333 0.069709904 0.60700005
0.021817604 0.069709904 0.60700005
0.022881877 0.069709904 0.60700005
0.0239856 0.069824748 0.60800004
0.025010424 0.069709904 0.60700005
0.026074696 0.069709904 0.60700005
0.027138969 0.069709904 0.60700005
0.028203243 0.069709904 0.60700005
0.029315732 0.069824748 0.60800004
0.030431731 0.069939591 0.60900003
0.031499509 0.069939591 0.60900003
0.032567289 0.069939591 0.60900003
0.033579841 0.069824748 0.60800004
0.034759834 0.070054434 0.61000001
0.035829365 0.070054434 0.61000001
0.036959391 0.070169277 0.611
0.038092919 0.070284121 0.61200005
0.039293952 0.070513807 0.61400002
0.04030475 0.070398964 0.61300004
0.041447047 0.070513807 0.61400002
0.04259285 0.07062865 0.61500001
0.04367115 0.07062865 0.61500001
0.04474945 0.07062865 0.61500001
0.045976784 0.070858337 0.61700004
0.047134861 0.07097318 0.61800003
0.048374467 0.071202867 0.62
0.049621087 0.071432553 0.62200004
0.05079319 0.071547396 0.62300003
-0.012743226 0.073689096 0.63200003
-0.0115983 0.0734559 0.63000005
-0.0104937 0.0734559 0.63000005
-0.0094189066 0.073689096 0.63200003
-0.0082844999 0.0734559 0.63000005
-0.0071457098 0.07310611 0.62700003
-0.0060270834 0.072872914 0.625
-0.0049075801 0.072523125 0.62200004
-0.00381087 0.07240653 0.62100005
-0.0027089 0.072056741 0.61800003
-0.00162534 0.072056741 0.61800003
-0.00054265663 0.072173335 0.61900002
0.0005409033 0.071940146 0.61700004
0.00162271 0.071940146 0.61700004
0.0027045168 0.071940146 0.61700004
0.0037863234 0.071940146 0.61700004
0.00486024 0.071823545 0.61600006
0.0059402934 0.071823545 0.61600006
0.0070089498 0.071706951 0.61500001
0.0080872504 0.071706951 0.61500001
0.0091506466 0.071590357 0.61400002
0.010160566 0.071123965 0.61000001
