# .PCD v0.7 - Point Cloud Data file format
VERSION 0.7
FIELDS x y z
SIZE 4 4 4
TYPE F F F
COUNT 1 1 1
WIDTH 554
HEIGHT 1
VIEWPOINT 0 0 0 1 0 0 0
POINTS 554
DATA ascii
0.59174824 0.027045166 1.2340001
0.59198672 0.026957501 1.23
0.59414327 0.026957501 1.23
0.59387589 0.026847916 1.225
0.59359097 0.026738333 1.22
0.59573007 0.026738333 1.22
0.59394866 0.026563 1.212
0.59607369 0.026563 1.212
0.59425026 0.026387667 1.2040001
0.59190339 0.026190417 1.1950001
0.59174824 0.029208779 1.2340001
0.59198672 0.029114099 1.23
0.59414327 0.029114099 1.23
0.59387589 0.02899575 1.225
0.59359097 0.0288774 1.22
0.59670669 0.028924739 1.222
0.59443873 0.02871171 1.2130001
0.5941065 0.02859336 1.2080001
0.59425026 0.028498679 1.2040001
0.59190339 0.028285651 1.1950001
0.59174824 0.031372394 1.2340001
0.59198672 0.031270701 1.23
0.59414327 0.031270701 1.23
0.59436071 0.031169007 1.2260001
0.59407753 0.03104189 1.2210001
0.59475344 0.030965621 1.2180001
0.59443873 0.030838503 1.2130001
0.5941065 0.030711386 1.2080001
0.58980817 0.030380882 1.1950001
0.59190339 0.030380882 1.1950001
0.59174824 0.033536006 1.2340001
0.59198672 0.033427298 1.23
0.59414327 0.033427298 1.23
0.59436071 0.033318594 1.2260001
0.59213132 0.033074003 1.217
0.59475344 0.033101179 1.2180001
0.59247851 0.032856591 1.2090001
0.5941065 0.032829411 1.2080001
0.58980817 0.032476116 1.1950001
0.59190339 0.032476116 1.1950001
0.59174824 0.035699621 1.2340001
0.59198672 0.035583898 1.23
0.59414327 0.035583898 1.23
0.59436071 0.03546818 1.2260001
0.59213132 0.035207808 1.217
0.59426516 0.035207808 1.217
0.59247851 0.034976371 1.2090001
0.5941065 0.03494744 1.2080001
0.58980817 0.03457135 1.1950001
0.58992213 0.034455631 1.1910001
0.59126872 0.037832551 1.233
0.59198672 0.037740499 1.23
0.59414327 0.037740499 1.23
0.59387589 0.037587084 1.225
0.59407753 0.03746435 1.2210001
0.59426516 0.037341617 1.217
0.59394866 0.037188198 1.212
0.5941065 0.037065465 1.2080001
0.58931464 0.036635898 1.194
0.58942682 0.036513165 1.1900001
0.59126872 0.039994411 1.233
0.59343058 0.039994411 1.233
0.59414327 0.039897099 1.23
0.59387589 0.039734915 1.225
0.59407753 0.03960517 1.2210001
0.59621835 0.03960517 1.2210001
0.59394866 0.039313238 1.212
0.5941065 0.039183494 1.2080001
0.58931464 0.038729381 1.194
0.58942682 0.038599633 1.1900001
0.59126872 0.042156268 1.233
0.59343058 0.042156268 1.233
0.59366024 0.042019509 1.2290001
0.59387589 0.04188275 1.225
0.59699684 0.041951131 1.2270001
0.59621835 0.041745991 1.2210001
0.59394866 0.041438282 1.212
0.5941065 0.041301519 1.2080001
0.58931464 0.04082286 1.194
0.58942682 0.040686101 1.1900001
0.59126872 0.044318128 1.233
0.59294927 0.044282187 1.2320001
0.59366024 0.044174355 1.2290001
0.59629989 0.0442103 1.23
0.59651029 0.044066526 1.2260001
0.59573007 0.043850865 1.22
0.59590888 0.043707091 1.2160001
0.59361464 0.043383602 1.207
0.58931464 0.042916339 1.194
0.59140807 0.042916339 1.194
0.59414595 0.04670617 1.2390001
0.59343058 0.046479989 1.233
0.59414327 0.0463669 1.23
0.59629989 0.0463669 1.23
0.59651029 0.046216112 1.2260001
0.59865987 0.046216112 1.2260001
0.59590888 0.045839146 1.2160001
0.5941065 0.045537572 1.2080001
0.59622449 0.045537572 1.2080001
0.59388471 0.045198303 1.199
0.59462547 0.048918001 1.24
0.5963183 0.048878551 1.2390001
0.59414327 0.048523501 1.23
0.59629989 0.048523501 1.23
0.59651029 0.048365701 1.2260001
0.59865987 0.048365701 1.2260001
0.60031939 0.04832625 1.225
0.60246724 0.04832625 1.225
0.59510499 0.051133335 1.2410001
0.59679961 0.051092133 1.24
0.59462637 0.050721303 1.2310001
0.59678471 0.050721303 1.2310001
0.60040271 0.050844911 1.2340001
0.60207802 0.05080371 1.233
0.59846175 0.053609919 1.248
0.59920603 0.05348105 1.245
0.60138893 0.05348105 1.245
0.59894127 0.055842791 1.2490001
0.60016865 0.055753369 1.2470001
0.59894127 0.058032703 1.2490001
0.60064989 0.057986241 1.248
0.59846175 0.060174398 1.248
0.59174824 0.070317432 1.2340001
0.5898301 0.072246097 1.23
0.59198672 0.072246097 1.23
0.59366024 0.072187364 1.2290001
0.5898301 0.074402697 1.23
0.59198672 0.074402697 1.23
0.58738071 0.073555842 1.2160001
0.58951277 0.073555842 1.2160001
0.58935058 0.076497056 1.2290001
0.59150541 0.076497056 1.2290001
0.58738071 0.075687893 1.2160001
0.58951277 0.075687893 1.2160001
0.59164482 0.075687893 1.2160001
0.59174824 0.078971885 1.2340001
0.59150541 0.078651905 1.2290001
0.58738071 0.077819943 1.2160001
0.58951277 0.077819943 1.2160001
0.59164482 0.077819943 1.2160001
0.59174824 0.081135496 1.2340001
0.59150541 0.080806747 1.2290001
0.59076202 0.080412246 1.223
0.5929063 0.080412246 1.223
0.59318686 0.083501622 1.2370001
0.59343058 0.083231613 1.233
0.5931772 0.082894094 1.228
0.5953303 0.082894094 1.228
0.49985778 0.068853401 1.0200001
0.50213802 0.068920903 1.021
0.50392818 0.068920903 1.021
0.50522298 0.068853401 1.0200001
0.59318686 0.085670494 1.2370001
0.59535575 0.085670494 1.2370001
0.5931772 0.085047185 1.228
0.59484553 0.084977932 1.2270001
0.59651029 0.084908672 1.2260001
0.49985778 0.070641801 1.0200001
0.50164622 0.070641801 1.0200001
0.5034346 0.070641801 1.0200001
0.50472766 0.07057254 1.0190001
0.59366637 0.087910376 1.238
0.59535575 0.087839372 1.2370001
0.5951094 0.087484322 1.2320001
0.59726948 0.087484322 1.2320001
0.5974834 0.087200277 1.228
0.49953431 0.072643228 1.023
0.50132799 0.072643228 1.023
0.50312161 0.072643228 1.023
0.50442171 0.072572216 1.0220001
0.50621361 0.072572216 1.0220001
0.59318686 0.090008244 1.2370001
0.59487444 0.089935482 1.2360001
0.59704155 0.089935482 1.2360001
0.59872389 0.089862719 1.235
0.59942961 0.089644425 1.2320001
0.50099921 0.074655183 1.026
0.50279814 0.074655183 1.026
0.50459707 0.074655183 1.026
0.506396 0.074655183 1.026
0.50819492 0.074655183 1.026
0.59270734 0.092102602 1.2360001
0.59439313 0.092028081 1.235
0.59607548 0.091953568 1.2340001
0.59823906 0.091953568 1.2340001
0.50099921 0.076454103 1.026
0.50328821 0.076528616 1.0270001
0.50558066 0.07660313 1.028
0.50688952 0.076528616 1.0270001
0.50869024 0.076528616 1.0270001
0.59270734 0.094269723 1.2360001
0.59246796 0.093888372 1.2310001
0.59414327 0.093812101 1.23
0.59629989 0.093812101 1.23
0.59699684 0.093583286 1.2270001
0.50148749 0.078329287 1.0270001
0.50328821 0.078329287 1.0270001
0.50508887 0.078329287 1.0270001
0.50688952 0.078329287 1.0270001
0.50869024 0.078329287 1.0270001
0.5907892 0.096124746 1.2320001
0.5910241 0.095812656 1.228
0.59172809 0.095578581 1.225
0.59387589 0.095578581 1.225
0.59699684 0.095734626 1.2270001
0.50441736 0.080598101 1.033
0.50328821 0.080129966 1.0270001
0.50558066 0.080207989 1.028
0.50590241 0.079973914 1.0250001
0.50819492 0.080051936 1.026
0.59174824 0.09844441 1.2340001
0.5910241 0.097965747 1.228
0.59221113 0.097806193 1.2260001
0.59436071 0.097806193 1.2260001
0.59699684 0.097885966 1.2270001
0.50392902 0.082329519 1.0320001
0.50328821 0.081930637 1.0270001
0.50558066 0.082010411 1.028
0.50590241 0.081771083 1.0250001
0.50819492 0.081850857 1.026
0.5898301 0.1002819 1.23
0.59150541 0.10020037 1.2290001
0.59366024 0.10020037 1.2290001
0.59484553 0.10003731 1.2270001
0.5974834 0.10011884 1.228
0.50344074 0.084057428 1.031
0.50328821 0.083731309 1.0270001
0.50459707 0.083649777 1.026
0.5049153 0.083405189 1.023
0.50670892 0.083405189 1.023
0.5898301 0.1024385 1.23
0.59198672 0.1024385 1.23
0.59172809 0.10202208 1.225
0.59387589 0.10202208 1.225
0.59602374 0.10202208 1.225
0.50441736 0.086031683 1.033
0.501818 0.085282132 1.024
0.50410527 0.085365415 1.0250001
0.50442171 0.085115567 1.0220001
0.50621361 0.085115567 1.0220001
0.58935058 0.10451006 1.2290001
0.59150541 0.10451006 1.2290001
0.59124506 0.10408488 1.2240001
0.59339112 0.10408488 1.2240001
0.59164482 0.10340459 1.2160001
0.50295246 0.087587766 1.0300001
0.50328821 0.087332658 1.0270001
0.50508887 0.087332658 1.0270001
0.50442171 0.086907476 1.0220001
0.50621361 0.086907476 1.0220001
0.5907892 0.10692528 1.2320001
0.59294927 0.10692528 1.2320001
0.59172809 0.10631775 1.225
0.59339112 0.10623096 1.2240001
0.59164482 0.10553664 1.2160001
0.50295246 0.089393698 1.0300001
0.50328821 0.08913333 1.0270001
0.50558066 0.089220122 1.028
0.50442171 0.088699378 1.0220001
0.50621361 0.088699378 1.0220001
0.59126872 0.10917393 1.233
0.59343058 0.10917393 1.233
0.59221113 0.10855412 1.2260001
0.59387589 0.10846558 1.225
0.59359097 0.10802287 1.22
0.50295246 0.091199636 1.0300001
0.50328821 0.090934001 1.0270001
0.50508887 0.090934001 1.0270001
0.50590241 0.090756916 1.0250001
0.50720423 0.090668373 1.024
0.5907892 0.11124549 1.2320001
0.59294927 0.11124549 1.2320001
0.59221113 0.11070371 1.2260001
0.59436071 0.11070371 1.2260001
0.59359097 0.11016193 1.22
0.59573007 0.11016193 1.22
0.50475836 0.093005568 1.0300001
0.50508887 0.09273468 1.0270001
0.50688952 0.09273468 1.0270001
0.50869024 0.09273468 1.0270001
0.5907892 0.1134056 1.2320001
0.59294927 0.1134056 1.2320001
0.59221113 0.1128533 1.2260001
0.59436071 0.1128533 1.2260001
0.59407753 0.11239305 1.2210001
0.59573007 0.112301 1.22
0.50475836 0.094811499 1.0300001
0.50705612 0.094903551 1.031
0.50738311 0.094627403 1.028
0.50869024 0.094535351 1.0270001
0.5907892 0.1155657 1.2320001
0.59294927 0.1155657 1.2320001
0.59221113 0.11500289 1.2260001
0.59484553 0.11509669 1.2270001
0.59699684 0.11509669 1.2270001
0.59817159 0.11490908 1.225
0.59982938 0.11481528 1.2240001
0.50705612 0.096711233 1.031
0.50886381 0.096711233 1.031
0.51116681 0.096805036 1.0320001
0.5907892 0.11772581 1.2320001
0.59294927 0.11772581 1.2320001
0.59221113 0.11715247 1.2260001
0.59484553 0.11724803 1.2270001
0.59699684 0.11724803 1.2270001
0.59817159 0.11705691 1.225
0.59982938 0.11696136 1.2240001
0.50754791 0.098614477 1.0320001
0.50935733 0.098614477 1.0320001
0.51116681 0.098614477 1.0320001
0.5907892 0.11988592 1.2320001
0.59294927 0.11988592 1.2320001
0.59462637 0.11978861 1.2310001
0.59678471 0.11978861 1.2310001
0.59894305 0.11978861 1.2310001
0.60012478 0.11959399 1.2290001
0.60227966 0.11959399 1.2290001
0.50656432 0.1002293 1.0300001
0.50837022 0.1002293 1.0300001
0.5106715 0.10032661 1.031
0.5907892 0.12204602 1.2320001
0.59246796 0.12194696 1.2310001
0.59462637 0.12194696 1.2310001
0.59726948 0.12204602 1.2320001
0.59651029 0.12145165 1.2260001
0.59768325 0.12125352 1.2240001
0.59982938 0.12125352 1.2240001
0.60197544 0.12125352 1.2240001
0.50837022 0.10203523 1.0300001
0.5106715 0.10213429 1.031
0.5907892 0.12420613 1.2320001
0.59391183 0.12440777 1.2340001
0.59269416 0.12370205 1.2270001
0.59339112 0.1233996 1.2240001
0.59602374 0.12350041 1.225
0.59817159 0.12350041 1.225
0.50769871 0.10444607 1.036
0.50951517 0.10444607 1.036
0.50837022 0.10384116 1.0300001
0.51017618 0.10384116 1.0300001
0.59126872 0.12646881 1.233
0.59054285 0.12585339 1.2270001
0.59221113 0.12575082 1.2260001
0.59387589 0.12564825 1.225
0.59602374 0.12564825 1.225
0.59817159 0.12564825 1.225
0.50769871 0.10626252 1.036
0.50656432 0.1056471 1.0300001
0.50688952 0.10533939 1.0270001
0.50918555 0.10544196 1.028
0.588871 0.12810905 1.228
0.58717382 0.12727447 1.22
0.58882982 0.12717015 1.2190001
0.59048235 0.12706582 1.2180001
0.59213132 0.1269615 1.217
0.50295246 0.10745303 1.0300001
0.50475836 0.10745303 1.0300001
0.50312161 0.10672277 1.023
0.5049153 0.10672277 1.023
0.50720423 0.1068271 1.024
0.58695287 0.12983784 1.2240001
0.58717382 0.12941353 1.22
0.58689767 0.12888315 1.215
0.58854318 0.12877707 1.2140001
0.58969861 0.12856492 1.212
0.50295246 0.10925896 1.0300001
0.50475836 0.10925896 1.0300001
0.50312161 0.10851643 1.023
0.50540882 0.10862251 1.024
0.50769961 0.10872858 1.0250001
0.58455521 0.13144477 1.2190001
0.58428603 0.13090561 1.2140001
0.58593154 0.13079779 1.2130001
0.58757353 0.13068996 1.212
0.58969861 0.13068996 1.212
0.59182364 0.13068996 1.212
0.50475836 0.1110649 1.0300001
0.50361341 0.11041792 1.024
0.50590241 0.11052575 1.0250001
0.50769961 0.11052575 1.0250001
0.57975984 0.13248625 1.2090001
0.58139831 0.13237667 1.2080001
0.58641458 0.13303417 1.2140001
0.58854318 0.13303417 1.2140001
0.59018517 0.13292459 1.2130001
0.50295246 0.11287083 1.0300001
0.50475836 0.11287083 1.0300001
0.50410527 0.11232292 1.0250001
0.50590241 0.11232292 1.0250001
0.50769961 0.11232292 1.0250001
0.57544398 0.133604 1.2
0.57947314 0.13404934 1.2040001
0.58158416 0.13404934 1.2040001
0.58369517 0.13404934 1.2040001
0.50295246 0.11467677 1.0300001
0.50475836 0.11467677 1.0300001
0.50410527 0.11412008 1.0250001
0.50590241 0.11412008 1.0250001
0.50769961 0.11412008 1.0250001
0.57352585 0.13525563 1.1960001
0.57754797 0.135708 1.2
0.57965201 0.135708 1.2
0.57981682 0.13525563 1.1960001
0.50295246 0.1164827 1.0300001
0.50475836 0.1164827 1.0300001
0.50656432 0.1164827 1.0300001
0.5034346 0.1153518 1.0200001
0.50571829 0.11546489 1.021
0.57352585 0.13735263 1.1960001
0.57562286 0.13735263 1.1960001
0.57771981 0.13735263 1.1960001
0.57981682 0.13735263 1.1960001
0.50295246 0.11828864 1.0300001
0.50475836 0.11828864 1.0300001
0.50656432 0.11828864 1.0300001
0.5034346 0.1171402 1.0200001
0.50522298 0.1171402 1.0200001
0.5509876 0.13396958 1.149
0.55492735 0.13443595 1.153
0.57723677 0.13933301 1.1950001
0.57933199 0.13933301 1.1950001
0.50475836 0.12009457 1.0300001
0.50656432 0.12009457 1.0300001
0.50540882 0.11939499 1.024
0.50621361 0.11916179 1.0220001
0.54858994 0.1353924 1.1440001
0.55059576 0.1353924 1.1440001
0.55211854 0.13527405 1.143
0.55412257 0.13527405 1.143
0.55272079 0.13444559 1.136
0.50622851 0.12225555 1.033
0.50803971 0.12225555 1.033
0.506396 0.1214271 1.026
0.50819492 0.1214271 1.026
0.54858994 0.13739821 1.1440001
0.54818928 0.1367977 1.1390001
0.54777116 0.13619718 1.1340001
0.54975939 0.13619718 1.1340001
0.55223423 0.13631728 1.1350001
0.55227107 0.13583687 1.131
0.50622851 0.12406674 1.033
0.50803971 0.12406674 1.033
0.50787669 0.12358633 1.029
0.50968087 0.12358633 1.029
0.54619229 0.13879474 1.1390001
0.54818928 0.13879474 1.1390001
0.54777116 0.13818546 1.1340001
0.54782021 0.13769804 1.13
0.55028802 0.13781989 1.131
0.55275935 0.13794175 1.1320001
0.50622851 0.12587793 1.033
0.50803971 0.12587793 1.033
0.50787669 0.12539051 1.029
0.50968087 0.12539051 1.029
0.54427409 0.14029735 1.1350001
0.54385769 0.1396793 1.13
0.54583895 0.1396793 1.13
0.54782021 0.1396793 1.13
0.53617811 0.13621822 1.102
0.53469217 0.13535295 1.095
0.53661203 0.13535295 1.095
0.50803971 0.12768912 1.033
0.50985092 0.12768912 1.033
0.51116681 0.12756552 1.0320001
0.54283547 0.1419113 1.1320001
0.54337639 0.14153521 1.1290001
0.54535592 0.14153521 1.1290001
0.53618509 0.13865185 1.1060001
0.53471845 0.1377743 1.0990001
0.53273892 0.1367714 1.0910001
0.53514189 0.13689676 1.092
0.50803971 0.12950033 1.033
0.50985092 0.12950033 1.033
0.51166213 0.12950033 1.033
0.52653128 0.1395741 1.098
0.52990031 0.13995545 1.1010001
0.53231376 0.14008257 1.102
0.53424591 0.14008257 1.102
0.53471845 0.13970122 1.0990001
0.53322726 0.13881139 1.092
0.53563195 0.13893852 1.0930001
0.50853151 0.13143863 1.034
0.51034451 0.13143863 1.034
0.51215744 0.13143863 1.034
0.52557218 0.14124152 1.0960001
0.52749383 0.14124152 1.0960001
0.5327968 0.14214361 1.103
0.53327632 0.141757 1.1
0.53277224 0.14111266 1.095
0.53322726 0.14072604 1.092
0.53563195 0.14085491 1.0930001
0.50853151 0.13325158 1.034
0.51034451 0.13325158 1.034
0.51265275 0.13338044 1.0350001
0.52413356 0.1427713 1.0930001
0.52604997 0.1427713 1.0930001
0.53183073 0.14381629 1.1010001
0.52939796 0.14264068 1.092
0.52985293 0.14224881 1.0890001
0.5317623 0.14224881 1.0890001
0.53563195 0.1427713 1.0930001
0.50853151 0.13506453 1.034
0.51034451 0.13506453 1.034
0.51265275 0.13519515 1.0350001
0.52269495 0.14429057 1.09
0.52460611 0.14429057 1.09
0.52651721 0.14429057 1.09
0.52794355 0.14415818 1.0890001
0.52742022 0.1434963 1.0840001
0.52932084 0.1434963 1.0840001
0.53220153 0.14376105 1.0860001
0.51541686 0.13873075 1.0480001
0.51429302 0.13793649 1.0420001
0.51314807 0.13714223 1.036
0.52077681 0.14566518 1.0860001
0.52268094 0.14566518 1.0860001
0.52458507 0.14566518 1.0860001
0.52454996 0.14512865 1.082
0.52596056 0.14499453 1.0810001
0.52785587 0.14499453 1.0810001
0.51897001 0.14204367 1.059
0.51541686 0.14056824 1.0480001
0.51429302 0.13976346 1.0420001
0.51265275 0.13882455 1.0350001
0.51550192 0.14607458 1.075
0.51738673 0.14607458 1.075
0.51782244 0.14566693 1.072
0.51970202 0.14566693 1.072
0.51963538 0.14512339 1.0680001
0.51857811 0.14430811 1.062
0.51897001 0.14390045 1.059
0.51689231 0.14281338 1.051
0.51577365 0.14199808 1.0450001
0.51364338 0.14091101 1.0370001
0.51022702 0.14644541 1.064
0.51257384 0.14658305 1.0650001
0.51299202 0.14617014 1.062
0.51339966 0.14575723 1.059
0.51525646 0.14575723 1.059
0.51369512 0.14479378 1.052
0.51406944 0.14438087 1.049
0.51541686 0.14424323 1.0480001
0.51725435 0.14424323 1.0480001
0.51611996 0.1434174 1.0420001
0.50495213 0.14677767 1.0530001
0.50727963 0.14691706 1.054
0.51105982 0.14747462 1.0580001
0.50806689 0.14608072 1.0480001
0.50990438 0.14608072 1.0480001
0.51027697 0.14566255 1.0450001
0.51161915 0.14552316 1.044
0.51344961 0.14552316 1.044
0.51478654 0.14538378 1.0430001
0.51512933 0.1449656 1.0400001
