# .PCD v0.7 - Point Cloud Data file format
VERSION 0.7
FIELDS x y z
SIZE 4 4 4
TYPE F F F
COUNT 1 1 1
WIDTH 1390
HEIGHT 1
VIEWPOINT 0 0 0 1 0 0 0
POINTS 1390
DATA ascii
-0.063115619 0.12994392 0.84700006
-0.061630543 0.12994392 0.84700006
-0.059932441 0.12948367 0.84400004
-0.058175601 0.12887 0.84000003
-0.05650029 0.12840974 0.83700001
-0.055032749 0.12840974 0.83700001
-0.053437218 0.12810291 0.83500004
-0.051910941 0.12794951 0.83400005
-0.05026719 0.12748925 0.83100003
-0.048692696 0.12718241 0.82900006
-0.047068235 0.12672217 0.82600003
-0.045675211 0.12687558 0.82700002
-0.044118248 0.12656875 0.82500005
-0.042723473 0.12672217 0.82600003
-0.041325189 0.12687558 0.82700002
-0.03977875 0.12656875 0.82500005
-0.03833225 0.12656875 0.82500005
-0.03688575 0.12656875 0.82500005
-0.035439249 0.12656875 0.82500005
-0.033992749 0.12656875 0.82500005
-0.03246735 0.12626192 0.82300001
-0.030948963 0.12595509 0.82100004
-0.029509477 0.12595509 0.82100004
-0.02806999 0.12595509 0.82100004
-0.026630504 0.12595509 0.82100004
-0.025160333 0.12580167 0.82000005
-0.02380939 0.12626192 0.82300001
-0.022366397 0.12626192 0.82300001
-0.020948827 0.12641533 0.82400006
-0.01950408 0.12641533 0.82400006
-0.01808125 0.12656875 0.82500005
-0.016654912 0.12672217 0.82600003
-0.01520666 0.12672217 0.82600003
-0.013775064 0.12687558 0.82700002
-0.012325057 0.12687558 0.82700002
-0.01090135 0.12718241 0.82900006
-0.0094364397 0.127029 0.82800007
-0.007994323 0.12718241 0.82900006
-0.0065565901 0.12748925 0.83100003
-0.0051179798 0.12794951 0.83400005
-0.0036469332 0.12764266 0.83200002
-0.00219605 0.12810291 0.83500004
-0.00073289336 0.12825634 0.83600003
0.00073464669 0.12856317 0.83800006
0.0022144599 0.12917683 0.84200007
0.0036863834 0.12902342 0.84100002
0.0051548001 0.12887 0.84000003
0.0066512697 0.12933025 0.84300005
0.0081486162 0.12963708 0.84500003
0.04136727 0.14774024 0.96300006
0.043055728 0.14774024 0.96300006
0.04474419 0.14774024 0.96300006
0.046432648 0.14774024 0.96300006
0.04812111 0.14774024 0.96300006
0.049913015 0.14804709 0.96500003
0.051711936 0.14835392 0.96700007
0.053407408 0.14835392 0.96700007
0.055102885 0.14835392 0.96700007
0.056798358 0.14835392 0.96700007
0.058433339 0.1482005 0.96600002
0.060127061 0.1482005 0.96600002
-0.063041098 0.13127382 0.84600002
-0.061557781 0.13127382 0.84600002
-0.059577391 0.13018763 0.83900005
-0.05796783 0.12987728 0.83700001
-0.05650029 0.12987728 0.83700001
-0.054967001 0.12972212 0.83600003
-0.053373221 0.12941177 0.83400005
-0.051786453 0.12910144 0.83200002
-0.050206698 0.12879109 0.83000004
-0.048633959 0.12848076 0.82800007
-0.047068235 0.12817042 0.82600003
-0.045675211 0.1283256 0.82700002
-0.044171728 0.12817042 0.82600003
-0.042775195 0.1283256 0.82700002
-0.041325189 0.1283256 0.82700002
-0.039875183 0.1283256 0.82700002
-0.03833225 0.12801525 0.82500005
-0.03693046 0.12817042 0.82600003
-0.035439249 0.12801525 0.82500005
-0.033992749 0.12801525 0.82500005
-0.0324279 0.12754974 0.82200003
-0.030948963 0.12739457 0.82100004
-0.029545419 0.12754974 0.82200003
-0.02810418 0.12754974 0.82200003
-0.026630504 0.12739457 0.82100004
-0.025160333 0.12723941 0.82000005
-0.02380939 0.1277049 0.82300001
-0.022366397 0.1277049 0.82300001
-0.020948827 0.12786008 0.82400006
-0.01950408 0.12786008 0.82400006
-0.01808125 0.12801525 0.82500005
-0.016654912 0.12817042 0.82600003
-0.01520666 0.12817042 0.82600003
-0.013775064 0.1283256 0.82700002
-0.012325057 0.1283256 0.82700002
-0.01090135 0.12863593 0.82900006
-0.0094364397 0.12848076 0.82800007
-0.007994323 0.12863593 0.82900006
-0.0065486999 0.12879109 0.83000004
-0.0051118433 0.12925661 0.83300006
-0.0036557 0.12941177 0.83400005
-0.00219605 0.12956695 0.83500004
-0.00073289336 0.12972212 0.83600003
0.00073464669 0.13003246 0.83800006
0.0022144599 0.13065314 0.84200007
0.0036907666 0.13065314 0.84200007
0.0051609366 0.13049796 0.84100002
0.0066512697 0.13080831 0.84300005
0.0081486162 0.13111866 0.84500003
0.0096415803 0.13127382 0.84600002
0.039513998 0.14880803 0.95900005
0.041195445 0.14880803 0.95900005
0.042876888 0.14880803 0.95900005
0.044558335 0.14880803 0.95900005
0.046432648 0.14942871 0.96300006
0.04812111 0.14942871 0.96300006
0.049757846 0.14927354 0.96200007
0.051604982 0.14973904 0.96500003
0.05329695 0.14973904 0.96500003
0.054931931 0.14958388 0.96400005
0.056622148 0.14958388 0.96400005
0.058433339 0.14989422 0.96600002
0.060127061 0.14989422 0.96600002
-0.070641801 0.14876331 0.94800007
-0.061266728 0.13212945 0.84200007
-0.059648398 0.1318156 0.84000003
-0.05796783 0.13134483 0.83700001
-0.05650029 0.13134483 0.83700001
-0.054967001 0.1311879 0.83600003
-0.053245228 0.13056022 0.83200002
-0.051786453 0.13056022 0.83200002
-0.050206698 0.13024637 0.83000004
-0.048575222 0.1297756 0.82700002
-0.047011249 0.12946175 0.82500005
-0.045564748 0.12946175 0.82500005
-0.044064771 0.12930483 0.82400006
-0.042723473 0.12961867 0.82600003
-0.041325189 0.1297756 0.82700002
-0.039875183 0.1297756 0.82700002
-0.03833225 0.12946175 0.82500005
-0.03688575 0.12946175 0.82500005
-0.035396293 0.12930483 0.82400006
-0.033951547 0.12930483 0.82400006
-0.0324279 0.12899098 0.82200003
-0.030948963 0.12883405 0.82100004
-0.029545419 0.12899098 0.82200003
-0.02810418 0.12899098 0.82200003
-0.026598066 0.12867713 0.82000005
-0.025160333 0.12867713 0.82000005
-0.0237226 0.12867713 0.82000005
-0.022312043 0.12883405 0.82100004
-0.020923404 0.1291479 0.82300001
-0.019480409 0.1291479 0.82300001
-0.018103167 0.12961867 0.82600003
-0.016654912 0.12961867 0.82600003
-0.01520666 0.12961867 0.82600003
-0.013775064 0.1297756 0.82700002
-0.012354863 0.13008945 0.82900006
-0.0109145 0.13024637 0.83000004
-0.0094706295 0.1304033 0.83100003
-0.0080136098 0.1304033 0.83100003
-0.0065486999 0.13024637 0.83000004
-0.0051057069 0.13056022 0.83200002
-0.0036513167 0.13071713 0.83300006
-0.00219605 0.13103098 0.83500004
-0.00073464669 0.13150175 0.83800006
0.00073640002 0.1318156 0.84000003
0.0022144599 0.13212945 0.84200007
0.0036907666 0.13212945 0.84200007
0.0051732101 0.13228637 0.84300005
0.0066512697 0.13228637 0.84300005
0.0081486162 0.13260022 0.84500003
0.0096415803 0.13275714 0.84600002
0.036075711 0.15017563 0.95700002
0.037753649 0.15017563 0.95700002
0.039349183 0.14986178 0.95500004
0.041152485 0.15033256 0.95800006
0.042876888 0.15048948 0.95900005
0.044511873 0.15033256 0.95800006
0.046239782 0.15048948 0.95900005
0.047921229 0.15048948 0.95900005
0.049706124 0.15080333 0.96100003
0.051444553 0.15096025 0.96200007
0.05329695 0.15143101 0.96500003
0.054931931 0.15127409 0.96400005
0.056622148 0.15127409 0.96400005
0.05831236 0.15127409 0.96400005
0.060002573 0.15127409 0.96400005
-0.070418246 0.14994945 0.94500005
-0.061266728 0.13360575 0.84200007
-0.059648398 0.1332884 0.84000003
-0.05796783 0.13281237 0.83700001
-0.05650029 0.13281237 0.83700001
-0.054967001 0.1326537 0.83600003
-0.053245228 0.13201898 0.83200002
-0.051786453 0.13201898 0.83200002
-0.050206698 0.13170163 0.83000004
-0.048575222 0.1312256 0.82700002
-0.047011249 0.13090825 0.82500005
-0.045564748 0.13090825 0.82500005
-0.044064771 0.13074957 0.82400006
-0.042723473 0.13106693 0.82600003
-0.041325189 0.1312256 0.82700002
-0.039826967 0.13106693 0.82600003
-0.038425177 0.1312256 0.82700002
-0.03688575 0.13090825 0.82500005
-0.035396293 0.13074957 0.82400006
-0.033910342 0.1305909 0.82300001
-0.032388449 0.13027354 0.82100004
-0.030948963 0.13027354 0.82100004
-0.029509477 0.13027354 0.82100004
-0.02810418 0.13043222 0.82200003
-0.026630504 0.13027354 0.82100004
-0.0252217 0.13043222 0.82200003
-0.02378046 0.13043222 0.82200003
-0.022366397 0.1305909 0.82300001
-0.020948827 0.13074957 0.82400006
-0.01950408 0.13074957 0.82400006
-0.018103167 0.13106693 0.82600003
-0.016654912 0.13106693 0.82600003
-0.01522507 0.1312256 0.82700002
-0.013775064 0.1312256 0.82700002
-0.012354863 0.13154295 0.82900006
-0.01090135 0.13154295 0.82900006
-0.0094706295 0.13186032 0.83100003
-0.0080039669 0.13170163 0.83000004
-0.0065644798 0.13201898 0.83200002
-0.0051057069 0.13201898 0.83200002
-0.0036513167 0.13217767 0.83300006
-0.00219605 0.13249502 0.83500004
-0.00073377002 0.13281237 0.83700001
0.00073552335 0.13312972 0.83900005
0.0022144599 0.13360575 0.84200007
0.0036863834 0.13344708 0.84100002
0.0051732101 0.13376443 0.84300005
0.0066591599 0.1339231 0.84400004
0.00815826 0.13424046 0.84600002
0.0096415803 0.13424046 0.84600002
0.034253996 0.15121886 0.95300007
0.035962619 0.15137754 0.95400006
0.037753649 0.15185358 0.95700002
0.039390385 0.15169489 0.95600003
0.041066572 0.15169489 0.95600003
0.04278747 0.15185358 0.95700002
0.044418946 0.15169489 0.95600003
0.046046916 0.15153621 0.95500004
0.047721349 0.15153621 0.95500004
0.049550954 0.15201224 0.95800006
0.051284123 0.15217093 0.95900005
0.05313126 0.15264696 0.96200007
0.054590032 0.15201224 0.95800006
0.056269728 0.15201224 0.95800006
0.05794942 0.15201224 0.95800006
0.059629112 0.15201224 0.95800006
-0.070418246 0.15160635 0.94500005
-0.061412252 0.13540292 0.84400004
-0.059577391 0.13460077 0.83900005
-0.05796783 0.13427991 0.83700001
-0.05650029 0.13427991 0.83700001
-0.0550985 0.13444033 0.83800006
-0.053373221 0.13379861 0.83400005
-0.051848695 0.13363819 0.83300006
-0.05026719 0.13331734 0.83100003
-0.048633959 0.13283604 0.82800007
-0.047068235 0.13251518 0.82600003
-0.04561998 0.13251518 0.82600003
-0.044118248 0.13235475 0.82500005
-0.042775195 0.1326756 0.82700002
-0.041325189 0.1326756 0.82700002
-0.039826967 0.13251518 0.82600003
-0.038378712 0.13251518 0.82600003
-0.036841039 0.13219433 0.82400006
-0.035396293 0.13219433 0.82400006
-0.033910342 0.13203388 0.82300001
-0.032388449 0.13171303 0.82100004
-0.030948963 0.13171303 0.82100004
-0.029509477 0.13171303 0.82100004
-0.02806999 0.13171303 0.82100004
-0.026630504 0.13171303 0.82100004
-0.0252217 0.13187346 0.82200003
-0.02380939 0.13203388 0.82300001
-0.022366397 0.13203388 0.82300001
-0.020948827 0.13219433 0.82400006
-0.01950408 0.13219433 0.82400006
-0.018103167 0.13251518 0.82600003
-0.016695241 0.13283604 0.82800007
-0.01522507 0.1326756 0.82700002
-0.013775064 0.1326756 0.82700002
-0.01233996 0.13283604 0.82800007
-0.0108882 0.13283604 0.82800007
-0.0094592329 0.1331569 0.83000004
-0.007994323 0.13299647 0.82900006
-0.0065486999 0.1331569 0.83000004
-0.0050934334 0.1331569 0.83000004
-0.0036469332 0.13347776 0.83200002
-0.00219605 0.13395905 0.83500004
-0.00073377002 0.13427991 0.83700001
0.00073552335 0.13460077 0.83900005
0.0022092001 0.1347612 0.84000003
0.0036819999 0.1347612 0.84000003
0.0051732101 0.13524249 0.84300005
0.0066749398 0.13572378 0.84600002
0.00815826 0.13572378 0.84600002
0.0096643735 0.13604464 0.84800005
0.034253996 0.15288979 0.95300007
0.035962619 0.15305021 0.95400006
0.0376353 0.15305021 0.95400006
0.039307978 0.15305021 0.95400006
0.041023616 0.15321065 0.95500004
0.042653341 0.15305021 0.95400006
0.044233095 0.15272936 0.95200002
0.045902267 0.15272936 0.95200002
0.046771921 0.15016247 0.93600005
0.048464764 0.15032291 0.93700004
0.05117717 0.15353151 0.95700002
0.05313126 0.15433367 0.96200007
0.054590032 0.15369193 0.95800006
0.056269728 0.15369193 0.95800006
0.057828441 0.15337108 0.95600003
0.058508731 0.15080419 0.94000006
-0.070418246 0.15326326 0.94500005
-0.061557781 0.13720711 0.84600002
-0.059648398 0.136234 0.84000003
-0.05796783 0.13574745 0.83700001
-0.05650029 0.13574745 0.83700001
-0.0550985 0.13590963 0.83800006
-0.053501215 0.13558526 0.83600003
-0.051910941 0.13526089 0.83400005
-0.05026719 0.13477434 0.83100003
-0.048633959 0.1342878 0.82800007
-0.047068235 0.13396344 0.82600003
-0.045675211 0.13412562 0.82700002
-0.044225205 0.13412562 0.82700002
-0.042775195 0.13412562 0.82700002
-0.041325189 0.13412562 0.82700002
-0.039826967 0.13396344 0.82600003
-0.038378712 0.13396344 0.82600003
-0.03693046 0.13396344 0.82600003
-0.035396293 0.13363907 0.82400006
-0.033910342 0.13347688 0.82300001
-0.03246735 0.13347688 0.82300001
-0.030986659 0.1333147 0.82200003
-0.029545419 0.1333147 0.82200003
-0.028035799 0.13299033 0.82000005
-0.026598066 0.13299033 0.82000005
-0.0252217 0.1333147 0.82200003
-0.023867249 0.13380125 0.82500005
-0.022366397 0.13347688 0.82300001
-0.020948827 0.13363907 0.82400006
-0.019575089 0.13412562 0.82700002
-0.018146999 0.1342878 0.82800007
-0.016695241 0.1342878 0.82800007
-0.01526189 0.13444999 0.82900006
-0.013808376 0.13444999 0.82900006
-0.012354863 0.13444999 0.82900006
-0.01090135 0.13444999 0.82900006
-0.0094478363 0.13444999 0.82900006
-0.0080039669 0.13461217 0.83000004
-0.0065486999 0.13461217 0.83000004
-0.0050934334 0.13461217 0.83000004
-0.0036469332 0.13493653 0.83200002
-0.00219342 0.13526089 0.83400005
-0.00073289336 0.13558526 0.83600003
0.00073201663 0.13542308 0.83500004
0.0022092001 0.136234 0.84000003
0.0036819999 0.136234 0.84000003
0.0051670731 0.13655837 0.84200007
0.0066591599 0.13688274 0.84400004
0.0081775468 0.13753146 0.84800005
0.0096871667 0.13785583 0.85000002
0.0111775 0.13785583 0.85000002
0.012638027 0.13753146 0.84800005
0.014124854 0.13753146 0.84800005
0.01555645 0.13704492 0.84500003
0.017017853 0.13688274 0.84400004
0.035962619 0.1547229 0.95400006
0.037319701 0.15342543 0.94600004
0.038978353 0.15342543 0.94600004
0.040422224 0.15261452 0.94100004
0.04207211 0.15261452 0.94100004
0.043536142 0.15196578 0.93700004
0.0451308 0.1518036 0.93600005
0.046771921 0.1518036 0.93600005
0.048413038 0.1518036 0.93600005
0.050107636 0.15196578 0.93700004
0.051750511 0.15196578 0.93700004
0.053393383 0.15196578 0.93700004
0.055153731 0.15229015 0.93900007
0.056739621 0.15212797 0.93800002
0.058384247 0.15212797 0.93800002
-0.070418246 0.15492015 0.94500005
-0.061703306 0.1390183 0.84800005
-0.059790421 0.13803467 0.84200007
-0.058175601 0.1377068 0.84000003
-0.056567792 0.13737893 0.83800006
-0.055164251 0.13754286 0.83900005
-0.053629205 0.13737893 0.83800006
-0.051910941 0.13672318 0.83400005
-0.05044866 0.13672318 0.83400005
-0.048692696 0.13590349 0.82900006
-0.047125217 0.13557562 0.82700002
-0.045675211 0.13557562 0.82700002
-0.044225205 0.13557562 0.82700002
-0.042775195 0.13557562 0.82700002
-0.041225251 0.13524775 0.82500005
-0.03977875 0.13524775 0.82500005
-0.03833225 0.13524775 0.82500005
-0.03693046 0.13541168 0.82600003
-0.035482205 0.13541168 0.82600003
-0.033910342 0.13491988 0.82300001
-0.03246735 0.13491988 0.82300001
-0.030986659 0.13475594 0.82200003
-0.029545419 0.13475594 0.82200003
-0.028035799 0.13442807 0.82000005
-0.026630504 0.134592 0.82100004
-0.025252383 0.13491988 0.82300001
-0.023867249 0.13524775 0.82500005
-0.022420749 0.13524775 0.82500005
-0.02105052 0.13573956 0.82800007
-0.01962243 0.13590349 0.82900006
-0.018190833 0.13606744 0.83000004
-0.016735567 0.13606744 0.83000004
-0.01526189 0.13590349 0.82900006
-0.013808376 0.13590349 0.82900006
-0.012354863 0.13590349 0.82900006
-0.010940799 0.13639531 0.83200002
-0.0094706295 0.13623136 0.83100003
-0.0080039669 0.13606744 0.83000004
-0.0065486999 0.13606744 0.83000004
-0.0051057069 0.13639531 0.83200002
-0.0036469332 0.13639531 0.83200002
-0.00219342 0.13672318 0.83400005
-0.00073201663 0.13688712 0.83500004
0.00073201663 0.13688712 0.83500004
0.0022092001 0.1377068 0.84000003
0.0036819999 0.1377068 0.84000003
0.0051670731 0.13803467 0.84200007
0.0066591599 0.13836254 0.84400004
0.00815826 0.13869041 0.84600002
0.0096529769 0.13885435 0.84700006
0.0111249 0.13869041 0.84600002
0.01260822 0.13869041 0.84600002
0.014108197 0.13885435 0.84700006
0.01555645 0.13852648 0.84500003
0.017017853 0.13836254 0.84400004
0.035246383 0.15328078 0.93500006
0.0369252 0.15344472 0.93600005
0.038648728 0.15377259 0.93800002
0.040164482 0.15328078 0.93500006
0.041803848 0.15328078 0.93500006
0.043350291 0.15295291 0.93300003
0.044986151 0.15295291 0.93300003
0.046622008 0.15295291 0.93300003
0.048413038 0.15344472 0.93600005
0.050107636 0.15360865 0.93700004
0.051584821 0.15311685 0.93400002
0.053279415 0.15328078 0.93500006
0.054918785 0.15328078 0.93500006
0.056558151 0.15328078 0.93500006
0.058384247 0.15377259 0.93800002
-0.061412252 0.13984236 0.84400004
-0.059790421 0.13951097 0.84200007
-0.058314115 0.13951097 0.84200007
-0.0567028 0.1391796 0.84000003
-0.055164251 0.13901392 0.83900005
-0.053565208 0.13868253 0.83700001
-0.051910941 0.13818546 0.83400005
-0.05044866 0.13818546 0.83400005
-0.048751432 0.1375227 0.83000004
-0.047125217 0.13702562 0.82700002
-0.045675211 0.13702562 0.82700002
-0.044278681 0.13719133 0.82800007
-0.042826921 0.13719133 0.82800007
-0.041275218 0.13685994 0.82600003
-0.039826967 0.13685994 0.82600003
-0.03833225 0.13669425 0.82500005
-0.03693046 0.13685994 0.82600003
-0.035482205 0.13685994 0.82600003
-0.034033954 0.13685994 0.82600003
-0.032506801 0.13652857 0.82400006
-0.031062054 0.13652857 0.82400006
-0.029617306 0.13652857 0.82400006
-0.02810418 0.13619718 0.82200003
-0.02666294 0.13619718 0.82200003
-0.025252383 0.13636287 0.82300001
-0.023867249 0.13669425 0.82500005
-0.022502281 0.13719133 0.82800007
-0.02105052 0.13719133 0.82800007
-0.019669769 0.13768838 0.83100003
-0.018190833 0.1375227 0.83000004
-0.016735567 0.1375227 0.83000004
-0.01526189 0.13735701 0.82900006
-0.013808376 0.13735701 0.82900006
-0.012369767 0.1375227 0.83000004
-0.010940799 0.13785408 0.83200002
-0.0094706295 0.13768838 0.83100003
-0.0080039669 0.1375227 0.83000004
-0.0065644798 0.13785408 0.83200002
-0.0051057069 0.13785408 0.83200002
-0.0036557 0.13818546 0.83400005
-0.00219605 0.13835114 0.83500004
-0.00073289336 0.13851684 0.83600003
0.00073201663 0.13835114 0.83500004
0.00220657 0.13901392 0.83900005
0.0036863834 0.13934529 0.84100002
0.0051609366 0.13934529 0.84100002
0.0066512697 0.13967668 0.84300005
0.00815826 0.14017373 0.84600002
0.0096415803 0.14017373 0.84600002
0.0111249 0.14017373 0.84600002
0.01260822 0.14017373 0.84600002
0.01409154 0.14017373 0.84600002
0.01555645 0.14000805 0.84500003
0.017017853 0.13984236 0.84400004
0.030068791 0.15359463 0.92700005
0.031694129 0.15359463 0.92700005
0.03331947 0.15359463 0.92700005
0.034869418 0.15326326 0.92500007
0.036491249 0.15326326 0.92500007
0.0383191 0.1540917 0.93000007
0.040078569 0.15458877 0.93300003
0.041669719 0.15442307 0.93200004
0.043257363 0.15425739 0.93100005
0.044889715 0.15425739 0.93100005
0.04652207 0.15425739 0.93100005
0.048309594 0.15475446 0.93400002
0.049947206 0.15475446 0.93400002
0.051584821 0.15475446 0.93400002
0.053165451 0.15458877 0.93300003
0.054801311 0.15458877 0.93300003
0.056558151 0.15492015 0.93500006
0.058073029 0.15458877 0.93300003
-0.06133949 0.14115474 0.84300005
-0.059861429 0.14115474 0.84300005
-0.058314115 0.14098729 0.84200007
-0.0567028 0.1406524 0.84000003
-0.055164251 0.14048496 0.83900005
-0.053565208 0.14015007 0.83700001
-0.052097671 0.14015007 0.83700001
-0.050509151 0.13981518 0.83500004
-0.048810169 0.1391454 0.83100003
-0.047296166 0.13897796 0.83000004
-0.045675211 0.13847564 0.82700002
-0.044278681 0.13864309 0.82800007
-0.042826921 0.13864309 0.82800007
-0.041275218 0.1383082 0.82600003
-0.039826967 0.1383082 0.82600003
-0.03833225 0.13814075 0.82500005
-0.03693046 0.1383082 0.82600003
-0.035482205 0.1383082 0.82600003
-0.034033954 0.1383082 0.82600003
-0.032585699 0.1383082 0.82600003
-0.03109975 0.13814075 0.82500005
-0.029653249 0.13814075 0.82500005
-0.02810418 0.13763842 0.82200003
-0.026695376 0.13780586 0.82300001
-0.025252383 0.13780586 0.82300001
-0.023954039 0.13864309 0.82800007
-0.022475103 0.13847564 0.82700002
-0.02105052 0.13864309 0.82800007
-0.019669769 0.1391454 0.83100003
-0.018190833 0.13897796 0.83000004
-0.016735567 0.13897796 0.83000004
-0.01524348 0.13864309 0.82800007
-0.013791719 0.13864309 0.82800007
-0.012399573 0.13931285 0.83200002
-0.010940799 0.13931285 0.83200002
-0.009482027 0.13931285 0.83200002
-0.0080328966 0.13948029 0.83300006
-0.0065644798 0.13931285 0.83200002
-0.0051057069 0.13931285 0.83200002
-0.0036557 0.13964774 0.83400005
-0.00219342 0.13964774 0.83400005
-0.00073289336 0.13998263 0.83600003
0.00073289336 0.13998263 0.83600003
0.00220657 0.14048496 0.83900005
0.0036863834 0.14081985 0.84100002
0.0051732101 0.14115474 0.84300005
0.0066591599 0.14132217 0.84400004
0.00815826 0.14165705 0.84600002
0.0096301837 0.14148961 0.84500003
0.01111175 0.14148961 0.84500003
0.012593317 0.14148961 0.84500003
0.01409154 0.14165705 0.84600002
0.015574859 0.14165705 0.84600002
0.029906606 0.15438275 0.92200005
0.031523179 0.15438275 0.92200005
0.033247583 0.15488508 0.92500007
0.034794021 0.15455019 0.92300004
0.036451798 0.15471764 0.92400002
0.037989475 0.15438275 0.92200005
0.0399497 0.15572231 0.93000007
0.041669719 0.15605718 0.93200004
0.043257363 0.15588975 0.93100005
0.044889715 0.15588975 0.93100005
0.04652207 0.15588975 0.93100005
0.048206147 0.15605718 0.93200004
0.049840253 0.15605718 0.93200004
0.051474359 0.15605718 0.93200004
0.052937515 0.15555486 0.92900002
0.054566365 0.15555486 0.92900002
0.056437168 0.15622462 0.93300003
0.057824057 0.15555486 0.92900002
-0.061776068 0.14364797 0.84900004
-0.060216479 0.14347877 0.84800005
-0.058591139 0.14314038 0.84600002
-0.056972813 0.14280199 0.84400004
-0.05529575 0.14229439 0.84100002
-0.053693201 0.141956 0.83900005
-0.052035425 0.14144841 0.83600003
-0.050509151 0.14127922 0.83500004
-0.048927642 0.14094082 0.83300006
-0.047353148 0.14060242 0.83100003
-0.045730438 0.14009485 0.82800007
-0.044278681 0.14009485 0.82800007
-0.042826921 0.14009485 0.82800007
-0.041275218 0.13975644 0.82600003
-0.039826967 0.13975644 0.82600003
-0.038378712 0.13975644 0.82600003
-0.03693046 0.13975644 0.82600003
-0.035482205 0.13975644 0.82600003
-0.034033954 0.13975644 0.82600003
-0.032585699 0.13975644 0.82600003
-0.031062054 0.13941805 0.82400006
-0.029617306 0.13941805 0.82400006
-0.02810418 0.13907966 0.82200003
-0.026695376 0.13924886 0.82300001
-0.02531375 0.13958725 0.82500005
-0.023954039 0.14009485 0.82800007
-0.022475103 0.13992564 0.82700002
-0.021025097 0.13992564 0.82700002
-0.019669769 0.14060242 0.83100003
-0.018190833 0.14043324 0.83000004
-0.016715404 0.14026403 0.82900006
-0.01524348 0.14009485 0.82800007
-0.013791719 0.14009485 0.82800007
-0.012399573 0.14077163 0.83200002
-0.010940799 0.14077163 0.83200002
-0.009482027 0.14077163 0.83200002
-0.0080328966 0.14094082 0.83300006
-0.00657237 0.14094082 0.83300006
-0.0051241168 0.14127922 0.83500004
-0.0036600833 0.14127922 0.83500004
-0.0021986801 0.14144841 0.83600003
-0.00073289336 0.14144841 0.83600003
0.00073377002 0.14161761 0.83700001
0.0022092001 0.1421252 0.84000003
0.0036907666 0.14246359 0.84200007
0.0051793465 0.14280199 0.84400004
0.0066670501 0.14297119 0.84500003
0.0081486162 0.14297119 0.84500003
0.0096301837 0.14297119 0.84500003
0.0110986 0.14280199 0.84400004
0.012593317 0.14297119 0.84500003
0.014074883 0.14297119 0.84500003
0.01555645 0.14297119 0.84500003
0.029841732 0.15566093 0.92000002
0.031454802 0.15566093 0.92000002
0.033175696 0.15616852 0.92300004
0.034530148 0.15498415 0.91600007
0.03601785 0.15447655 0.91300005
0.037618645 0.15447655 0.91300005
0.039734915 0.15650691 0.92500007
0.04153559 0.15718371 0.92900002
0.043257363 0.1575221 0.93100005
0.044889715 0.1575221 0.93100005
0.04652207 0.1575221 0.93100005
0.048206147 0.15769129 0.93200004
0.049840253 0.15769129 0.93200004
0.051474359 0.15769129 0.93200004
0.052937515 0.15718371 0.92900002
0.054566365 0.15718371 0.92900002
0.056437168 0.15786049 0.93300003
0.057699569 0.15684532 0.92700005
-0.061776068 0.14513655 0.84900004
-0.06028749 0.14513655 0.84900004
-0.058591139 0.1446237 0.84600002
-0.057040315 0.14445275 0.84500003
-0.05542725 0.14411084 0.84300005
-0.053757198 0.14359801 0.84000003
-0.052035425 0.14291421 0.83600003
-0.050569639 0.14291421 0.83600003
-0.048986379 0.1425723 0.83400005
-0.047353148 0.14205945 0.83100003
-0.045675211 0.14137565 0.82700002
-0.044225205 0.14137565 0.82700002
-0.042826921 0.14154659 0.82800007
-0.041275218 0.1412047 0.82600003
-0.03977875 0.14103375 0.82500005
-0.03833225 0.14103375 0.82500005
-0.03693046 0.1412047 0.82600003
-0.035482205 0.1412047 0.82600003
-0.034033954 0.1412047 0.82600003
-0.032585699 0.1412047 0.82600003
-0.031062054 0.14086279 0.82400006
-0.029617306 0.14086279 0.82400006
-0.02817256 0.14086279 0.82400006
-0.02676025 0.14103375 0.82500005
-0.02531375 0.14103375 0.82500005
-0.023954039 0.14154659 0.82800007
-0.022475103 0.14137565 0.82700002
-0.020999674 0.1412047 0.82600003
-0.01962243 0.14171755 0.82900006
-0.018168917 0.14171755 0.82900006
-0.016715404 0.14171755 0.82900006
-0.01526189 0.14171755 0.82900006
-0.013791719 0.14154659 0.82800007
-0.012414477 0.14240135 0.83300006
-0.01095395 0.14240135 0.83300006
-0.009482027 0.14223041 0.83200002
-0.0080425404 0.1425723 0.83400005
-0.0065802601 0.1425723 0.83400005
-0.0051302533 0.14291421 0.83600003
-0.0036644666 0.14291421 0.83600003
-0.0022039399 0.1432561 0.83800006
-0.00073464669 0.1432561 0.83800006
0.00073640002 0.14359801 0.84000003
0.0022118299 0.14376895 0.84100002
0.0037039167 0.14445275 0.84500003
0.0051854835 0.14445275 0.84500003
0.0066670501 0.14445275 0.84500003
0.00815826 0.1446237 0.84600002
0.0096301837 0.14445275 0.84500003
0.01111175 0.14445275 0.84500003
0.012593317 0.14445275 0.84500003
0.014074883 0.14445275 0.84500003
0.01555645 0.14445275 0.84500003
0.029517366 0.1555645 0.91000003
0.0311129 0.1555645 0.91000003
0.03299598 0.1569321 0.91800004
0.034303967 0.1555645 0.91000003
0.035781149 0.15505165 0.90700006
0.037330221 0.1548807 0.90600002
0.038918741 0.1548807 0.90600002
0.04046255 0.15470976 0.90500003
0.041770536 0.15368405 0.89900005
0.043346781 0.15368405 0.89900005
0.04652207 0.15915444 0.93100005
0.047999252 0.15864159 0.92800003
0.049252011 0.15744495 0.92100006
0.050922059 0.1576159 0.92200005
0.052823551 0.15847065 0.92700005
0.054801311 0.15949635 0.93300003
0.056437168 0.15949635 0.93300003
0.057699569 0.15847065 0.92700005
-0.063637234 0.14748864 0.85400003
-0.06221265 0.14766134 0.85500002
-0.06042951 0.14697054 0.85100001
-0.058798909 0.14662513 0.84900004
-0.057040315 0.14593431 0.84500003
-0.05542725 0.1455889 0.84300005
-0.053821195 0.1452435 0.84100002
-0.052159913 0.1447254 0.83800006
-0.050569639 0.14437999 0.83600003
-0.048986379 0.14403458 0.83400005
-0.047353148 0.14351647 0.83100003
-0.045730438 0.14299835 0.82800007
-0.044225205 0.14282566 0.82700002
-0.042775195 0.14282566 0.82700002
-0.041325189 0.14282566 0.82700002
-0.039730534 0.14230755 0.82400006
-0.038285788 0.14230755 0.82400006
-0.03693046 0.14265296 0.82600003
-0.035482205 0.14265296 0.82600003
-0.034033954 0.14265296 0.82600003
-0.032585699 0.14265296 0.82600003
-0.031062054 0.14230755 0.82400006
-0.029617306 0.14230755 0.82400006
-0.02824094 0.14265296 0.82600003
-0.026825123 0.14282566 0.82700002
-0.0254058 0.14299835 0.82800007
-0.024011901 0.14334376 0.83000004
-0.022529457 0.14317106 0.82900006
-0.02105052 0.14299835 0.82800007
-0.01962243 0.14317106 0.82900006
-0.018168917 0.14317106 0.82900006
-0.016715404 0.14317106 0.82900006
-0.01526189 0.14317106 0.82900006
-0.013808376 0.14317106 0.82900006
-0.01238467 0.14351647 0.83100003
-0.01095395 0.14386187 0.83300006
-0.009482027 0.14368917 0.83200002
-0.0080425404 0.14403458 0.83400005
-0.00659604 0.14437999 0.83600003
-0.0051302533 0.14437999 0.83600003
-0.0036732333 0.1447254 0.83800006
-0.0022039399 0.1447254 0.83800006
-0.00073464669 0.1447254 0.83800006
0.00073640002 0.14507081 0.84000003
0.0022118299 0.1452435 0.84100002
0.0037039167 0.14593431 0.84500003
0.0051854835 0.14593431 0.84500003
0.0066749398 0.14610702 0.84600002
0.0081486162 0.14593431 0.84500003
0.0096301837 0.14593431 0.84500003
0.01111175 0.14593431 0.84500003
0.012593317 0.14593431 0.84500003
0.014074883 0.14593431 0.84500003
0.029355183 0.15629652 0.90500003
0.03094195 0.15629652 0.90500003
0.032564659 0.15646923 0.90600002
0.034077786 0.15612382 0.90400004
0.035505001 0.155433 0.90000004
0.037083 0.155433 0.90000004
0.038660999 0.155433 0.90000004
0.040149581 0.15508759 0.89800006
0.041724075 0.15508759 0.89800006
0.043298565 0.15508759 0.89800006
0.04492303 0.15526029 0.89900005
0.047326848 0.15802355 0.91500002
0.048931148 0.15802355 0.91500002
0.050535448 0.15802355 0.91500002
0.052253716 0.15836896 0.91700006
0.053861521 0.15836896 0.91700006
0.054320019 0.15508759 0.89800006
0.055894513 0.15508759 0.89800006
-0.06221265 0.14916044 0.85500002
-0.060500521 0.14863709 0.85200006
-0.058937423 0.14846262 0.85100001
-0.057107821 0.14759034 0.84600002
-0.055558749 0.14741588 0.84500003
-0.053885192 0.14689252 0.84200007
-0.052284401 0.14654359 0.84000003
-0.050751109 0.14636914 0.83900005
-0.049045116 0.14567132 0.83500004
-0.047524098 0.14549686 0.83400005
-0.045896132 0.14497349 0.83100003
-0.044225205 0.14427567 0.82700002
-0.042775195 0.14427567 0.82700002
-0.041275218 0.1441012 0.82600003
-0.039826967 0.1441012 0.82600003
-0.038378712 0.1441012 0.82600003
-0.03688575 0.14392675 0.82500005
-0.035439249 0.14392675 0.82500005
-0.034033954 0.1441012 0.82600003
-0.032585699 0.1441012 0.82600003
-0.031062054 0.14375229 0.82400006
-0.029617306 0.14375229 0.82400006
-0.02827513 0.14427567 0.82700002
-0.026825123 0.14427567 0.82700002
-0.0254058 0.14445011 0.82800007
-0.02398297 0.14462458 0.82900006
-0.022529457 0.14462458 0.82900006
-0.02105052 0.14445011 0.82800007
-0.019646101 0.14479904 0.83000004
-0.018212751 0.14497349 0.83100003
-0.01675573 0.14497349 0.83100003
-0.01526189 0.14462458 0.82900006
-0.013808376 0.14462458 0.82900006
-0.01238467 0.14497349 0.83100003
-0.01095395 0.1453224 0.83300006
-0.0094934236 0.1453224 0.83300006
-0.0080425404 0.14549686 0.83400005
-0.0066039301 0.14602023 0.83700001
-0.0051302533 0.14584577 0.83600003
-0.0036732333 0.14619468 0.83800006
-0.0022039399 0.14619468 0.83800006
-0.00073552335 0.14636914 0.83900005
0.00073640002 0.14654359 0.84000003
0.0022118299 0.14671806 0.84100002
0.0036995334 0.14724143 0.84400004
0.0051793465 0.14724143 0.84400004
0.0066749398 0.14759034 0.84600002
0.0081486162 0.14741588 0.84500003
0.0096187862 0.14724143 0.84400004
0.0110986 0.14724143 0.84400004
0.012578413 0.14724143 0.84400004
0.014058227 0.14724143 0.84400004
0.01632967 0.15474306 0.88700002
0.017884877 0.15474306 0.88700002
0.019462001 0.15491752 0.88800007
0.02101896 0.15491752 0.88800007
0.022626767 0.15526643 0.89000005
0.024187233 0.15526643 0.89000005
0.02586342 0.15596426 0.89400005
0.027430899 0.15596426 0.89400005
0.028998381 0.15596426 0.89400005
0.03094195 0.15788329 0.90500003
0.032564659 0.15805773 0.90600002
0.033851605 0.15666209 0.89800006
0.035426099 0.15666209 0.89800006
0.037000593 0.15666209 0.89800006
0.038660999 0.157011 0.90000004
0.040149581 0.15666209 0.89800006
0.041724075 0.15666209 0.89800006
0.043298565 0.15666209 0.89800006
0.044973001 0.157011 0.90000004
0.046551 0.157011 0.90000004
0.048022047 0.15666209 0.89800006
0.049486078 0.15631317 0.89600003
0.051057067 0.15631317 0.89600003
0.052745525 0.15666209 0.89800006
0.054320019 0.15666209 0.89800006
0.055894513 0.15666209 0.89800006
-0.065798216 0.15559343 0.88300002
-0.061994359 0.15013091 0.85200006
-0.060500521 0.15013091 0.85200006
-0.058798909 0.14960229 0.84900004
-0.057107821 0.14907366 0.84600002
-0.055493001 0.14872123 0.84400004
-0.053885192 0.14836882 0.84200007
-0.052284401 0.14801639 0.84000003
-0.050751109 0.14784019 0.83900005
-0.049045116 0.14713535 0.83500004
-0.047581084 0.14713535 0.83500004
-0.045896132 0.14643051 0.83100003
-0.044225205 0.14572567 0.82700002
-0.042775195 0.14572567 0.82700002
-0.041275218 0.14554946 0.82600003
-0.03977875 0.14537326 0.82500005
-0.03833225 0.14537326 0.82500005
-0.036841039 0.14519703 0.82400006
-0.035439249 0.14537326 0.82500005
-0.034033954 0.14554946 0.82600003
-0.032585699 0.14554946 0.82600003
-0.031137446 0.14554946 0.82600003
-0.029725136 0.14572567 0.82700002
-0.02827513 0.14572567 0.82700002
-0.026825123 0.14572567 0.82700002
-0.025375117 0.14572567 0.82700002
-0.02398297 0.14607809 0.82900006
-0.022529457 0.14607809 0.82900006
-0.02105052 0.14590187 0.82800007
-0.01962243 0.14607809 0.82900006
-0.018168917 0.14607809 0.82900006
-0.016715404 0.14607809 0.82900006
-0.01526189 0.14607809 0.82900006
-0.013808376 0.14607809 0.82900006
-0.01238467 0.14643051 0.83100003
-0.01095395 0.14678293 0.83300006
-0.0094934236 0.14678293 0.83300006
-0.0080521833 0.14713535 0.83500004
-0.0066039301 0.14748777 0.83700001
-0.0051425267 0.14766398 0.83800006
-0.0036732333 0.14766398 0.83800006
-0.0022092001 0.14801639 0.84000003
-0.00073552335 0.14784019 0.83900005
0.00073727668 0.14819261 0.84100002
0.00221709 0.14854503 0.84300005
0.0036995334 0.14872123 0.84400004
0.0051793465 0.14872123 0.84400004
0.0066591599 0.14872123 0.84400004
0.0081389733 0.14872123 0.84400004
0.0096187862 0.14872123 0.84400004
0.0110986 0.14872123 0.84400004
0.012578413 0.14872123 0.84400004
0.014058227 0.14872123 0.84400004
0.01629285 0.15594585 0.88500005
0.017824387 0.15576965 0.88400006
0.019396249 0.15594585 0.88500005
0.02094795 0.15594585 0.88500005
0.02257592 0.15647449 0.88800007
0.024187233 0.1568269 0.89000005
0.025718769 0.15665069 0.88900006
0.027277483 0.15665069 0.88900006
0.028836196 0.15665069 0.88900006
0.030463289 0.1570031 0.89100003
0.032061454 0.15717933 0.89200002
0.033625428 0.15717933 0.89200002
0.03530775 0.15770794 0.89500004
0.036959391 0.15806037 0.89700001
0.038575087 0.15823658 0.89800006
0.040060159 0.15788417 0.89600003
0.041631147 0.15788417 0.89600003
0.043298565 0.15823658 0.89800006
0.044873059 0.15823658 0.89800006
0.046551 0.15858901 0.90000004
0.048022047 0.15823658 0.89800006
0.049486078 0.15788417 0.89600003
0.051057067 0.15788417 0.89600003
0.052745525 0.15823658 0.89800006
0.054320019 0.15823658 0.89800006
0.055707783 0.15770794 0.89500004
-0.065649182 0.1567857 0.88100004
-0.063958973 0.15642977 0.87900007
-0.060145471 0.15073495 0.84700006
-0.058660395 0.15073495 0.84700006
-0.056972813 0.15020105 0.84400004
-0.05542725 0.15002309 0.84300005
-0.053949188 0.15002309 0.84300005
-0.052284401 0.14948919 0.84000003
-0.050751109 0.14931123 0.83900005
-0.049045116 0.14859939 0.83500004
-0.047581084 0.14859939 0.83500004
-0.045951359 0.14806549 0.83200002
-0.044225205 0.14717567 0.82700002
-0.042775195 0.14717567 0.82700002
-0.041225251 0.14681976 0.82500005
-0.03977875 0.14681976 0.82500005
-0.038239323 0.14646383 0.82300001
-0.03688575 0.14681976 0.82500005
-0.035439249 0.14681976 0.82500005
-0.034075156 0.14717567 0.82700002
-0.03262515 0.14717567 0.82700002
-0.031175144 0.14717567 0.82700002
-0.02976108 0.14735363 0.82800007
-0.028309319 0.14735363 0.82800007
-0.026825123 0.14717567 0.82700002
-0.025375117 0.14717567 0.82700002
-0.02398297 0.1475316 0.82900006
-0.022502281 0.14735363 0.82800007
-0.02105052 0.14735363 0.82800007
-0.019646101 0.14770956 0.83000004
-0.018190833 0.14770956 0.83000004
-0.016715404 0.1475316 0.82900006
-0.01526189 0.1475316 0.82900006
-0.013825033 0.14770956 0.83000004
-0.01238467 0.14788753 0.83100003
-0.01095395 0.14824346 0.83300006
-0.0095048202 0.14842142 0.83400005
-0.0080521833 0.14859939 0.83500004
-0.0066039301 0.14895532 0.83700001
-0.0051425267 0.14913327 0.83800006
-0.0036732333 0.14913327 0.83800006
-0.0022092001 0.14948919 0.84000003
-0.00073552335 0.14931123 0.83900005
0.00073727668 0.14966716 0.84100002
0.00221709 0.15002309 0.84300005
0.0036995334 0.15020105 0.84400004
0.0051793465 0.15020105 0.84400004
0.0066591599 0.15020105 0.84400004
0.0081389733 0.15020105 0.84400004
0.0096187862 0.15020105 0.84400004
0.01111175 0.15037902 0.84500003
0.012578413 0.15020105 0.84400004
0.014707836 0.15714163 0.88300002
0.016256031 0.15714163 0.88300002
0.017784059 0.15696366 0.88200003
0.019374333 0.15731959 0.88400006
0.02094795 0.15749756 0.88500005
0.02257592 0.15803143 0.88800007
0.024105703 0.15785347 0.88700002
0.025718769 0.1582094 0.88900006
0.027185433 0.15767552 0.88600004
0.028771322 0.15785347 0.88700002
0.03032653 0.15785347 0.88700002
0.031881735 0.15785347 0.88700002
0.033625428 0.15874329 0.89200002
0.035189401 0.15874329 0.89200002
0.036876984 0.15927719 0.89500004
0.038489174 0.15945515 0.89600003
0.040060159 0.15945515 0.89600003
0.041631147 0.15945515 0.89600003
0.043202132 0.15945515 0.89600003
0.044873059 0.15981108 0.89800006
0.04670617 0.16070089 0.90300006
0.048289429 0.16070089 0.90300006
0.049486078 0.15945515 0.89600003
0.051057067 0.15945515 0.89600003
0.052628051 0.15945515 0.89600003
0.05419904 0.15945515 0.89600003
0.055583294 0.15892126 0.89300007
-0.065425634 0.15779123 0.87800002
-0.063958973 0.15797095 0.87900007
-0.06028749 0.15257944 0.84900004
-0.058660395 0.15222001 0.84700006
-0.056972813 0.15168087 0.84400004
-0.055558749 0.15186058 0.84500003
-0.053885192 0.15132143 0.84200007
-0.052346643 0.15114172 0.84100002
-0.050751109 0.15078229 0.83900005
-0.048986379 0.1498837 0.83400005
-0.047524098 0.1498837 0.83400005
-0.0458409 0.14916483 0.83000004
-0.044225205 0.14862569 0.82700002
-0.042723473 0.14844596 0.82600003
-0.041225251 0.14826626 0.82500005
-0.03977875 0.14826626 0.82500005
-0.038239323 0.14790681 0.82300001
-0.036841039 0.14808653 0.82400006
-0.035439249 0.14826626 0.82500005
-0.034075156 0.14862569 0.82700002
-0.03262515 0.14862569 0.82700002
-0.031175144 0.14862569 0.82700002
-0.02976108 0.14880539 0.82800007
-0.028309319 0.14880539 0.82800007
-0.026857561 0.14880539 0.82800007
-0.025375117 0.14862569 0.82700002
-0.02398297 0.14898512 0.82900006
-0.022529457 0.14898512 0.82900006
-0.02105052 0.14880539 0.82800007
-0.019646101 0.14916483 0.83000004
-0.018190833 0.14916483 0.83000004
-0.016715404 0.14898512 0.82900006
-0.01526189 0.14898512 0.82900006
-0.013825033 0.14916483 0.83000004
-0.01238467 0.14934455 0.83100003
-0.0109671 0.1498837 0.83400005
-0.0095048202 0.1498837 0.83400005
-0.0080425404 0.1498837 0.83400005
-0.00659604 0.15024313 0.83600003
-0.0051425267 0.15060256 0.83800006
-0.0036819999 0.150962 0.84000003
-0.0022144599 0.15132143 0.84200007
-0.00073903002 0.15150115 0.84300005
0.00073640002 0.150962 0.84000003
0.0022223501 0.15186058 0.84500003
0.0037082999 0.1520403 0.84600002
0.00519162 0.1520403 0.84600002
0.0066670501 0.15186058 0.84500003
0.0081389733 0.15168087 0.84400004
0.009595993 0.15132143 0.84200007
0.0110723 0.15132143 0.84200007
0.012578413 0.15168087 0.84400004
0.014707836 0.15868981 0.88300002
0.016256031 0.15868981 0.88300002
0.017784059 0.1585101 0.88200003
0.019374333 0.15886953 0.88400006
0.020924279 0.15886953 0.88400006
0.022550497 0.15940869 0.88700002
0.024105703 0.15940869 0.88700002
0.025631979 0.15922897 0.88600004
0.027185433 0.15922897 0.88600004
0.028674014 0.15886953 0.88400006
0.03022396 0.15886953 0.88400006
0.031773906 0.15886953 0.88400006
0.033474639 0.1595884 0.88800007
0.035031598 0.1595884 0.88800007
0.036588561 0.1595884 0.88800007
0.038489174 0.16102614 0.89600003
0.039970741 0.1606667 0.89400005
0.04153822 0.1606667 0.89400005
0.042430665 0.15815067 0.88000005
0.043973599 0.15815067 0.88000005
0.04561998 0.1585101 0.88200003
0.047166418 0.1585101 0.88200003
0.04904424 0.1595884 0.88800007
0.050658181 0.15976812 0.88900006
0.052216895 0.15976812 0.88900006
0.053896591 0.16012755 0.89100003
0.055396568 0.15994783 0.89000005
-0.065425634 0.15933067 0.87800002
-0.063958973 0.15951213 0.87900007
-0.060145471 0.15370509 0.84700006
-0.058660395 0.15370509 0.84700006
-0.056972813 0.15316068 0.84400004
-0.055558749 0.15334214 0.84500003
-0.053885192 0.15279774 0.84200007
-0.052346643 0.15261626 0.84100002
-0.050751109 0.15225333 0.83900005
-0.048986379 0.15134598 0.83400005
-0.047524098 0.15134598 0.83400005
-0.0458409 0.1506201 0.83000004
-0.044225205 0.15007569 0.82700002
-0.042775195 0.15007569 0.82700002
-0.041225251 0.14971276 0.82500005
-0.03977875 0.14971276 0.82500005
-0.038378712 0.14989422 0.82600003
-0.03688575 0.14971276 0.82500005
-0.035439249 0.14971276 0.82500005
-0.034075156 0.15007569 0.82700002
-0.03262515 0.15007569 0.82700002
-0.031175144 0.15007569 0.82700002
-0.02976108 0.15025716 0.82800007
-0.028309319 0.15025716 0.82800007
-0.026857561 0.15025716 0.82800007
-0.025375117 0.15007569 0.82700002
-0.02398297 0.15043862 0.82900006
-0.022529457 0.15043862 0.82900006
-0.02105052 0.15025716 0.82800007
-0.019646101 0.1506201 0.83000004
-0.018190833 0.1506201 0.83000004
-0.016735567 0.1506201 0.83000004
-0.0152803 0.1506201 0.83000004
-0.013825033 0.1506201 0.83000004
-0.012399573 0.15098304 0.83200002
-0.0109671 0.15134598 0.83400005
-0.0095048202 0.15134598 0.83400005
-0.0080425404 0.15134598 0.83400005
-0.0066118198 0.15207186 0.83800006
-0.0051425267 0.15207186 0.83800006
-0.0036819999 0.1524348 0.84000003
-0.00221972 0.15316068 0.84400004
-0.00073990668 0.15316068 0.84400004
0.00074078335 0.15334214 0.84500003
0.0022223501 0.15334214 0.84500003
0.0037126832 0.15370509 0.84700006
0.0051977565 0.15370509 0.84700006
0.0066670501 0.15334214 0.84500003
0.0081389733 0.15316068 0.84400004
0.009595993 0.15279774 0.84200007
0.0110723 0.15279774 0.84200007
0.012548607 0.15279774 0.84200007
0.01464121 0.15951213 0.87900007
0.016182389 0.15951213 0.87900007
0.017743733 0.1596936 0.88000005
0.019374333 0.16041948 0.88400006
0.020924279 0.16041948 0.88400006
0.022474226 0.16041948 0.88400006
0.024024174 0.16041948 0.88400006
0.025545189 0.16023801 0.88300002
0.027093383 0.16023801 0.88300002
0.028576704 0.15987507 0.88100004
0.03012139 0.15987507 0.88100004
0.031594191 0.15951213 0.87900007
0.033210762 0.15987507 0.88100004
0.035031598 0.16114536 0.88800007
0.03621773 0.15951213 0.87900007
0.037672997 0.15914918 0.87700003
0.039121252 0.15878625 0.87500006
0.040655416 0.15878625 0.87500006
0.042189583 0.15878625 0.87500006
0.043723751 0.15878625 0.87500006
0.045361362 0.15914918 0.87700003
0.046899036 0.15914918 0.87700003
0.048547171 0.15951213 0.87900007
0.050487231 0.16078241 0.88600004
0.052040685 0.16078241 0.88600004
0.053594138 0.16078241 0.88600004
0.05527208 0.16114536 0.88800007
-0.064680465 0.15903786 0.86800003
-0.062067121 0.1562895 0.85300004
-0.06007446 0.15500695 0.84600002
-0.058660395 0.15519015 0.84700006
-0.056972813 0.1546405 0.84400004
-0.055493001 0.1546405 0.84400004
-0.053821195 0.15409082 0.84100002
-0.052284401 0.1539076 0.84000003
-0.050690621 0.15354115 0.83800006
-0.048986379 0.15280826 0.83400005
-0.047467116 0.15262504 0.83300006
-0.0458409 0.15207537 0.83000004
-0.044225205 0.15152569 0.82700002
-0.042826921 0.15170892 0.82800007
-0.041275218 0.15134247 0.82600003
-0.039730534 0.15097603 0.82400006
-0.03833225 0.15115924 0.82500005
-0.036975171 0.15152569 0.82700002
-0.035439249 0.15115924 0.82500005
-0.034033954 0.15134247 0.82600003
-0.03262515 0.15152569 0.82700002
-0.03121284 0.15170892 0.82800007
-0.02976108 0.15170892 0.82800007
-0.028309319 0.15170892 0.82800007
-0.026857561 0.15170892 0.82800007
-0.025375117 0.15152569 0.82700002
-0.023954039 0.15170892 0.82800007
-0.022502281 0.15170892 0.82800007
-0.021025097 0.15152569 0.82700002
-0.01962243 0.15189214 0.82900006
-0.018234666 0.15244181 0.83200002
-0.016775893 0.15244181 0.83200002
-0.01531712 0.15244181 0.83200002
-0.013858346 0.15244181 0.83200002
-0.012414477 0.15262504 0.83300006
-0.0109671 0.15280826 0.83400005
-0.0095276134 0.1531747 0.83600003
-0.0080425404 0.15280826 0.83400005
-0.0065881498 0.15299149 0.83500004
-0.0051363898 0.15335792 0.83700001
-0.0036819999 0.1539076 0.84000003
-0.00221972 0.1546405 0.84400004
-0.00073990668 0.1546405 0.84400004
0.00074078335 0.15482372 0.84500003
0.0022223501 0.15482372 0.84500003
0.0037170667 0.15537338 0.84800005
0.0051977565 0.15519015 0.84700006
0.0066907201 0.15537338 0.84800005
0.0081486162 0.15482372 0.84500003
0.0096187862 0.1546405 0.84400004
0.0110986 0.1546405 0.84400004
0.013070223 0.16068687 0.87700003
0.014607897 0.16068687 0.87700003
0.01614557 0.16068687 0.87700003
0.01772357 0.16105331 0.87900007
0.0193305 0.16160297 0.88200003
0.02087694 0.16160297 0.88200003
0.022423379 0.16160297 0.88200003
0.02396982 0.16160297 0.88200003
0.02551626 0.16160297 0.88200003
0.027032016 0.16141975 0.88100004
0.028446956 0.16068687 0.87700003
0.029984631 0.16068687 0.87700003
0.031558245 0.16087009 0.87800002
0.033059977 0.16068687 0.87700003
0.03459765 0.16068687 0.87700003
0.036135323 0.16068687 0.87700003
0.037501171 0.15995397 0.87300003
0.038987119 0.15977074 0.87200004
0.040516026 0.15977074 0.87200004
0.042044934 0.15977074 0.87200004
0.043573841 0.15977074 0.87200004
0.045102745 0.15977074 0.87200004
0.046899036 0.16068687 0.87700003
0.048436709 0.16068687 0.87700003
0.050487231 0.16233587 0.88600004
0.052040685 0.16233587 0.88600004
0.053594138 0.16233587 0.88600004
0.05508535 0.16215265 0.88500005
-0.063562714 0.1577851 0.85300004
-0.062067121 0.1577851 0.85300004
-0.06028749 0.15704519 0.84900004
-0.058729652 0.15686022 0.84800005
-0.056972813 0.1561203 0.84400004
-0.05542725 0.15593533 0.84300005
-0.053821195 0.15556538 0.84100002
-0.052222155 0.15519542 0.83900005
-0.05063013 0.15482546 0.83700001
-0.048927642 0.15408556 0.83300006
-0.047467116 0.15408556 0.83300006
-0.0458409 0.15353063 0.83000004
-0.044332158 0.15334566 0.82900006
-0.042775195 0.15297571 0.82700002
-0.041275218 0.15279073 0.82600003
-0.039730534 0.15242077 0.82400006
-0.03833225 0.15260574 0.82500005
-0.036975171 0.15297571 0.82700002
-0.035439249 0.15260574 0.82500005
-0.033992749 0.15260574 0.82500005
-0.032585699 0.15279073 0.82600003
-0.03121284 0.15316068 0.82800007
-0.02976108 0.15316068 0.82800007
-0.028309319 0.15316068 0.82800007
-0.026857561 0.15316068 0.82800007
-0.025375117 0.15297571 0.82700002
-0.023954039 0.15316068 0.82800007
-0.022502281 0.15316068 0.82800007
-0.020999674 0.15279073 0.82600003
-0.019646101 0.15353063 0.83000004
-0.018212751 0.15371561 0.83100003
-0.01675573 0.15371561 0.83100003
-0.01529871 0.15371561 0.83100003
-0.01384169 0.15371561 0.83100003
-0.012414477 0.15408556 0.83300006
-0.01095395 0.15408556 0.83300006
-0.0095276134 0.1546405 0.83600003
-0.0080425404 0.15427054 0.83400005
-0.0065881498 0.15445551 0.83500004
-0.0051363898 0.15482546 0.83700001
-0.0036863834 0.15556538 0.84100002
-0.00221972 0.1561203 0.84400004
-0.00073990668 0.1561203 0.84400004
0.00074078335 0.15630528 0.84500003
0.0022223501 0.15630528 0.84500003
0.0037126832 0.15667523 0.84700006
0.0052100299 0.15704519 0.84900004
0.0067065 0.15723017 0.85000002
0.0081871897 0.15704519 0.84900004
0.009732753 0.15797007 0.85400003
0.0112301 0.15797007 0.85400003
0.013025513 0.16166961 0.87400001
0.014557927 0.16166961 0.87400001
0.016163981 0.16240951 0.87800002
0.01772357 0.16259448 0.87900007
0.019308584 0.16296445 0.88100004
0.02085327 0.16296445 0.88100004
0.022397956 0.16296445 0.88100004
0.023942644 0.16296445 0.88100004
0.025458399 0.16277947 0.88000005
0.027001332 0.16277947 0.88000005
0.028382083 0.16185458 0.87500006
0.029916249 0.16185458 0.87500006
0.031486358 0.16203956 0.87600005
0.032946885 0.16166961 0.87400001
0.034479301 0.16166961 0.87400001
0.036011714 0.16166961 0.87400001
0.037415255 0.16111468 0.87100005
0.038942412 0.16111468 0.87100005
0.040423099 0.16092969 0.87000006
0.041948501 0.16092969 0.87000006
0.043473899 0.16092969 0.87000006
0.044999301 0.16092969 0.87000006
0.046417747 0.16055974 0.86800003
0.04793964 0.16055974 0.86800003
0.050487231 0.16388932 0.88600004
0.052040685 0.16388932 0.88600004
0.053594138 0.16388932 0.88600004
0.055147592 0.16388932 0.88600004
-0.06341368 0.15890723 0.85100001
-0.061994359 0.15909396 0.85200006
-0.06028749 0.15853377 0.84900004
-0.058729652 0.15834704 0.84800005
-0.057107821 0.15797357 0.84600002
-0.05542725 0.15741339 0.84300005
-0.053821195 0.15703993 0.84100002
-0.052222155 0.15666647 0.83900005
-0.05063013 0.156293 0.83700001
-0.048927642 0.15554608 0.83300006
-0.047467116 0.15554608 0.83300006
-0.0458409 0.1549859 0.83000004
-0.044385634 0.1549859 0.83000004
-0.042775195 0.15442571 0.82700002
-0.041325189 0.15442571 0.82700002
-0.039826967 0.15423898 0.82600003
-0.038378712 0.15423898 0.82600003
-0.036975171 0.15442571 0.82700002
-0.035525162 0.15442571 0.82700002
-0.034116361 0.15461244 0.82800007
-0.032585699 0.15423898 0.82600003
