# .PCD v0.7 - Point Cloud Data file format
VERSION 0.7
FIELDS x y z
SIZE 4 4 4
TYPE F F F
COUNT 1 1 1
WIDTH 68
HEIGHT 1
VIEWPOINT 0 0 0 1 0 0 0
POINTS 68
DATA ascii
0.23016708 -0.39263797 1.1880001
0.23225003 -0.39263797 1.1880001
0.23433299 -0.39263797 1.1880001
0.23796678 -0.37890849 1.1650001
0.24275689 -0.36967543 1.149
0.24306723 -0.36710152 1.141
0.24555258 -0.36484939 1.1340001
0.24623112 -0.35896343 1.128
0.24798883 -0.3586452 1.1270001
0.24952126 -0.35800874 1.125
0.25523362 -0.34645778 1.107
0.2540808 -0.34296077 1.102
0.25694224 -0.34420562 1.1060001
0.25817922 -0.34327197 1.103
0.25624529 -0.34133807 1.103
0.25771108 -0.34071913 1.1010001
0.2596415 -0.34071913 1.1010001
0.26062161 -0.33948126 1.097
0.25872099 -0.33318681 1.0890001
0.26063037 -0.33318681 1.0890001
0.26133433 -0.33165702 1.0840001
0.26274928 -0.33104512 1.082
0.26464638 -0.33104512 1.082
0.25967306 -0.3300606 1.085
0.2615754 -0.3300606 1.085
0.26177794 -0.3279312 1.0780001
0.26366803 -0.3279312 1.0780001
0.26555812 -0.3279312 1.0780001
0.26036999 -0.326646 1.08
0.26609024 -0.32210925 1.0650001
0.26795754 -0.32210925 1.0650001
0.26805136 -0.31628203 1.0580001
0.27016148 -0.31658098 1.059
0.27201825 -0.31658098 1.059
0.27961019 -0.29747668 1.0190001
0.28056839 -0.29660088 1.016
0.28245324 -0.29484931 1.01
0.28463176 -0.28463176 0.99900007
0.28638333 -0.28463176 0.99900007
0.29845679 -0.25978351 0.95900005
0.2995123 -0.25924173 0.95700002
0.30056077 -0.25869995 0.95500004
0.30243248 -0.25134033 0.94000006
0.30472758 -0.2518751 0.94200003
0.3047609 -0.24593306 0.93200004
0.30738124 -0.24672468 0.93500006
0.31851405 -0.21621756 0.88400006
0.32078812 -0.21670674 0.88600004
0.32234156 -0.21670674 0.88600004
0.32456568 -0.20351553 0.86300004
0.32570094 -0.20327972 0.86200005
0.32683274 -0.20304389 0.86100006
0.3294864 -0.20375136 0.86400002
0.33073828 -0.19311564 0.84400004
0.33143085 -0.19265802 0.84200007
0.3321164 -0.19220039 0.84000003
0.3335892 -0.19220039 0.84000003
0.3330676 -0.18959232 0.83500004
0.33453161 -0.18959232 0.83500004
0.33720282 -0.19027348 0.83800006
0.34446076 -0.16419528 0.79700005
0.34629211 -0.16440129 0.79800004
0.34769127 -0.16440129 0.79800004
0.34909043 -0.16440129 0.79800004
0.35080254 -0.1519009 0.77700001
0.3507973 -0.15072793 0.77100003
0.35351935 -0.15131442 0.77400005
0.35487643 -0.15131442 0.77400005
