# .PCD v0.7 - Point Cloud Data file format
VERSION 0.7
FIELDS x y z
SIZE 4 4 4
TYPE F F F
COUNT 1 1 1
WIDTH 517
HEIGHT 1
VIEWPOINT 0 0 0 1 0 0 0
POINTS 517
DATA ascii
-0.21238302 -0.2001693 0.77400005
-0.21102594 -0.2001693 0.77400005
-0.30795723 -0.19439381 0.76200002
-0.3062188 -0.19413871 0.76100004
-0.30488449 -0.19413871 0.76100004
-0.30315134 -0.1938836 0.76000005
-0.30181879 -0.1938836 0.76000005
-0.30048627 -0.1938836 0.76000005
-0.29836649 -0.19337338 0.75800002
-0.29664558 -0.19311827 0.75700003
-0.29531831 -0.19311827 0.75700003
-0.29321432 -0.19260804 0.75500005
-0.29189056 -0.19260804 0.75500005
-0.28979707 -0.19209783 0.75300002
-0.28771061 -0.19158761 0.75100005
-0.28486845 -0.19056717 0.74700004
-0.2835587 -0.19056717 0.74700004
-0.28149328 -0.19005695 0.74500006
-0.28018704 -0.19005695 0.74500006
-0.2788808 -0.19005695 0.74500006
-0.27720201 -0.18980184 0.74400002
-0.27663916 -0.19031206 0.74600005
-0.27680749 -0.1913325 0.75000006
-0.27549249 -0.1913325 0.75000006
-0.27417749 -0.1913325 0.75000006
-0.27286249 -0.1913325 0.75000006
-0.2715475 -0.1913325 0.75000006
-0.2702325 -0.1913325 0.75000006
-0.2689175 -0.1913325 0.75000006
-0.2676025 -0.1913325 0.75000006
-0.26628751 -0.1913325 0.75000006
-0.26426589 -0.19082227 0.74800003
-0.26365751 -0.1913325 0.75000006
-0.26234251 -0.1913325 0.75000006
-0.26067945 -0.19107738 0.74900001
-0.25832736 -0.19031206 0.74600005
-0.25805297 -0.19107738 0.74900001
-0.25776806 -0.19184272 0.75200003
-0.25644955 -0.19184272 0.75200003
-0.25547031 -0.19209783 0.75300002
-0.25482509 -0.19260804 0.75500005
-0.25350133 -0.19260804 0.75500005
-0.25284556 -0.19311827 0.75700003
-0.25185055 -0.19337338 0.75800002
-0.25052151 -0.19337338 0.75800002
-0.30755308 -0.19013585 0.76100004
-0.3062188 -0.19013585 0.76100004
-0.26102749 -0.1873875 0.75000006
-0.25971249 -0.1873875 0.75000006
-0.25839749 -0.1873875 0.75000006
-0.25776806 -0.18788719 0.75200003
-0.25644955 -0.18788719 0.75200003
-0.25513104 -0.18788719 0.75200003
-0.25381252 -0.18788719 0.75200003
-0.25350133 -0.18863675 0.75500005
-0.25251156 -0.1888866 0.75600004
-0.25085378 -0.18863675 0.75500005
-0.25019103 -0.18913645 0.75700003
-0.24952126 -0.18963616 0.75900006
-0.24786347 -0.18938629 0.75800002
-0.2462092 -0.18913645 0.75700003
-0.24488193 -0.18913645 0.75700003
-0.2438764 -0.18938629 0.75800002
-0.24286735 -0.18963616 0.75900006
-0.24153657 -0.18963616 0.75900006
-0.23957284 -0.18913645 0.75700003
-0.23824556 -0.18913645 0.75700003
-0.23817016 -0.19013585 0.76100004
-0.23683588 -0.19013585 0.76100004
-0.2355016 -0.19013585 0.76100004
-0.23355189 -0.18963616 0.75900006
-0.23252706 -0.189886 0.76000005
-0.23119453 -0.189886 0.76000005
-0.229862 -0.189886 0.76000005
-0.22883016 -0.19013585 0.76100004
-0.22749588 -0.19013585 0.76100004
-0.22616158 -0.19013585 0.76100004
-0.22541818 -0.19063555 0.76300001
-0.22437407 -0.19088539 0.76400006
-0.2239103 -0.19163495 0.76700002
-0.2225655 -0.19163495 0.76700002
-0.22179754 -0.19213465 0.76900005
-0.22044922 -0.19213465 0.76900005
-0.21938583 -0.1923845 0.77000004
-0.21831892 -0.19263434 0.77100003
-0.21696711 -0.19263434 0.77100003
-0.21561529 -0.19263434 0.77100003
-0.21454138 -0.19288419 0.77200001
-0.2137401 -0.1933839 0.77400005
-0.21293181 -0.1938836 0.77600002
-0.21129858 -0.19363375 0.77500004
-0.20939797 -0.19313405 0.77300006
-0.23522544 -0.2183689 0.87400001
-0.23396042 -0.21861875 0.87500006
-0.23295751 -0.21911845 0.87700003
-0.23115596 -0.2188686 0.87600005
-0.28206751 -0.1847575 0.75000006
-0.2788808 -0.18352579 0.74500006
-0.27757457 -0.18352579 0.74500006
-0.27626836 -0.18352579 0.74500006
-0.27606934 -0.18426481 0.74800003
-0.27475786 -0.18426481 0.74800003
-0.27417749 -0.1847575 0.75000006
-0.27249867 -0.18451115 0.74900001
-0.2715475 -0.1847575 0.75000006
-0.2702325 -0.1847575 0.75000006
-0.2689175 -0.1847575 0.75000006
-0.2676025 -0.1847575 0.75000006
-0.26664254 -0.18500385 0.75100005
-0.2646192 -0.18451115 0.74900001
-0.26330596 -0.18451115 0.74900001
-0.26234251 -0.1847575 0.75000006
-0.26137555 -0.18500385 0.75100005
-0.26005879 -0.18500385 0.75100005
-0.25874203 -0.18500385 0.75100005
-0.25811082 -0.18549652 0.75300002
-0.25644955 -0.18525019 0.75200003
-0.25513104 -0.18525019 0.75200003
-0.25381252 -0.18525019 0.75200003
-0.25316554 -0.18574287 0.75400001
-0.25217754 -0.18598922 0.75500005
-0.25052151 -0.18574287 0.75400001
-0.25019103 -0.18648191 0.75700003
-0.24886374 -0.18648191 0.75700003
-0.24688248 -0.18598922 0.75500005
-0.24555871 -0.18598922 0.75500005
-0.24455844 -0.18623556 0.75600004
-0.24323292 -0.18623556 0.75600004
-0.24254736 -0.18672824 0.75800002
-0.24121834 -0.18672824 0.75800002
-0.23925635 -0.18623556 0.75600004
-0.30142167 -0.18431303 0.75900006
-0.30009088 -0.18431303 0.75900006
-0.29836649 -0.18407018 0.75800002
-0.29703745 -0.18407018 0.75800002
-0.29570842 -0.18407018 0.75800002
-0.29399103 -0.18382736 0.75700003
-0.29266378 -0.18382736 0.75700003
-0.29133651 -0.18382736 0.75700003
-0.29039234 -0.18407018 0.75800002
-0.2890633 -0.18407018 0.75800002
-0.28773427 -0.18407018 0.75800002
-0.28489387 -0.18309885 0.75400001
-0.28357187 -0.18309885 0.75400001
-0.28112683 -0.18237033 0.75100005
-0.28018266 -0.18261318 0.75200003
-0.27886415 -0.18261318 0.75200003
-0.27754566 -0.18261318 0.75200003
-0.27585983 -0.18237033 0.75100005
-0.27490863 -0.18261318 0.75200003
-0.27431777 -0.18309885 0.75400001
-0.27335781 -0.18334168 0.75500005
-0.27131343 -0.18285601 0.75300002
-0.26927605 -0.18237033 0.75100005
-0.2679593 -0.18237033 0.75100005
-0.26664254 -0.18237033 0.75100005
-0.26567909 -0.18261318 0.75200003
-0.26436058 -0.18261318 0.75200003
-0.26304209 -0.18261318 0.75200003
-0.26207161 -0.18285601 0.75300002
-0.26075134 -0.18285601 0.75300002
-0.25943109 -0.18285601 0.75300002
-0.25879639 -0.18334168 0.75500005
-0.25713161 -0.18309885 0.75400001
-0.25580958 -0.18309885 0.75400001
-0.2551626 -0.18358453 0.75600004
-0.25383708 -0.18358453 0.75600004
-0.25284556 -0.18382736 0.75700003
-0.25118604 -0.18358453 0.75600004
-0.24986053 -0.18358453 0.75600004
-0.24820624 -0.18334168 0.75500005
-0.24688248 -0.18334168 0.75500005
-0.24555871 -0.18334168 0.75500005
-0.24455844 -0.18358453 0.75600004
-0.24323292 -0.18358453 0.75600004
-0.24222738 -0.18382736 0.75700003
-0.24090011 -0.18382736 0.75700003
-0.23957284 -0.18382736 0.75700003
-0.23824556 -0.18382736 0.75700003
-0.23691829 -0.18382736 0.75700003
-0.23652467 -0.18455586 0.76000005
-0.2355016 -0.1847987 0.76100004
-0.23447502 -0.18504153 0.76200002
-0.23252706 -0.18455586 0.76000005
-0.23149873 -0.1847987 0.76100004
-0.23016445 -0.1847987 0.76100004
-0.22883016 -0.1847987 0.76100004
-0.22749588 -0.1847987 0.76100004
-0.22616158 -0.1847987 0.76100004
-0.22600906 -0.18577005 0.76500005
-0.22466774 -0.18577005 0.76500005
-0.22361837 -0.18601288 0.76600003
-0.24355465 -0.1811728 0.75700003
-0.24254736 -0.18141215 0.75800002
-0.24090011 -0.1811728 0.75700003
-0.23957284 -0.1811728 0.75700003
-0.23824556 -0.1811728 0.75700003
-0.23691829 -0.1811728 0.75700003
-0.23652467 -0.1818908 0.76000005
-0.2345732 -0.18141215 0.75800002
-0.23355189 -0.18165147 0.75900006
-0.23191515 -0.18141215 0.75800002
-0.23089033 -0.18165147 0.75900006
-0.22955956 -0.18165147 0.75900006
-0.22822876 -0.18165147 0.75900006
-0.22749588 -0.18213013 0.76100004
-0.22616158 -0.18213013 0.76100004
-0.22571361 -0.18284813 0.76400006
-0.22466774 -0.18308745 0.76500005
-0.22420225 -0.18380544 0.76800001
-0.22343603 -0.18428411 0.77000004
-0.22208597 -0.18428411 0.77000004
-0.22044922 -0.18404476 0.76900005
-0.21938583 -0.18428411 0.77000004
-0.21831892 -0.18452343 0.77100003
-0.21640429 -0.18404476 0.76900005
-0.21505597 -0.18404476 0.76900005
-0.21342976 -0.18380544 0.76800001
-0.2126355 -0.18428411 0.77000004
-0.21155983 -0.18452343 0.77100003
-0.23883556 -0.20965308 0.87600005
-0.23729964 -0.20965308 0.87600005
-0.23630199 -0.21013173 0.87800002
-0.2358321 -0.21108906 0.88200003
-0.23737854 -0.20799617 0.88200003
-0.23502995 -0.20728871 0.87900007
-0.23322314 -0.20705289 0.87800002
-0.22878107 -0.20445883 0.86700004
-0.30593652 -0.17719099 0.75700003
-0.30460924 -0.17719099 0.75700003
-0.30248067 -0.17672285 0.75500005
-0.30115691 -0.17672285 0.75500005
-0.29983315 -0.17672285 0.75500005
-0.29850939 -0.17672285 0.75500005
-0.29836649 -0.17742506 0.75800002
-0.29703745 -0.17742506 0.75800002
-0.29570842 -0.17742506 0.75800002
-0.29321432 -0.17672285 0.75500005
-0.29150394 -0.17648877 0.75400001
-0.29095164 -0.17695692 0.75600004
-0.29039234 -0.17742506 0.75800002
-0.2890633 -0.17742506 0.75800002
-0.28849345 -0.17789319 0.76000005
-0.27815932 -0.17799489 0.77200001
-0.27680576 -0.17799489 0.77200001
-0.27509537 -0.17776433 0.77100003
-0.2733885 -0.17753376 0.77000004
-0.27239174 -0.17776433 0.77100003
-0.271743 -0.17822546 0.77300006
-0.26933831 -0.17753376 0.77000004
-0.26798823 -0.17753376 0.77000004
-0.26698446 -0.17776433 0.77100003
-0.26528808 -0.17753376 0.77000004
-0.26325247 -0.17707264 0.76800001
-0.26190591 -0.17707264 0.76800001
-0.25716665 -0.174767 0.75800002
-0.25583762 -0.174767 0.75800002
-0.25450861 -0.174767 0.75800002
-0.25284556 -0.17453644 0.75700003
-0.25118604 -0.17430589 0.75600004
-0.248869 -0.17361419 0.75300002
-0.24754874 -0.17361419 0.75300002
-0.24622849 -0.17361419 0.75300002
-0.24458298 -0.17338362 0.75200003
-0.24391146 -0.17384475 0.75400001
-0.24451986 -0.17522813 0.76000005
-0.2438273 -0.17568927 0.76200002
-0.24249126 -0.17568927 0.76200002
-0.24115522 -0.17568927 0.76200002
-0.23981918 -0.17568927 0.76200002
-0.28659549 -0.17142779 0.75500005
-0.30634063 -0.17077993 0.75800002
-0.30541402 -0.17100523 0.75900006
-0.30408323 -0.17100523 0.75900006
-0.30275244 -0.17100523 0.75900006
-0.30142167 -0.17100523 0.75900006
-0.30009088 -0.17100523 0.75900006
-0.29876012 -0.17100523 0.75900006
-0.29586184 -0.17010401 0.75500005
-0.29492819 -0.17032932 0.75600004
-0.29437941 -0.17077993 0.75800002
-0.29266378 -0.17055462 0.75700003
-0.29018193 -0.16987871 0.75400001
-0.2888599 -0.16987871 0.75400001
-0.28715655 -0.16965342 0.75300002
-0.28583628 -0.16965342 0.75300002
-0.2852717 -0.17010401 0.75500005
-0.28394794 -0.17010401 0.75500005
-0.28299853 -0.17032932 0.75600004
-0.28241816 -0.17077993 0.75800002
-0.28108913 -0.17077993 0.75800002
-0.28012919 -0.17100523 0.75900006
-0.27953306 -0.17145583 0.76100004
-0.27746764 -0.17100523 0.75900006
-0.27577302 -0.17077993 0.75800002
-0.27516812 -0.17123054 0.76000005
-0.27527684 -0.17213175 0.76400006
-0.27393728 -0.17213175 0.76400006
-0.27188414 -0.17168114 0.76200002
-0.27090314 -0.17190644 0.76300001
-0.26991865 -0.17213175 0.76400006
-0.26963374 -0.17280765 0.76700002
-0.26933831 -0.17348357 0.77000004
-0.2676402 -0.17325826 0.76900005
-0.26629189 -0.17325826 0.76900005
-0.26597714 -0.17393418 0.77200001
-0.26462358 -0.17393418 0.77200001
-0.26361105 -0.17415948 0.77300006
-0.26123789 -0.17348357 0.77000004
-0.25921279 -0.17303295 0.76800001
-0.25853777 -0.17348357 0.77000004
-0.2568537 -0.17325826 0.76900005
-0.25550538 -0.17325826 0.76900005
-0.25283504 -0.17235705 0.76500005
-0.25248 -0.17303295 0.76800001
-0.25113344 -0.17303295 0.76800001
-0.24913639 -0.17258236 0.76600003
-0.24844033 -0.17303295 0.76800001
-0.24645029 -0.17258236 0.76600003
-0.24542722 -0.17280765 0.76700002
-0.24344595 -0.17235705 0.76500005
-0.24178818 -0.17213175 0.76400006
-0.24076335 -0.17235705 0.76500005
-0.23910908 -0.17213175 0.76400006
-0.23776953 -0.17213175 0.76400006
-0.23642999 -0.17213175 0.76400006
-0.23509043 -0.17213175 0.76400006
-0.23375089 -0.17213175 0.76400006
-0.23180294 -0.17168114 0.76200002
-0.2304669 -0.17168114 0.76200002
-0.22943155 -0.17190644 0.76300001
-0.22899058 -0.17258236 0.76600003
-0.22764754 -0.17258236 0.76600003
-0.22630449 -0.17258236 0.76600003
-0.25820202 -0.16921332 0.76900005
-0.25718769 -0.16943337 0.77000004
-0.25583762 -0.16943337 0.77000004
-0.25448757 -0.16943337 0.77000004
-0.2531375 -0.16943337 0.77000004
-0.25178742 -0.16943337 0.77000004
-0.25043738 -0.16943337 0.77000004
-0.2490873 -0.16943337 0.77000004
-0.24709375 -0.16899328 0.76800001
-0.24574719 -0.16899328 0.76800001
-0.24408241 -0.16877323 0.76700002
-0.24273761 -0.16877323 0.76700002
-0.24076335 -0.16833314 0.76500005
-0.23879611 -0.16789307 0.76300001
-0.23808075 -0.16833314 0.76500005
-0.23673944 -0.16833314 0.76500005
-0.23478273 -0.16789307 0.76300001
-0.23375089 -0.16811311 0.76400006
-0.23241134 -0.16811311 0.76400006
-0.2310718 -0.16811311 0.76400006
-0.22943155 -0.16789307 0.76300001
-0.22809376 -0.16789307 0.76300001
-0.22764754 -0.16855319 0.76600003
-0.21183598 -0.16796057 0.78200006
-0.21046486 -0.16796057 0.78200006
-0.20882638 -0.16774578 0.78100002
-0.20798829 -0.16817535 0.78300005
-0.20661543 -0.16817535 0.78300005
-0.30755308 -0.16211583 0.76100004
-0.3062188 -0.16211583 0.76100004
-0.30488449 -0.16211583 0.76100004
-0.30315134 -0.1619028 0.76000005
-0.30142167 -0.16168977 0.75900006
-0.30048627 -0.1619028 0.76000005
-0.29915375 -0.1619028 0.76000005
-0.29703745 -0.16147675 0.75800002
-0.29570842 -0.16147675 0.75800002
-0.29399103 -0.1612637 0.75700003
-0.29266378 -0.1612637 0.75700003
-0.29056677 -0.16083765 0.75500005
-0.28924301 -0.16083765 0.75500005
-0.28791925 -0.16083765 0.75500005
-0.28621587 -0.16062462 0.75400001
-0.28489387 -0.16062462 0.75400001
-0.28357187 -0.16062462 0.75400001
-0.28150117 -0.16019855 0.75200003
-0.28055525 -0.1604116 0.75300002
-0.27923498 -0.1604116 0.75300002
-0.2782838 -0.16062462 0.75400001
-0.2769618 -0.16062462 0.75400001
-0.27563977 -0.16062462 0.75400001
-0.27431777 -0.16062462 0.75400001
-0.27299574 -0.16062462 0.75400001
-0.27203405 -0.16083765 0.75500005
-0.27106884 -0.16105068 0.75600004
-0.27045691 -0.16147675 0.75800002
-0.26806274 -0.16083765 0.75500005
-0.26744556 -0.1612637 0.75700003
-0.26611829 -0.1612637 0.75700003
-0.26514083 -0.16147675 0.75800002
-0.2638118 -0.16147675 0.75800002
-0.26213649 -0.1612637 0.75700003
-0.26080921 -0.1612637 0.75700003
-0.26016748 -0.16168977 0.75900006
-0.25883672 -0.16168977 0.75900006
-0.25784519 -0.1619028 0.76000005
-0.25651267 -0.1619028 0.76000005
-0.25585166 -0.16232885 0.76200002
-0.25451562 -0.16232885 0.76200002
-0.25351185 -0.1625419 0.76300001
-0.25283504 -0.16296795 0.76500005
-0.25149375 -0.16296795 0.76500005
-0.25080645 -0.163394 0.76700002
-0.25011212 -0.16382007 0.76900005
-0.24876381 -0.16382007 0.76900005
-0.24805897 -0.16424613 0.77100003
-0.24638717 -0.1640331 0.77000004
-0.24440064 -0.16360705 0.76800001
-0.24273761 -0.163394 0.76700002
-0.24107808 -0.16318098 0.76600003
-0.23942205 -0.16296795 0.76500005
-0.23776953 -0.16275492 0.76400006
-0.23642999 -0.16275492 0.76400006
-0.23509043 -0.16275492 0.76400006
-0.23436281 -0.16318098 0.76600003
-0.27071029 -0.15686634 0.75500005
-0.26974332 -0.15707412 0.75600004
-0.26877284 -0.15728189 0.75700003
-0.26779887 -0.15748966 0.75800002
-0.26646984 -0.15748966 0.75800002
-0.26549062 -0.15769742 0.75900006
-0.26450786 -0.15790521 0.76000005
-0.26317534 -0.15790521 0.76000005
-0.26184279 -0.15790521 0.76000005
-0.26051027 -0.15790521 0.76000005
-0.25985977 -0.15832074 0.76200002
-0.25852373 -0.15832074 0.76200002
-0.25617516 -0.15769742 0.75900006
-0.25484437 -0.15769742 0.75900006
-0.25351357 -0.15769742 0.75900006
-0.25351185 -0.15852851 0.76300001
-0.25217405 -0.15852851 0.76300001
-0.25083625 -0.15852851 0.76300001
-0.22430657 -0.15654023 0.77300006
-0.22352809 -0.15694524 0.77500004
-0.22245592 -0.15714777 0.77600002
-0.22081041 -0.15694524 0.77500004
-0.21888526 -0.15654023 0.77300006
-0.21724851 -0.15633772 0.77200001
-0.21645425 -0.15674274 0.77400005
-0.21620879 -0.15755278 0.77800006
-0.2159493 -0.15836282 0.78200006
-0.21430379 -0.15816031 0.78100002
-0.21347973 -0.15856533 0.78300005
-0.21373221 -0.15978038 0.78900003
-0.21154141 -0.15917286 0.78600001
-0.2101633 -0.15917286 0.78600001
-0.2090508 -0.15937537 0.78700006
-0.20899032 -0.16038792 0.79200006
-0.3160401 -0.15699171 0.78200006
-0.31466898 -0.15699171 0.78200006
-0.3136985 -0.15719247 0.78300005
-0.31192675 -0.15699171 0.78200006
-0.31055567 -0.15699171 0.78200006
-0.30957994 -0.15719247 0.78300005
-0.30899432 -0.15759398 0.78500003
-0.30722609 -0.15739323 0.78400004
-0.30663168 -0.15779474 0.78600001
-0.30447686 -0.15739323 0.78400004
-0.30426207 -0.15799549 0.78700006
-0.30288219 -0.15799549 0.78700006
-0.30111921 -0.15779474 0.78600001
-0.30012244 -0.15799549 0.78700006
-0.29760379 -0.15739323 0.78400004
-0.29622918 -0.15739323 0.78400004
-0.29560673 -0.15779474 0.78600001
-0.29347995 -0.15739323 0.78400004
-0.29098758 -0.15679096 0.78100002
-0.28998905 -0.15699171 0.78200006
-0.28898704 -0.15719247 0.78300005
-0.25083625 -0.15050174 0.76300001
-0.25015244 -0.15089625 0.76500005
-0.24913639 -0.1510935 0.76600003
-0.24941079 -0.15207975 0.77100003
-0.24805897 -0.15207975 0.77100003
-0.24702713 -0.15227699 0.77200001
-0.24567355 -0.15227699 0.77200001
-0.24431999 -0.15227699 0.77200001
-0.24296641 -0.15227699 0.77200001
-0.24129987 -0.15207975 0.77100003
-0.23994805 -0.15207975 0.77100003
-0.23921515 -0.15247425 0.77300006
-0.23785983 -0.15247425 0.77300006
-0.23681046 -0.1526715 0.77400005
-0.2409869 -0.1478323 0.77000004
-0.23932561 -0.1476403 0.76900005
-0.23859623 -0.14802429 0.77100003
-0.23785983 -0.14840826 0.77300006
-0.23681046 -0.14860027 0.77400005
-0.23484497 -0.14821628 0.77200001
-0.23318894 -0.14802429 0.77100003
-0.23093504 -0.14744832 0.76800001
-0.22928953 -0.14725633 0.76700002
-0.22824192 -0.14744832 0.76800001
-0.22719079 -0.1476403 0.76900005
-0.2255488 -0.14744832 0.76800001
-0.22449417 -0.1476403 0.76900005
-0.22314586 -0.1476403 0.76900005
-0.22295123 -0.14840826 0.77300006
-0.22159591 -0.14840826 0.77300006
-0.22024058 -0.14840826 0.77300006
-0.21831892 -0.14802429 0.77100003
-0.21612288 -0.14744832 0.76800001
-0.21421701 -0.14706434 0.76600003
-0.21315186 -0.14725633 0.76700002
-0.21208321 -0.14744832 0.76800001
-0.21018785 -0.14706434 0.76600003
-0.2088448 -0.14706434 0.76600003
-0.20804352 -0.14744832 0.76800001
-0.20615868 -0.14706434 0.76600003
-0.2053504 -0.14744832 0.76800001
-0.20347258 -0.14706434 0.76600003
-0.20160177 -0.14668036 0.76400006
