# .PCD v0.7 - Point Cloud Data file format
VERSION 0.7
FIELDS x y z
SIZE 4 4 4
TYPE F F F
COUNT 1 1 1
WIDTH 1477
HEIGHT 1
VIEWPOINT 0 0 0 1 0 0 0
POINTS 1477
DATA ascii
-0.32615858 -0.42863739 1.1240001
-0.32418782 -0.42863739 1.1240001
-0.32221708 -0.42863739 1.1240001
-0.31910667 -0.42711198 1.12
-0.31714293 -0.42711198 1.12
-0.3151792 -0.42711198 1.12
-0.31321546 -0.42711198 1.12
-0.31125173 -0.42711198 1.12
-0.309288 -0.42711198 1.12
-0.30622667 -0.42558661 1.1160001
-0.30426997 -0.42558661 1.1160001
-0.30177146 -0.42482391 1.1140001
-0.29847255 -0.42291716 1.1090001
-0.29545859 -0.42139176 1.105
-0.29298988 -0.42062905 1.103
-0.29000047 -0.41910365 1.0990001
-0.28807354 -0.41910365 1.0990001
-0.28536552 -0.4179596 1.0960001
-0.28344387 -0.4179596 1.0960001
-0.28152221 -0.4179596 1.0960001
-0.27883524 -0.41681555 1.0930001
-0.27691883 -0.41681555 1.0930001
-0.27500245 -0.41681555 1.0930001
-0.27308604 -0.41681555 1.0930001
-0.27116966 -0.41681555 1.0930001
-0.26851425 -0.4156715 1.09
-0.2668477 -0.41605285 1.0910001
-0.26517764 -0.4164342 1.092
-0.26326299 -0.4164342 1.092
-0.26134837 -0.4164342 1.092
-0.25943372 -0.4164342 1.092
-0.25846237 -0.4179596 1.0960001
-0.25560445 -0.4164342 1.092
-0.2536898 -0.4164342 1.092
-0.25315854 -0.4187223 1.098
-0.25031814 -0.4171969 1.0940001
-0.24839999 -0.4171969 1.0940001
-0.24738306 -0.4187223 1.098
-0.24523436 -0.41834095 1.097
-0.24331094 -0.41834095 1.097
-0.24138753 -0.41834095 1.097
-0.23946413 -0.41834095 1.097
-0.23754072 -0.41834095 1.097
-0.23561731 -0.41834095 1.097
-0.23326784 -0.41757825 1.095
-0.23113666 -0.4171969 1.0940001
-0.22838043 -0.4156715 1.09
-0.22646929 -0.4156715 1.09
-0.22455816 -0.4156715 1.09
-0.22264703 -0.4156715 1.09
-0.22093841 -0.41605285 1.0910001
-0.21882476 -0.4156715 1.09
-0.21631663 -0.41452745 1.087
-0.21441075 -0.41452745 1.087
-0.21250488 -0.41452745 1.087
-0.21059901 -0.41452745 1.087
-0.20869313 -0.41452745 1.087
-0.20621654 -0.41338339 1.0840001
-0.20431593 -0.41338339 1.0840001
-0.20241532 -0.41338339 1.0840001
-0.2005147 -0.41338339 1.0840001
-0.19916376 -0.41452745 1.087
-0.19707642 -0.4141461 1.0860001
-0.19535202 -0.41452745 1.087
-0.19344614 -0.41452745 1.087
-0.19171648 -0.4149088 1.0880001
-0.1896344 -0.41452745 1.087
-0.18824664 -0.4156715 1.09
-0.1870193 -0.4171969 1.0940001
-0.18560874 -0.41834095 1.097
-0.18368533 -0.41834095 1.097
-0.18275607 -0.42062905 1.103
-0.18082215 -0.42062905 1.103
-0.17888822 -0.42062905 1.103
-0.17695428 -0.42062905 1.103
-0.17502037 -0.42062905 1.103
-0.32440522 -0.82524139 2.164
-0.318685 -0.82028383 2.151
-0.31491357 -0.82028383 2.151
-0.31128681 -0.82066518 2.1520002
-0.30565596 -0.81570762 2.1390002
-0.3019056 -0.81570762 2.1390002
-0.29815522 -0.81570762 2.1390002
-0.29371664 -0.81380087 2.1340001
-0.28956738 -0.81265682 2.131
-0.28516039 -0.81075007 2.1260002
-0.28156516 -0.81113142 2.1270001
-0.27835831 -0.81265682 2.131
-0.2744931 -0.81227547 2.1300001
-0.27050427 -0.81151277 2.128
-0.26664782 -0.81113142 2.1270001
-0.26291847 -0.81113142 2.1270001
-0.26052955 -0.81532627 2.138
-0.25678092 -0.81532627 2.138
-0.25291395 -0.81494492 2.1370001
-0.24893388 -0.81418222 2.135
-0.24369755 -0.80922467 2.1220002
-0.24009007 -0.80960602 2.1230001
-0.23503171 -0.80502987 2.1110001
-0.22990583 -0.80007231 2.098
-0.22622734 -0.80007231 2.098
-0.39379779 -0.44754446 1.179
-0.39040157 -0.44602609 1.1750001
-0.38635838 -0.4437485 1.169
-0.38398001 -0.44336891 1.1680001
-0.38029712 -0.44147092 1.1630001
-0.37825799 -0.44147092 1.1630001
-0.3752484 -0.44033214 1.1600001
-0.37192759 -0.43881375 1.156
-0.36990073 -0.43881375 1.156
-0.36787388 -0.43881375 1.156
-0.36584702 -0.43881375 1.156
-0.36256129 -0.43729535 1.1520001
-0.36116737 -0.43805456 1.154
-0.35914403 -0.43805456 1.154
-0.35650176 -0.43729535 1.1520001
-0.35325107 -0.43577698 1.148
-0.3515442 -0.43615657 1.149
-0.34861702 -0.43501776 1.146
-0.34479299 -0.43274021 1.1400001
-0.34309489 -0.4331198 1.141
-0.34109434 -0.4331198 1.141
-0.33760783 -0.43122181 1.136
-0.33502519 -0.43046263 1.1340001
-0.3330369 -0.43046263 1.1340001
-0.33017284 -0.42932382 1.131
-0.32818982 -0.42932382 1.131
-0.3250531 -0.42780545 1.1270001
-0.32221708 -0.42666665 1.1240001
-0.32024634 -0.42666665 1.1240001
-0.31827557 -0.42666665 1.1240001
-0.3151792 -0.42514828 1.12
-0.31321546 -0.42514828 1.12
-0.31125173 -0.42514828 1.12
-0.309288 -0.42514828 1.12
-0.30622667 -0.42362988 1.1160001
-0.30426997 -0.42362988 1.1160001
-0.30150056 -0.42249107 1.113
-0.29847255 -0.4209727 1.1090001
-0.29572597 -0.4198339 1.1060001
-0.29298988 -0.41869512 1.103
-0.29000047 -0.41717672 1.0990001
-0.28728718 -0.41603795 1.0960001
-0.28536552 -0.41603795 1.0960001
-0.2824094 -0.41451955 1.092
-0.28049475 -0.41451955 1.092
-0.27883524 -0.41489914 1.0930001
-0.27691883 -0.41489914 1.0930001
-0.27424765 -0.41376036 1.09
-0.27233651 -0.41376036 1.09
-0.26992917 -0.41300118 1.0880001
-0.26777521 -0.41262159 1.087
-0.26611391 -0.41300118 1.0880001
-0.26444912 -0.41338077 1.0890001
-0.26326299 -0.41451955 1.092
-0.26134837 -0.41451955 1.092
-0.25943372 -0.41451955 1.092
-0.25751907 -0.41451955 1.092
-0.25560445 -0.41451955 1.092
-0.2536898 -0.41451955 1.092
-0.25292799 -0.41641754 1.097
-0.25123337 -0.41679713 1.098
-0.24930821 -0.41679713 1.098
-0.24738306 -0.41679713 1.098
-0.24523436 -0.41641754 1.097
-0.24353273 -0.41679713 1.098
-0.24160758 -0.41679713 1.098
-0.23990071 -0.41717672 1.0990001
-0.23797379 -0.41717672 1.0990001
-0.23561731 -0.41641754 1.097
-0.23348089 -0.41603795 1.0960001
-0.23155923 -0.41603795 1.0960001
-0.22921853 -0.41527876 1.0940001
-0.22730038 -0.41527876 1.0940001
-0.22538224 -0.41527876 1.0940001
-0.22264703 -0.41376036 1.09
-0.22073589 -0.41376036 1.09
-0.21882476 -0.41376036 1.09
-0.21691363 -0.41376036 1.09
-0.21441075 -0.41262159 1.087
-0.21250488 -0.41262159 1.087
-0.21059901 -0.41262159 1.087
-0.20869313 -0.41262159 1.087
-0.20678726 -0.41262159 1.087
-0.20431593 -0.41148278 1.0840001
-0.20241532 -0.41148278 1.0840001
-0.2005147 -0.41148278 1.0840001
-0.19916376 -0.41262159 1.087
-0.19725789 -0.41262159 1.087
-0.19535202 -0.41262159 1.087
-0.19344614 -0.41262159 1.087
-0.19118784 -0.41186237 1.085
-0.18980885 -0.41300118 1.0880001
-0.18824664 -0.41376036 1.09
-0.1870193 -0.41527876 1.0940001
-0.18560874 -0.41641754 1.097
-0.18368533 -0.41641754 1.097
-0.18275607 -0.41869512 1.103
-0.18082215 -0.41869512 1.103
-0.17888822 -0.41869512 1.103
-0.17695428 -0.41869512 1.103
-0.17438565 -0.41717672 1.0990001
-0.17245874 -0.41717672 1.0990001
-0.28130043 -0.80664289 2.125
-0.27757457 -0.80664289 2.125
-0.27025002 -0.80702251 2.1260002
-0.26652244 -0.80702251 2.1260002
-0.26279485 -0.80702251 2.1260002
-0.26040769 -0.81119806 2.1370001
-0.25666082 -0.81119806 2.1370001
-0.25279561 -0.81081849 2.1360002
-0.24916707 -0.81119806 2.1370001
-0.2438124 -0.80588371 2.1230001
-0.24009007 -0.80588371 2.1230001
-0.23647907 -0.80626333 2.1240001
-0.23264542 -0.80588371 2.1230001
-0.0294034 -0.32645312 0.86000001
-0.027927971 -0.32683274 0.86100006
-0.026356984 -0.32607353 0.85900003
-0.02479301 -0.32531434 0.85700005
-0.023317579 -0.32569394 0.85800004
-0.021787796 -0.32531434 0.85700005
-0.02030886 -0.32569394 0.85800004
-0.0188045 -0.32569394 0.85800004
-0.01730014 -0.32569394 0.85800004
-0.0058701602 -0.84725976 2.2320001
-0.32024634 -0.42469591 1.1240001
-0.31827557 -0.42469591 1.1240001
-0.31658626 -0.42507374 1.125
-0.31321546 -0.42318454 1.12
-0.31125173 -0.42318454 1.12
-0.309288 -0.42318454 1.12
-0.30732426 -0.42318454 1.12
-0.30426997 -0.42167315 1.1160001
-0.30231324 -0.42167315 1.1160001
-0.2995491 -0.42053962 1.113
-0.2965281 -0.41902825 1.1090001
-0.29298988 -0.41676119 1.103
-0.29000047 -0.41524982 1.0990001
-0.28728718 -0.41411629 1.0960001
-0.28536552 -0.41411629 1.0960001
-0.2824094 -0.41260493 1.092
-0.28075162 -0.41298276 1.0930001
-0.27832502 -0.41222706 1.0910001
-0.27641213 -0.41222706 1.0910001
-0.27424765 -0.41184923 1.09
-0.27158695 -0.4107157 1.087
-0.26893678 -0.40958217 1.0840001
-0.26703617 -0.40958217 1.0840001
-0.26513556 -0.40958217 1.0840001
-0.26444912 -0.4114714 1.0890001
-0.26278085 -0.41184923 1.09
-0.26182702 -0.4133606 1.0940001
-0.2596713 -0.41298276 1.0930001
-0.25751907 -0.41260493 1.092
-0.25560445 -0.41260493 1.092
-0.2536898 -0.41260493 1.092
-0.25223628 -0.4133606 1.0940001
-0.25123337 -0.41487199 1.098
-0.24930821 -0.41487199 1.098
-0.24715775 -0.41449413 1.097
-0.24523436 -0.41449413 1.097
-0.24353273 -0.41487199 1.098
-0.24160758 -0.41487199 1.098
-0.23990071 -0.41524982 1.0990001
-0.23775727 -0.41487199 1.098
-0.23540252 -0.41411629 1.0960001
-0.23348089 -0.41411629 1.0960001
-0.23155923 -0.41411629 1.0960001
-0.22921853 -0.4133606 1.0940001
-0.22730038 -0.4133606 1.0940001
-0.22538224 -0.4133606 1.0940001
-0.22264703 -0.41184923 1.09
-0.22073589 -0.41184923 1.09
-0.21902552 -0.41222706 1.0910001
-0.21711263 -0.41222706 1.0910001
-0.21519975 -0.41222706 1.0910001
-0.21309136 -0.41184923 1.09
-0.21118023 -0.41184923 1.09
-0.20926909 -0.41184923 1.09
-0.20678726 -0.4107157 1.087
-0.20488138 -0.4107157 1.087
-0.20297551 -0.4107157 1.087
-0.20088466 -0.41033787 1.0860001
-0.19898054 -0.41033787 1.0860001
-0.19725789 -0.4107157 1.087
-0.19535202 -0.4107157 1.087
-0.19344614 -0.4107157 1.087
-0.19136406 -0.41033787 1.0860001
-0.1896344 -0.4107157 1.087
-0.18772852 -0.4107157 1.087
-0.1863355 -0.41184923 1.09
-0.18510115 -0.4133606 1.0940001
-0.18368533 -0.41449413 1.097
-0.18275607 -0.41676119 1.103
-0.18082215 -0.41676119 1.103
-0.17888822 -0.41676119 1.103
-0.17695428 -0.41676119 1.103
-0.17438565 -0.41524982 1.0990001
-0.17245874 -0.41524982 1.0990001
-0.17053182 -0.41524982 1.0990001
-0.31056353 -0.81122965 2.1470001
-0.30651334 -0.81047392 2.1450002
-0.3009176 -0.80556196 2.1320002
-0.29662192 -0.80405062 2.128
-0.29220265 -0.8021614 2.1230001
-0.28875208 -0.80291706 2.125
-0.28502625 -0.80291706 2.125
-0.28130043 -0.80291706 2.125
-0.27757457 -0.80291706 2.125
-0.27384874 -0.80291706 2.125
-0.27012292 -0.80291706 2.125
-0.26639709 -0.80291706 2.125
-0.26267126 -0.80291706 2.125
-0.26040769 -0.80745119 2.1370001
-0.25654072 -0.80707335 2.1360002
-0.25279561 -0.80707335 2.1360002
-0.0294034 -0.32494527 0.86000001
-0.027927971 -0.3253231 0.86100006
-0.026356984 -0.32456741 0.85900003
-0.02470622 -0.32267821 0.85400003
-0.023263227 -0.32343391 0.85600007
-0.021787796 -0.32381174 0.85700005
-0.02030886 -0.32418957 0.85800004
-0.0188045 -0.32418957 0.85800004
-0.01730014 -0.32418957 0.85800004
-0.0058701602 -0.8433463 2.2320001
-0.39279577 -0.44228184 1.176
-0.39073384 -0.44228184 1.176
-0.38635838 -0.43964919 1.169
-0.38430876 -0.43964919 1.169
-0.38095111 -0.43814483 1.1650001
-0.37825799 -0.43739268 1.1630001
-0.37621886 -0.43739268 1.1630001
-0.37321454 -0.4362644 1.1600001
-0.36990073 -0.43476003 1.156
-0.36787388 -0.43476003 1.156
-0.36616349 -0.43513614 1.1570001
-0.36413491 -0.43513614 1.1570001
-0.36085442 -0.43363178 1.153
-0.35883281 -0.43363178 1.153
-0.35588282 -0.43250349 1.1500001
-0.35386649 -0.43250349 1.1500001
-0.35185015 -0.43250349 1.1500001
-0.34983382 -0.43250349 1.1500001
-0.34570035 -0.42987087 1.143
-0.34429768 -0.43062305 1.1450001
-0.3422901 -0.43062305 1.1450001
-0.3384994 -0.42836651 1.1390001
-0.33650237 -0.42836651 1.1390001
-0.33421162 -0.42799041 1.138
-0.33134055 -0.42686215 1.1350001
-0.3293505 -0.42686215 1.1350001
-0.32620677 -0.42535779 1.131
-0.32307708 -0.42385343 1.1270001
-0.32024634 -0.42272517 1.1240001
-0.31827557 -0.42272517 1.1240001
-0.31630483 -0.42272517 1.1240001
-0.31433409 -0.42272517 1.1240001
-0.31236336 -0.42272517 1.1240001
-0.309288 -0.42122081 1.12
-0.30732426 -0.42122081 1.12
-0.30536053 -0.42122081 1.12
-0.30339679 -0.42122081 1.12
-0.30035651 -0.41971645 1.1160001
-0.2965281 -0.4170838 1.1090001
-0.29378676 -0.41595554 1.1060001
-0.29000047 -0.4133229 1.0990001
-0.28728718 -0.41219464 1.0960001
-0.28536552 -0.41219464 1.0960001
-0.2824094 -0.41069028 1.092
-0.28100848 -0.41144246 1.0940001
-0.27806988 -0.4099381 1.09
-0.27615875 -0.4099381 1.09
-0.27374443 -0.40918592 1.0880001
-0.2708374 -0.40768155 1.0840001
-0.26893678 -0.40768155 1.0840001
-0.26703617 -0.40768155 1.0840001
-0.26538014 -0.40805766 1.085
-0.26444912 -0.40956202 1.0890001
-0.26278085 -0.4099381 1.09
-0.26110902 -0.41031417 1.0910001
-0.2596713 -0.41106635 1.0930001
-0.25751907 -0.41069028 1.092
-0.25560445 -0.41069028 1.092
-0.2536898 -0.41069028 1.092
-0.25223628 -0.41144246 1.0940001
-0.25031814 -0.41144246 1.0940001
-0.24839999 -0.41144246 1.0940001
-0.24715775 -0.41257071 1.097
-0.2454579 -0.41294682 1.098
-0.24353273 -0.41294682 1.098
-0.24160758 -0.41294682 1.098
-0.23990071 -0.4133229 1.0990001
-0.23754072 -0.41257071 1.097
-0.23540252 -0.41219464 1.0960001
-0.23411997 -0.4133229 1.0990001
-0.23219305 -0.4133229 1.0990001
-0.22942805 -0.41181853 1.095
-0.22730038 -0.41144246 1.0940001
-0.22538224 -0.41144246 1.0940001
-0.22264703 -0.4099381 1.09
-0.22073589 -0.4099381 1.09
-0.21842325 -0.40918592 1.0880001
-0.21651563 -0.40918592 1.0880001
-0.214608 -0.40918592 1.0880001
-0.21309136 -0.4099381 1.09
-0.21118023 -0.4099381 1.09
-0.20926909 -0.4099381 1.09
-0.17888822 -0.41482726 1.103
-0.17695428 -0.41482726 1.103
-0.17438565 -0.4133229 1.0990001
-0.17245874 -0.4133229 1.0990001
-0.17053182 -0.4133229 1.0990001
-0.30622756 -0.80596089 2.1430001
-0.30063531 -0.8010717 2.1300001
-0.29662192 -0.80031949 2.128
-0.29234028 -0.79881513 2.1240001
-0.28861621 -0.79881513 2.1240001
-0.28489211 -0.79881513 2.1240001
-0.28130043 -0.79919124 2.125
-0.27757457 -0.79919124 2.125
-0.2741065 -0.79994345 2.1270001
-0.27037716 -0.79994345 2.1270001
-0.26664782 -0.79994345 2.1270001
-0.26279485 -0.79956734 2.1260002
-0.26040769 -0.80370432 2.1370001
-0.39312977 -0.44059426 1.177
-0.39073384 -0.44021991 1.176
-0.38635838 -0.43759957 1.169
-0.38430876 -0.43759957 1.169
-0.3822591 -0.43759957 1.169
-0.37825799 -0.43535355 1.1630001
-0.030875323 -0.3215552 0.85900003
-0.029300829 -0.32080653 0.85700005
-0.02783066 -0.32118085 0.85800004
-0.026326301 -0.32118085 0.85800004
-0.02470622 -0.31968352 0.85400003
-0.023208873 -0.31968352 0.85400003
-0.021762373 -0.32043219 0.85600007
-0.02030886 -0.32118085 0.85800004
-0.0188045 -0.32118085 0.85800004
-0.017279977 -0.32080653 0.85700005
-0.0058701602 -0.83551943 2.2320001
-0.32138601 -0.42027399 1.128
-0.31940824 -0.42027399 1.128
-0.31658626 -0.41915625 1.125
-0.31433409 -0.41878366 1.1240001
-0.31236336 -0.41878366 1.1240001
-0.31039259 -0.41878366 1.1240001
-0.30732426 -0.41729334 1.12
-0.30536053 -0.41729334 1.12
-0.30231324 -0.41580299 1.1160001
-0.2995491 -0.41468525 1.113
-0.2965281 -0.41319492 1.1090001
-0.29378676 -0.41207716 1.1060001
-0.29105595 -0.41095942 1.103
-0.28807354 -0.40946907 1.0990001
-0.28536552 -0.40835133 1.0960001
-0.2824094 -0.40686101 1.092
-0.28075162 -0.40723357 1.0930001
-0.27806988 -0.40611583 1.09
-0.27565205 -0.40537065 1.0880001
-0.27324122 -0.40462551 1.0860001
-0.27158695 -0.40499809 1.087
-0.2684406 -0.40313515 1.082
-0.26678982 -0.40350774 1.0830001
-0.26489097 -0.40350774 1.0830001
-0.26420629 -0.40537065 1.0880001
-0.26229867 -0.40537065 1.0880001
-0.26039103 -0.40537065 1.0880001
-0.25848341 -0.40537065 1.0880001
-0.25610414 -0.40462551 1.0860001
-0.25513631 -0.40611583 1.09
-0.25322518 -0.40611583 1.09
-0.25200573 -0.40723357 1.0930001
-0.25008932 -0.40723357 1.0930001
-0.24749176 -0.40611583 1.09
-0.24648185 -0.40760615 1.0940001
-0.24501079 -0.40835133 1.0960001
-0.24331094 -0.40872392 1.097
-0.24226771 -0.41021425 1.1010001
-0.24033728 -0.41021425 1.1010001
-0.24663526 -0.4243724 1.1390001
-0.24163125 -0.41915625 1.125
-0.23710239 -0.41468525 1.113
-0.23409455 -0.41282234 1.108
-0.23068519 -0.41021425 1.1010001
-0.22875477 -0.41021425 1.1010001
-0.22600028 -0.40872392 1.097
-0.22264703 -0.40611583 1.09
-0.22073589 -0.40611583 1.09
-0.2182225 -0.40499809 1.087
-0.21631663 -0.40499809 1.087
-0.21500249 -0.40611583 1.09
-0.22521216 -0.429216 1.1520001
-0.2119552 -0.40760615 1.0940001
-0.20926909 -0.40611583 1.09
-0.20659702 -0.40462551 1.0860001
-0.20488138 -0.40499809 1.087
-0.20297551 -0.40499809 1.087
-0.20032974 -0.40350774 1.0830001
-0.19843087 -0.40350774 1.0830001
-0.19671348 -0.40388033 1.0840001
-0.19481286 -0.40388033 1.0840001
-0.19291225 -0.40388033 1.0840001
-0.19101164 -0.40388033 1.0840001
-0.18911102 -0.40388033 1.0840001
-0.18721041 -0.40388033 1.0840001
-0.18582265 -0.40499809 1.087
-0.18442437 -0.40611583 1.09
-0.183183 -0.40760615 1.0940001
-0.18192762 -0.40909651 1.098
-0.18082215 -0.41095942 1.103
-0.17888822 -0.41095942 1.103
-0.17695428 -0.41095942 1.103
-0.17438565 -0.40946907 1.0990001
-0.17245874 -0.40946907 1.0990001
-0.17037666 -0.40909651 1.098
-0.16906516 -0.41058683 1.102
-0.16728465 -0.41095942 1.103
-0.25834227 -0.80142677 2.151
-0.2544525 -0.80105418 2.1500001
-0.24916707 -0.79621059 2.1370001
-0.24519052 -0.79546541 2.135
-0.24167334 -0.79621059 2.1370001
-0.23792645 -0.79621059 2.1370001
-0.23560417 -0.80105418 2.1500001
-0.2318345 -0.80105418 2.1500001
-0.030911267 -0.31891379 0.86000001
-0.0294034 -0.31891379 0.86000001
-0.027895533 -0.31891379 0.86000001
-0.026356984 -0.31854296 0.85900003
-0.02476408 -0.31743047 0.85600007
-0.023290403 -0.3178013 0.85700005
-0.021813219 -0.31817213 0.85800004
-0.02030886 -0.31817213 0.85800004
-0.018782584 -0.3178013 0.85700005
-0.017279977 -0.3178013 0.85700005
-0.01575896 -0.31743047 0.85600007
-0.014274763 -0.3178013 0.85700005
-0.0060752998 -0.51397038 1.386
-0.0036478101 -0.51434124 1.3870001
-0.38635838 -0.43145064 1.169
-0.38430876 -0.43145064 1.169
-0.3822591 -0.43145064 1.169
-0.37988421 -0.43108153 1.1680001
-0.3784833 -0.43181971 1.1700001
-0.37643191 -0.43181971 1.1700001
-0.3743805 -0.43181971 1.1700001
-0.37073794 -0.42997432 1.1650001
-0.36869532 -0.42997432 1.1650001
-0.3657085 -0.42886707 1.1620001
-0.36241925 -0.42739078 1.1580001
-0.3603889 -0.42739078 1.1580001
-0.3577396 -0.42665261 1.156
-0.3541742 -0.42480725 1.151
-0.35215613 -0.42480725 1.151
-0.35165906 -0.42665261 1.156
-0.34811994 -0.42480725 1.151
-0.34670326 -0.42554539 1.153
-0.34468165 -0.42554539 1.153
-0.34236288 -0.42517632 1.1520001
-0.33827499 -0.42259279 1.1450001
-0.33479899 -0.4207474 1.1400001
-0.33280021 -0.4207474 1.1400001
-0.3308014 -0.4207474 1.1400001
-0.32764891 -0.41927108 1.136
-0.32565713 -0.41927108 1.136
-0.32281059 -0.41816387 1.133
-0.32082406 -0.41816387 1.133
-0.31883752 -0.41816387 1.133
-0.31657135 -0.41779479 1.1320001
-0.31458658 -0.41779479 1.1320001
-0.31039259 -0.41484216 1.1240001
-0.30842185 -0.41484216 1.1240001
-0.30536053 -0.41336587 1.12
-0.30339679 -0.41336587 1.12
-0.2995491 -0.41078234 1.113
-0.2965281 -0.40930602 1.1090001
-0.29458368 -0.40930602 1.1090001
-0.29105595 -0.40709156 1.103
-0.28807354 -0.40561524 1.0990001
-0.28536552 -0.40450802 1.0960001
-0.2824094 -0.40303171 1.092
-0.28075162 -0.40340081 1.0930001
-0.27832502 -0.40266263 1.0910001
-0.27641213 -0.40266263 1.0910001
-0.27399603 -0.40192449 1.0890001
-0.27058753 -0.39971003 1.0830001
-0.26868868 -0.39971003 1.0830001
-0.26703617 -0.4000791 1.0840001
-0.26513556 -0.4000791 1.0840001
-0.26299211 -0.39971003 1.0830001
-0.26133433 -0.4000791 1.0840001
-0.25919437 -0.39971003 1.0830001
-0.25729552 -0.39971003 1.0830001
-0.25539666 -0.39971003 1.0830001
-0.25420001 -0.40081725 1.0860001
-0.25229591 -0.40081725 1.0860001
-0.25131404 -0.40229356 1.09
-0.2494029 -0.40229356 1.09
-0.24703765 -0.40155542 1.0880001
-0.24513003 -0.40155542 1.0880001
-0.24344595 -0.40192449 1.0890001
-0.24175836 -0.40229356 1.09
-0.23768888 -0.42222372 1.1440001
-0.23650713 -0.4237 1.148
-0.2344943 -0.4237 1.148
-0.23248148 -0.4237 1.148
-0.23127168 -0.42517632 1.1520001
-0.22925183 -0.42517632 1.1520001
-0.22723199 -0.42517632 1.1520001
-0.22521216 -0.42517632 1.1520001
-0.22357981 -0.42591447 1.154
-0.22155645 -0.42591447 1.154
-0.21953312 -0.42591447 1.154
-0.20525835 -0.40192449 1.0890001
-0.20297551 -0.40118635 1.087
-0.2005147 -0.4000791 1.0840001
-0.19861409 -0.4000791 1.0840001
-0.19671348 -0.4000791 1.0840001
-0.17502037 -0.40515763 1.103
-0.17308643 -0.40515763 1.103
-0.1711525 -0.40515763 1.103
-0.16952541 -0.40589228 1.105
-0.16773964 -0.4062596 1.1060001
-0.16580045 -0.4062596 1.1060001
-0.16386127 -0.4062596 1.1060001
-0.28848031 -0.77982742 2.1230001
-0.28556275 -0.78203136 2.1290002
-0.28209469 -0.78276604 2.131
-0.27757457 -0.7805621 2.125
-0.27423537 -0.78166407 2.128
-0.27063137 -0.78203136 2.1290002
-0.26790145 -0.78496999 2.1370001
-0.26415455 -0.78496999 2.1370001
-0.26065141 -0.78570461 2.1390002
-0.25678092 -0.78533727 2.138
-0.25291395 -0.78496999 2.1370001
-0.24916707 -0.78496999 2.1370001
-0.24519052 -0.7842353 2.135
-0.23997697 -0.77946013 2.1220002
-0.23636775 -0.77982742 2.1230001
-0.23560417 -0.78974515 2.1500001
-0.032419134 -0.31589806 0.86000001
-0.030911267 -0.31589806 0.86000001
-0.0294034 -0.31589806 0.86000001
-0.027895533 -0.31589806 0.86000001
-0.026326301 -0.3151634 0.85800004
-0.02476408 -0.31442878 0.85600007
-0.023263227 -0.31442878 0.85600007
-0.021762373 -0.31442878 0.85600007
-0.020261521 -0.31442878 0.85600007
-0.018760666 -0.31442878 0.85600007
-0.017219486 -0.31369412 0.85400003
-0.015722141 -0.31369412 0.85400003
-0.38768041 -0.42881361 1.1730001
-0.38562375 -0.42881361 1.1730001
-0.36633795 -0.42552349 1.164
-0.36367112 -0.42479235 1.1620001
-0.3603889 -0.42333007 1.1580001
-0.3577396 -0.42259893 1.156
-0.35571277 -0.42259893 1.156
-0.35368592 -0.42259893 1.156
-0.35196325 -0.42296448 1.1570001
-0.3496322 -0.42259893 1.156
-0.34700394 -0.42186779 1.154
-0.34378484 -0.42040551 1.1500001
-0.34236288 -0.42113665 1.1520001
-0.34034303 -0.42113665 1.1520001
-0.33656108 -0.41894323 1.146
-0.33455178 -0.41894323 1.146
-0.33196211 -0.41821209 1.1440001
-0.32880259 -0.41674981 1.1400001
-0.3268038 -0.41674981 1.1400001
-0.32366532 -0.41528752 1.136
-0.32167354 -0.41528752 1.136
-0.31883752 -0.4141908 1.133
-0.31657135 -0.41382524 1.1320001
-0.31458658 -0.41382524 1.1320001
-0.3126018 -0.41382524 1.1320001
-0.30951944 -0.41236296 1.128
-0.30754167 -0.41236296 1.128
-0.30475125 -0.41126624 1.125
-0.30143306 -0.4094384 1.12
-0.29839981 -0.40797612 1.1160001
-0.34355164 -0.42057207 1.156
-0.34152478 -0.42057207 1.156
-0.33891055 -0.41984442 1.154
-0.3357195 -0.41838917 1.1500001
-0.33370316 -0.41838917 1.1500001
-0.33053315 -0.41693389 1.146
-0.24137087 -0.4191168 1.1520001
-0.2395588 -0.41948062 1.153
-0.23753722 -0.41948062 1.153
-0.23551562 -0.41948062 1.153
-0.23349403 -0.41948062 1.153
-0.23107092 -0.41875297 1.151
-0.22925183 -0.4191168 1.1520001
-0.22723199 -0.4191168 1.1520001
-0.22521216 -0.4191168 1.1520001
-0.22319232 -0.4191168 1.1520001
-0.22117248 -0.4191168 1.1520001
-0.1959876 -0.39292198 1.08
-0.194094 -0.39292198 1.08
-0.19220039 -0.39292198 1.08
-0.1903068 -0.39292198 1.08
-0.18234579 -0.39619634 1.0890001
-0.1804364 -0.39619634 1.0890001
-0.18016639 -0.39983451 1.0990001
-0.17823948 -0.39983451 1.0990001
-0.17695428 -0.40128979 1.103
-0.22925183 -0.41709694 1.1520001
-0.228021 -0.41854522 1.156
-0.1754964 -0.40044203 1.1060001
-0.17402798 -0.40152824 1.1090001
-0.17192836 -0.40116617 1.108
-0.16937199 -0.39971793 1.1040001
-0.16743632 -0.39971793 1.1040001
-0.16580045 -0.40044203 1.1060001
-0.16386127 -0.40044203 1.1060001
-0.16192208 -0.40044203 1.1060001
-0.23224829 -0.7552641 2.0860002
-0.03388755 -0.3095063 0.85900003
-0.032343742 -0.30914599 0.85800004
-0.030911267 -0.30986661 0.86000001
-0.0294034 -0.30986661 0.86000001
-0.027895533 -0.30986661 0.86000001
-0.026387667 -0.30986661 0.86000001
-0.0248798 -0.30986661 0.86000001
-0.023371933 -0.30986661 0.86000001
-0.022143723 -0.31383002 0.87100005
-0.020569229 -0.3131094 0.86900002
-0.019045584 -0.3131094 0.86900002
-0.017521936 -0.3131094 0.86900002
-0.015998289 -0.3131094 0.86900002
-0.39580184 -0.42488965 1.1850001
-0.39405641 -0.42524821 1.1860001
-0.39197695 -0.42524821 1.1860001
-0.3898975 -0.42524821 1.1860001
-0.38781804 -0.42524821 1.1860001
-0.38508812 -0.4245311 1.184
-0.38301215 -0.4245311 1.184
-0.38125795 -0.42488965 1.1850001
-0.37918025 -0.42488965 1.1850001
-0.37551141 -0.42309687 1.1800001
-0.37217656 -0.42166263 1.176
-0.36885574 -0.42022842 1.1720001
-0.3671138 -0.42058697 1.1730001
-0.36505714 -0.42058697 1.1730001
-0.36176264 -0.41915274 1.169
-0.35940528 -0.41879418 1.1680001
-0.35735738 -0.41879418 1.1680001
-0.35530949 -0.41879418 1.1680001
-0.3514469 -0.41664284 1.1620001
-0.34910882 -0.41628429 1.161
-0.34826899 -0.4177185 1.1650001
-0.34711793 -0.41879418 1.1680001
-0.34507003 -0.41879418 1.1680001
-0.34096634 -0.41628429 1.161
-0.33893073 -0.41628429 1.161
-0.33689511 -0.41628429 1.161
-0.33485949 -0.41628429 1.161
-0.33282387 -0.41628429 1.161
-0.32879382 -0.4137744 1.154
-0.32677048 -0.4137744 1.154
-0.32474715 -0.4137744 1.154
-0.32272381 -0.4137744 1.154
-0.32070044 -0.4137744 1.154
-0.3186771 -0.4137744 1.154
-0.31555617 -0.41234016 1.1500001
-0.31353983 -0.41234016 1.1500001
-0.3115235 -0.41234016 1.1500001
-0.30843061 -0.41090593 1.146
-0.30642131 -0.41090593 1.146
-0.30255258 -0.40839604 1.1390001
-0.30055553 -0.40839604 1.1390001
-0.29855847 -0.40839604 1.1390001
-0.28875032 -0.39763933 1.1090001
-0.28603002 -0.39656368 1.1060001
-0.28383398 -0.39620513 1.105
-0.28113121 -0.39512944 1.102
-0.27843899 -0.39405379 1.0990001
-0.27651206 -0.39405379 1.0990001
-0.27458516 -0.39405379 1.0990001
-0.27265823 -0.39405379 1.0990001
-0.2694996 -0.392261 1.0940001
-0.26758146 -0.392261 1.0940001
-0.26566333 -0.392261 1.0940001
-0.26374516 -0.392261 1.0940001
-0.26110902 -0.39118531 1.0910001
-0.25895858 -0.39082676 1.09
-0.18442437 -0.38891563 1.09
-0.18251324 -0.38891563 1.09
-0.18159623 -0.39105645 1.0960001
-0.17967458 -0.39105645 1.0960001
-0.17775293 -0.39105645 1.0960001
-0.17465568 -0.39712211 1.113
-0.17239387 -0.3964085 1.1110001
-0.17044592 -0.3964085 1.1110001
-0.16789131 -0.39498129 1.107
-0.16595037 -0.39498129 1.107
-0.16386127 -0.39462447 1.1060001
-0.16192208 -0.39462447 1.1060001
-0.1596936 -0.39391088 1.1040001
-0.03404535 -0.30792126 0.86300004
-0.032532223 -0.30792126 0.86300004
-0.031126926 -0.30899167 0.86600006
-0.02960854 -0.30899167 0.86600006
-0.028057717 -0.30863488 0.86500007
-0.026541084 -0.30863488 0.86500007
-0.025082311 -0.30934849 0.86700004
-0.023562171 -0.30934849 0.86700004
-0.0221183 -0.3104189 0.87000006
-0.020569229 -0.31006208 0.86900002
-0.019045584 -0.31006208 0.86900002
-0.017521936 -0.31006208 0.86900002
-0.024301199 -0.47098041 1.3200001
-0.022003457 -0.4713372 1.3210001
-0.019687302 -0.4713372 1.3210001
-0.0173843 -0.47169399 1.322
-0.01507779 -0.47205082 1.3230001
-0.01281599 -0.47419164 1.3290001
-0.01048581 -0.47419164 1.3290001
-0.00815563 -0.47419164 1.3290001
-0.0058210664 -0.47383481 1.3280001
-0.00350842 -0.47597563 1.3340001
-0.3843061 -0.42179939 1.1880001
-0.38190141 -0.42144436 1.187
-0.37982023 -0.42144436 1.187
-0.3764661 -0.42002416 1.1830001
-0.37344247 -0.41895899 1.1800001
-0.3694852 -0.41682869 1.174
-0.36680084 -0.41611859 1.1720001
-0.36412349 -0.41540849 1.1700001
-0.36269102 -0.41611859 1.1720001
-0.36063612 -0.41611859 1.1720001
-0.35735738 -0.41469839 1.1680001
-0.35530949 -0.41469839 1.1680001
-0.35326159 -0.41469839 1.1680001
-0.35121369 -0.41469839 1.1680001
-0.34856793 -0.41398829 1.166
-0.34711793 -0.41469839 1.1680001
-0.34507003 -0.41469839 1.1680001
-0.34214109 -0.41363326 1.1650001
-0.34009844 -0.41363326 1.1650001
-0.338346 -0.41398829 1.166
-0.33630159 -0.41398829 1.166
-0.33397055 -0.41363326 1.1650001
-0.33192793 -0.41363326 1.1650001
-0.32875264 -0.41221306 1.161
-0.32671702 -0.41221306 1.161
-0.3246814 -0.41221306 1.161
-0.32181206 -0.41114789 1.1580001
-0.31978169 -0.41114789 1.1580001
-0.31665376 -0.40972769 1.154
-0.31463042 -0.40972769 1.154
-0.31260705 -0.40972769 1.154
-0.31058371 -0.40972769 1.154
-0.30856037 -0.40972769 1.154
-0.30653703 -0.40972769 1.154
-0.30451366 -0.40972769 1.154
-0.30249032 -0.40972769 1.154
-0.30228958 -0.41221306 1.161
-0.30025396 -0.41221306 1.161
-0.29873204 -0.41292316 1.1630001
-0.29694805 -0.41327819 1.164
-0.27919903 -0.39126509 1.102
-0.27651206 -0.39019996 1.0990001
-0.27458516 -0.39019996 1.0990001
-0.27265823 -0.39019996 1.0990001
-0.27073133 -0.39019996 1.0990001
-0.2688044 -0.39019996 1.0990001
-0.2668775 -0.39019996 1.0990001
-0.26374516 -0.38842469 1.0940001
-0.26158768 -0.38806966 1.0930001
-0.25990888 -0.38842469 1.0940001
-0.25728324 -0.38735956 1.0910001
-0.25537038 -0.38735956 1.0910001
-0.25345749 -0.38735956 1.0910001
-0.25085291 -0.38629439 1.0880001
-0.24803004 -0.38487419 1.0840001
-0.24612942 -0.38487419 1.0840001
-0.24355291 -0.38380906 1.0810001
-0.24143399 -0.38345399 1.08
-0.2397622 -0.38380906 1.0810001
-0.23698667 -0.38238886 1.077
-0.23531662 -0.3827439 1.0780001
-0.23342653 -0.3827439 1.0780001
-0.23153643 -0.3827439 1.0780001
-0.22964634 -0.3827439 1.0780001
-0.22712241 -0.38167876 1.075
-0.22523758 -0.38167876 1.075
-0.22293721 -0.38096866 1.0730001
-0.22105588 -0.38096866 1.0730001
-0.21937881 -0.3813237 1.074
-0.2168882 -0.38025856 1.0710001
-0.21501039 -0.38025856 1.0710001
-0.21313258 -0.38025856 1.0710001
-0.19015777 -0.38700449 1.09
-0.18824664 -0.38700449 1.09
-0.1863355 -0.38700449 1.09
-0.18442437 -0.38700449 1.09
-0.18251324 -0.38700449 1.09
-0.18076779 -0.38735956 1.0910001
-0.17967458 -0.38913479 1.0960001
-0.17775293 -0.38913479 1.0960001
-0.17631257 -0.39019996 1.0990001
-0.17438565 -0.39019996 1.0990001
-0.17340028 -0.39233026 1.105
-0.17239387 -0.39446056 1.1110001
-0.17044592 -0.39446056 1.1110001
-0.16789131 -0.39304036 1.107
-0.16580045 -0.39268529 1.1060001
-0.16371311 -0.39233026 1.105
-0.39813992 -0.42112961 1.192
-0.39638221 -0.42148292 1.1930001
-0.39429048 -0.42148292 1.1930001
-0.39186999 -0.42112961 1.192
-0.38978001 -0.42112961 1.192
-0.38638908 -0.41971645 1.1880001
-0.3843061 -0.41971645 1.1880001
-0.38318837 -0.42077634 1.1910001
-0.37982023 -0.41936314 1.187
-0.37773901 -0.41936314 1.187
-0.37344247 -0.41689005 1.1800001
-0.37105882 -0.41653678 1.179
-0.36617491 -0.41335711 1.1700001
-0.36443472 -0.41371039 1.171
-0.36238155 -0.41371039 1.171
-0.36063612 -0.41406369 1.1720001
-0.35735738 -0.4126505 1.1680001
-0.35530949 -0.4126505 1.1680001
-0.35326159 -0.4126505 1.1680001
-0.35091302 -0.41229722 1.1670001
-0.34826899 -0.41159061 1.1650001
-0.34652352 -0.41194391 1.166
-0.34595633 -0.41371039 1.171
-0.34360951 -0.41335711 1.1700001
-0.3415581 -0.41335711 1.1700001
-0.33950669 -0.41335711 1.1700001
-0.33630159 -0.41194391 1.166
-0.33397055 -0.41159061 1.1650001
-0.33192793 -0.41159061 1.1650001
-0.32875264 -0.41017744 1.161
-0.32671702 -0.41017744 1.161
-0.3246814 -0.41017744 1.161
-0.32181206 -0.40911755 1.1580001
-0.31978169 -0.40911755 1.1580001
-0.31775135 -0.40911755 1.1580001
-0.31572098 -0.40911755 1.1580001
-0.31369063 -0.40911755 1.1580001
-0.31166026 -0.40911755 1.1580001
-0.30962989 -0.40911755 1.1580001
-0.30759954 -0.40911755 1.1580001
-0.30636081 -0.41017744 1.161
-0.30432519 -0.41017744 1.161
-0.30228958 -0.41017744 1.161
-0.30025396 -0.41017744 1.161
-0.29796147 -0.40982413 1.1600001
-0.29592758 -0.40982413 1.1600001
-0.27073133 -0.38827303 1.0990001
-0.2688044 -0.38827303 1.0990001
-0.2668775 -0.38827303 1.0990001
-0.26374516 -0.38650656 1.0940001
-0.26158768 -0.38615325 1.0930001
-0.25990888 -0.38650656 1.0940001
-0.25728324 -0.38544667 1.0910001
-0.25537038 -0.38544667 1.0910001
-0.25276053 -0.38438678 1.0880001
-0.25085291 -0.38438678 1.0880001
-0.24803004 -0.38297358 1.0840001
-0.24612942 -0.38297358 1.0840001
-0.24355291 -0.38191369 1.0810001
-0.24143399 -0.38156039 1.08
-0.2395404 -0.38156039 1.08
-0.23698667 -0.3805005 1.077
-0.23575319 -0.38156039 1.08
-0.23407614 -0.38191369 1.0810001
-0.23218079 -0.38191369 1.0810001
-0.23028544 -0.38191369 1.0810001
-0.22712241 -0.37979391 1.075
-0.39813992 -0.41903964 1.192
-0.39604995 -0.41903964 1.192
-0.39395997 -0.41903964 1.192
-0.39186999 -0.41903964 1.192
-0.39108801 -0.42044583 1.1960001
-0.38769004 -0.41903964 1.192
-0.38527659 -0.41868812 1.1910001
-0.38479704 -0.42044583 1.1960001
-0.38206011 -0.41974273 1.194
-0.3786937 -0.41833657 1.1900001
-0.37407541 -0.41552421 1.182
-0.37042937 -0.4137665 1.177
-0.36773974 -0.41306341 1.1750001
-0.36474594 -0.41200879 1.1720001
-0.36300048 -0.41236034 1.1730001
-0.36063612 -0.41200879 1.1720001
-0.35858122 -0.41200879 1.1720001
-0.35652632 -0.41200879 1.1720001
-0.35447139 -0.41200879 1.1720001
-0.35121369 -0.4106026 1.1680001
-0.34886688 -0.41025108 1.1670001
-0.3480095 -0.41165724 1.171
-0.34625179 -0.41200879 1.1720001
-0.34390318 -0.41165724 1.171
-0.34185004 -0.41165724 1.171
-0.33979687 -0.41165724 1.171
-0.33774373 -0.41165724 1.171
-0.33569056 -0.41165724 1.171
-0.3330676 -0.41095415 1.169
-0.32988527 -0.40954798 1.1650001
-0.32784265 -0.40954798 1.1650001
-0.32607967 -0.40989953 1.166
-0.32403529 -0.40989953 1.166
-0.32171476 -0.40954798 1.1650001
-0.31857452 -0.40814182 1.161
-0.3165389 -0.40814182 1.161
-0.31369063 -0.40708718 1.1580001
-0.31166026 -0.40708718 1.1580001
-0.30962989 -0.40708718 1.1580001
-0.30839643 -0.40814182 1.161
-0.30636081 -0.40814182 1.161
-0.30432519 -0.40814182 1.161
-0.30228958 -0.40814182 1.161
-0.30025396 -0.40814182 1.161
-0.29796147 -0.40779027 1.1600001
-0.29618272 -0.40814182 1.161
-0.25990888 -0.38458839 1.0940001
-0.25728324 -0.38353378 1.0910001
-0.25537038 -0.38353378 1.0910001
-0.25276053 -0.38247913 1.0880001
-0.25085291 -0.38247913 1.0880001
-0.24780123 -0.38072142 1.0830001
-0.24567531 -0.38036987 1.082
-0.2433276 -0.37966681 1.08
-0.24143399 -0.37966681 1.08
-0.2395404 -0.37966681 1.08
-0.23698667 -0.37861216 1.077
-0.23575319 -0.37966681 1.08
-0.2338596 -0.37966681 1.08
-0.23218079 -0.38001835 1.0810001
-0.22964634 -0.37896371 1.0780001
-0.22712241 -0.37790909 1.075
-0.22523758 -0.37790909 1.075
-0.22293721 -0.377206 1.0730001
-0.22105588 -0.377206 1.0730001
-0.21917455 -0.377206 1.0730001
-0.2166857 -0.37615135 1.0700001
-0.21501039 -0.3765029 1.0710001
-0.21372958 -0.37755755 1.074
-0.18824664 -0.38318223 1.09
-0.1863355 -0.38318223 1.09
-0.18442437 -0.38318223 1.09
-0.18251324 -0.38318223 1.09
-0.18093348 -0.38388532 1.092
-0.17934671 -0.38458839 1.0940001
-0.38737094 -0.42114717 1.2040001
-0.3858999 -0.42184675 1.2060001
-0.38123953 -0.41904843 1.1980001
-0.37534133 -0.41485095 1.1860001
-0.37042937 -0.41170284 1.177
-0.36773974 -0.41100326 1.1750001
-0.36474594 -0.40995389 1.1720001
-0.36300048 -0.41030368 1.1730001
-0.36094382 -0.41030368 1.1730001
-0.35888717 -0.41030368 1.1730001
-0.35683051 -0.41030368 1.1730001
-0.35447139 -0.40995389 1.1720001
-0.35271719 -0.41030368 1.1730001
-0.35036159 -0.40995389 1.1720001
-0.34860387 -0.41030368 1.1730001
-0.34684265 -0.41065347 1.174
-0.34390318 -0.40960407 1.171
-0.34185004 -0.40960407 1.171
-0.33979687 -0.40960407 1.171
-0.33774373 -0.40960407 1.171
-0.33569056 -0.40960407 1.171
-0.3330676 -0.40890449 1.169
-0.33101794 -0.40890449 1.169
-0.32896829 -0.40890449 1.169
-0.32607967 -0.40785512 1.166
-0.32403529 -0.40785512 1.166
-0.32171476 -0.40750533 1.1650001
-0.31967211 -0.40750533 1.1650001
-0.31762949 -0.40750533 1.1650001
-0.31450328 -0.40610617 1.161
-0.31246766 -0.40610617 1.161
-0.31043205 -0.40610617 1.161
-0.30839643 -0.40610617 1.161
-0.30741632 -0.40750533 1.1650001
-0.30537367 -0.40750533 1.1650001
-0.30333105 -0.40750533 1.1650001
-0.30025396 -0.40610617 1.161
-0.29873204 -0.40680575 1.1630001
-0.25728324 -0.38162088 1.0910001
-0.25537038 -0.38162088 1.0910001
-0.25345749 -0.38162088 1.0910001
-0.25085291 -0.38057151 1.0880001
-0.24894528 -0.38057151 1.0880001
-0.24590237 -0.37882257 1.0830001
-0.2433276 -0.3777732 1.08
-0.24143399 -0.3777732 1.08
-0.2395404 -0.3777732 1.08
-0.23698667 -0.37672383 1.077
-0.23575319 -0.3777732 1.08
-0.2338596 -0.3777732 1.08
-0.23218079 -0.37812299 1.0810001
-0.22964634 -0.37707362 1.0780001
-0.22712241 -0.37602425 1.075
-0.22523758 -0.37602425 1.075
-0.22293721 -0.37532467 1.0730001
-0.22146791 -0.37602425 1.075
-0.21958308 -0.37602425 1.075
-0.21709073 -0.37497488 1.072
-0.21521114 -0.37497488 1.072
-0.18442437 -0.38127109 1.09
-0.18251324 -0.38127109 1.09
-0.18159623 -0.38336983 1.0960001
-0.18016639 -0.3844192 1.0990001
-0.17823948 -0.3844192 1.0990001
-0.17583127 -0.38336983 1.0960001
-0.17375095 -0.38302004 1.095
-0.17183104 -0.38302004 1.095
-0.17053182 -0.3844192 1.0990001
-0.16998567 -0.38756731 1.108
-0.16864963 -0.38896647 1.1120001
-0.16669992 -0.38896647 1.1120001
-0.037544128 -0.30571645 0.87400001
-0.035929307 -0.30501688 0.87200004
-0.0344004 -0.30501688 0.87200004
-0.0327961 -0.3043173 0.87000006
-0.031198813 -0.30361772 0.86800003
-0.02967692 -0.30361772 0.86800003
-0.028155027 -0.30361772 0.86800003
-0.023507817 -0.30256835 0.86500007
-0.022092877 -0.30396751 0.86900002
-0.037544128 -0.30418405 0.87400001
-0.035929307 -0.30348796 0.87200004
-0.0344004 -0.30348796 0.87200004
-0.0327961 -0.30279189 0.87000006
-0.031198813 -0.30209583 0.86800003
-0.02967692 -0.30209583 0.86800003
-0.028155027 -0.30209583 0.86800003
-0.026602451 -0.3017478 0.86700004
-0.025024449 -0.30105171 0.86500007
-0.023507817 -0.30105171 0.86500007
-0.02052189 -0.3017478 0.86700004
-0.025627596 -0.44235459 1.271
-0.023399109 -0.44235459 1.271
-0.021220593 -0.44339871 1.274
-0.018986847 -0.44339871 1.274
-0.016818849 -0.4451389 1.279
-0.01442818 -0.4406144 1.266
-0.01220846 -0.4406144 1.266
-0.01005975 -0.44374675 1.2750001
-0.0077137901 -0.43748209 1.2570001
-0.0054879333 -0.4357419 1.2520001
-0.0032927599 -0.4357419 1.2520001
-0.40181401 -0.41657886 1.2030001
-0.39970475 -0.41657886 1.2030001
-0.39693451 -0.41588628 1.2010001
-0.41060874 -0.43250787 1.2490001
-0.40874583 -0.43285418 1.25
-0.4068794 -0.43320045 1.251
-0.39983365 -0.4280062 1.2360001
-0.39766651 -0.4280062 1.2360001
-0.39421946 -0.42662105 1.2320001
-0.39205936 -0.42662105 1.2320001
-0.37913904 -0.41484743 1.1980001
-0.37294716 -0.41034573 1.1850001
-0.36899161 -0.40826803 1.179
-0.36443472 -0.40549779 1.171
-0.36300048 -0.40619034 1.1730001
-0.36217466 -0.40757549 1.177
-0.360111 -0.40757549 1.177
-0.35568121 -0.40722919 1.176
-0.35271719 -0.40619034 1.1730001
-0.35066053 -0.40619034 1.1730001
-0.35008982 -0.40792176 1.1780001
-0.34831983 -0.40826803 1.179
-0.34449056 -0.40619034 1.1730001
-0.34214196 -0.40584406 1.1720001
-0.34095758 -0.40688291 1.1750001
-0.33889741 -0.40688291 1.1750001
-0.33597723 -0.40584406 1.1720001
-0.33449218 -0.40653664 1.174
-0.33101794 -0.40480521 1.169
-0.32924971 -0.40515149 1.1700001
-0.3271983 -0.40515149 1.1700001
-0.32514688 -0.40515149 1.1700001
-0.3230955 -0.40515149 1.1700001
-0.32104409 -0.40515149 1.1700001
-0.3189927 -0.40515149 1.1700001
-0.31667042 -0.40480521 1.169
-0.24894528 -0.37675625 1.0880001
-0.24703765 -0.37675625 1.0880001
-0.2437782 -0.37467855 1.082
-0.24143399 -0.37398601 1.08
-0.2397622 -0.37433228 1.0810001
-0.23720671 -0.37329343 1.0780001
-0.23553491 -0.3736397 1.079
-0.23364305 -0.3736397 1.079
-0.23153643 -0.37329343 1.0780001
-0.22900724 -0.37225458 1.075
-0.22733369 -0.37260085 1.0760001
-0.2254471 -0.37260085 1.0760001
-0.22293721 -0.371562 1.0730001
-0.2212619 -0.37190831 1.074
-0.21937881 -0.37190831 1.074
-0.21709073 -0.37121573 1.072
-0.2154119 -0.371562 1.0730001
-0.18459356 -0.3777951 1.0910001
-0.18251324 -0.37744883 1.09
-0.18093348 -0.3781414 1.092
-0.17918278 -0.37848768 1.0930001
-0.17726639 -0.37848768 1.0930001
-0.17518955 -0.3781414 1.092
-0.17295757 -0.37744883 1.09
-0.17167413 -0.37883395 1.0940001
-0.16975598 -0.37883395 1.0940001
-0.037544128 -0.30265164 0.87400001
-0.036011714 -0.30265164 0.87400001
-0.034321498 -0.30126649 0.87000006
-0.0327961 -0.30126649 0.87000006
-0.031198813 -0.30057395 0.86800003
-0.02967692 -0.30057395 0.86800003
-0.028122589 -0.30022764 0.86700004
-0.40181401 -0.4144696 1.2030001
-0.39970475 -0.4144696 1.2030001
-0.39693451 -0.41378054 1.2010001
-0.41093749 -0.43066248 1.25
-0.40907282 -0.43100703 1.251
-0.4068794 -0.43100703 1.251
-0.404039 -0.43031797 1.2490001
-0.39927521 -0.42756173 1.2410001
-0.39549941 -0.42583907 1.2360001
-0.39333227 -0.42583907 1.2360001
-0.2338596 -0.37019879 1.08
-0.23110686 -0.3688277 1.0760001
-0.22922027 -0.3688277 1.0760001
-0.22754496 -0.36917046 1.077
-0.22502805 -0.36814213 1.074
-0.22293721 -0.36779937 1.0730001
-0.22105588 -0.36779937 1.0730001
-0.183183 -0.37499768 1.0940001
-0.18159623 -0.37568322 1.0960001
-0.17967458 -0.37568322 1.0960001
-0.17775293 -0.37568322 1.0960001
-0.17567085 -0.37534046 1.095
-0.17359227 -0.37499768 1.0940001
-0.17104644 -0.37362656 1.09
-0.16929047 -0.37396935 1.0910001
-0.039076541 -0.2995868 0.87400001
-0.037544128 -0.2995868 0.87400001
-0.035888102 -0.29855847 0.87100005
-0.034360949 -0.29855847 0.87100005
-0.0327961 -0.29821569 0.87000006
-0.031198813 -0.29753014 0.86800003
-0.02967692 -0.29753014 0.86800003
-0.028122589 -0.29718736 0.86700004
-0.026541084 -0.29650182 0.86500007
-0.025024449 -0.29650182 0.86500007
-0.022016607 -0.2968446 0.86600006
-0.025123512 -0.42709973 1.2460001
-0.022938861 -0.42709973 1.2460001
-0.02083749 -0.42881361 1.251
-0.018584456 -0.42744249 1.2470001
-0.01639805 -0.42744249 1.2470001
-0.014211643 -0.42744249 1.2470001
-0.011986664 -0.42607141 1.243
-0.00980727 -0.42607141 1.243
-0.0076524233 -0.42744249 1.2470001
-0.0054265666 -0.4243575 1.238
-0.00325594 -0.4243575 1.238
-0.40949625 -0.41809461 1.2260001
-0.40668216 -0.41741255 1.2240001
-0.40387508 -0.41673052 1.222
-0.40995124 -0.4252561 1.2470001
-0.40907282 -0.42662019 1.251
-0.40655416 -0.42627916 1.25
-0.4043625 -0.42627916 1.25
-0.40056214 -0.42457405 1.245
-0.39677933 -0.42286894 1.24
-0.39524165 -0.42355096 1.2420001
-0.18209331 -0.37478465 1.0990001
-0.18016639 -0.37478465 1.0990001
-0.17775293 -0.37376156 1.0960001
-0.17567085 -0.37342054 1.095
-0.17359227 -0.37307954 1.0940001
-0.17104644 -0.37171543 1.09
-0.1691353 -0.37171543 1.09
-0.17183104 -0.36958075 1.095
-0.16975598 -0.36924323 1.0940001
-0.03921067 -0.29600212 0.87700003
-0.037672997 -0.29600212 0.87700003
-0.035970509 -0.29465204 0.87300003
-0.034360949 -0.29397702 0.87100005
-0.032758404 -0.29330197 0.86900002
-0.031198813 -0.29296446 0.86800003
-0.02967692 -0.29296446 0.86800003
-0.028090153 -0.29228944 0.86600006
-0.026571767 -0.29228944 0.86600006
-0.030355459 -0.4029949 1.194
-0.028475009 -0.40603256 1.2030001
-0.026343834 -0.40569502 1.202
-0.02425649 -0.40603256 1.2030001
-0.022607479 -0.41447046 1.228
-0.020387759 -0.41312039 1.2240001
-0.018256582 -0.4134579 1.225
-0.016161351 -0.41480798 1.2290001
-0.014063487 -0.41649556 1.2340001
-0.011851656 -0.41480798 1.2290001
-0.0096968096 -0.41480798 1.2290001
-0.0075419634 -0.41480798 1.2290001
-0.0053871167 -0.41480798 1.2290001
-0.00323227 -0.41480798 1.2290001
-0.40515414 -0.40728092 1.2130001
-0.40236282 -0.40660939 1.2110001
-0.40023953 -0.40660939 1.2110001
-0.39910251 -0.40761667 1.2140001
-0.03921067 -0.29292676 0.87700003
-0.037501171 -0.29159072 0.87300003
-0.036011714 -0.29192474 0.87400001
-0.0344004 -0.29125673 0.87200004
-0.032833796 -0.2909227 0.87100005
-0.031234756 -0.29025468 0.86900002
-0.02960854 -0.28925267 0.86600006
-0.028155027 -0.28992069 0.86800003
-0.030380882 -0.39914194 1.1950001
-0.028309319 -0.39947596 1.1960001
-0.026124667 -0.39813992 1.192
-0.024034694 -0.39813992 1.192
-0.02194472 -0.39813992 1.192
-0.019988 -0.400812 1.2
-0.017883999 -0.400812 1.2
-0.015727401 -0.39947596 1.1960001
-0.013630413 -0.39947596 1.1960001
-0.01168772 -0.40482011 1.212
-0.0095547903 -0.40448612 1.2110001
-0.0074376399 -0.40482011 1.212
-0.0053082164 -0.40448612 1.2110001
-0.00318493 -0.40448612 1.2110001
-0.40014398 -0.39804348 1.1980001
-0.39771122 -0.39771122 1.197
-0.39462098 -0.39671445 1.194
-0.39252749 -0.39671445 1.194
-0.0093890997 -0.39538544 1.1900001
-0.0073271799 -0.39671445 1.194
-0.0052336999 -0.39671445 1.194
-0.00314022 -0.39671445 1.194
-0.042430665 -0.28929999 0.88000005
-0.040934198 -0.28962874 0.88100004
-0.039300092 -0.28897125 0.87900007
-0.037758909 -0.28897125 0.87900007
-0.036135323 -0.28831375 0.87700003
-0.034479301 -0.2873275 0.87400001
-0.032909188 -0.28699875 0.87300003
-0.030075803 -0.38891125 1.1830001
-0.027930601 -0.387925 1.1800001
-0.025861666 -0.387925 1.1800001
-0.023611262 -0.38496625 1.171
-0.021539699 -0.3846375 1.1700001
-0.019554926 -0.3859525 1.174
-0.017526319 -0.38661 1.176
-0.0154644 -0.38661 1.176
-0.013356893 -0.385295 1.1720001
-0.011292343 -0.38496625 1.171
-0.0092313001 -0.3846375 1.1700001
-0.0072044465 -0.3859525 1.174
-0.0051460331 -0.3859525 1.174
-0.00309814 -0.3872675 1.1780001
-0.39546785 -0.38716406 1.184
-0.39339188 -0.38716406 1.184
-0.38356709 -0.38356709 1.1730001
-0.38151044 -0.38356709 1.1730001
-0.37945378 -0.38356709 1.1730001
-0.011244127 -0.3812781 1.166
-0.0091997404 -0.3812781 1.166
-0.0071799001 -0.38258609 1.1700001
-0.0051285001 -0.38258609 1.1700001
-0.00308762 -0.38389409 1.174
-0.042382449 -0.28434771 0.87900007
-0.040794805 -0.28402421 0.87800002
-0.039255381 -0.28402421 0.87800002
-0.037672997 -0.28370073 0.87700003
-0.036135323 -0.28370073 0.87700003
-0.034479301 -0.28273025 0.87400001
-0.032909188 -0.28240678 0.87300003
-0.031633642 -0.37654236 1.164
-0.029618183 -0.37686583 1.1650001
-0.027693899 -0.3784833 1.1700001
-0.025642499 -0.3784833 1.1700001
-0.023510447 -0.37718934 1.166
-0.021447649 -0.37686583 1.1650001
-0.019405017 -0.37686583 1.1650001
-0.017407093 -0.37783632 1.1680001
-0.015306599 -0.37654236 1.164
-0.013254323 -0.37621886 1.1630001
-0.011205553 -0.37589538 1.1620001
-0.00913662 -0.37460142 1.1580001
-0.0071062599 -0.37460142 1.1580001
-0.0050758999 -0.37460142 1.1580001
-0.0030455401 -0.37460142 1.1580001
-0.043923631 -0.28126535 0.87900007
-0.042382449 -0.28126535 0.87900007
-0.04084127 -0.28126535 0.87900007
-0.039300092 -0.28126535 0.87900007
-0.037715953 -0.28094536 0.87800002
-0.036176525 -0.28094536 0.87800002
-0.034558199 -0.28030539 0.87600005
-0.033022281 -0.28030539 0.87600005
-0.027433529 -0.3708607 1.159
-0.025401417 -0.3708607 1.159
-0.02334914 -0.37054071 1.1580001
-0.02131878 -0.37054071 1.1580001
-0.01923845 -0.36958075 1.1550001
-0.01721335 -0.36958075 1.1550001
-0.01518825 -0.36958075 1.1550001
-0.01316315 -0.36958075 1.1550001
-0.011128407 -0.36926076 1.154
-0.0091050602 -0.36926076 1.154
-0.045413088 -0.27786651 0.87800002
-0.04387366 -0.27786651 0.87800002
-0.042382449 -0.27818298 0.87900007
-0.04084127 -0.27818298 0.87900007
-0.039300092 -0.27818298 0.87900007
-0.037715953 -0.27786651 0.87800002
-0.03621773 -0.27818298 0.87900007
-0.034676548 -0.27818298 0.87900007
-0.033097673 -0.27786651 0.87800002
-0.026694499 -0.33230048 1.0500001
-0.02478249 -0.33135107 1.0470001
-0.022946751 -0.33135107 1.0470001
-0.021090847 -0.3310346 1.046
-0.01925686 -0.3310346 1.046
-0.01738956 -0.33040163 1.044
-0.01555908 -0.33040163 1.044
-0.01376805 -0.33135107 1.0470001
-0.01193231 -0.33135107 1.0470001
-0.011060903 -0.36299872 1.1470001
-0.00904983 -0.36299872 1.1470001
-0.0070387567 -0.36299872 1.1470001
-0.0050276835 -0.36299872 1.1470001
-0.00301924 -0.36331522 1.148
-0.024900841 -0.32739994 1.052
-0.023034416 -0.32708871 1.051
-0.02123199 -0.32771114 1.0530001
-0.0193305 -0.32677749 1.0500001
-0.017506156 -0.32708871 1.051
-0.015678307 -0.32739994 1.052
-0.0138338 -0.32739994 1.052
-0.01193231 -0.32584384 1.0470001
-0.010077284 -0.32522142 1.0450001
-0.00824505 -0.32522142 1.0450001
-0.0064128167 -0.32522142 1.0450001
-0.0045805834 -0.32522142 1.0450001
-0.0027483499 -0.32522142 1.0450001
-0.04561998 -0.27294666 0.88200003
-0.044073541 -0.27294666 0.88200003
-0.042478882 -0.27263719 0.88100004
-0.04084127 -0.27201825 0.87900007
-0.039300092 -0.27201825 0.87900007
-0.037758909 -0.27201825 0.87900007
-0.03621773 -0.27201825 0.87900007
-0.034676548 -0.27201825 0.87900007
-0.033135369 -0.27201825 0.87900007
-0.031594191 -0.27201825 0.87900007
-0.02307825 -0.32586488 1.0530001
-0.02123199 -0.32586488 1.0530001
-0.019385729 -0.32586488 1.0530001
-0.017506156 -0.32524595 1.051
-0.015678307 -0.32555541 1.052
-0.0138338 -0.32555541 1.052
-0.011909517 -0.32338917 1.0450001
-0.010077284 -0.32338917 1.0450001
