# .PCD v0.7 - Point Cloud Data file format
VERSION 0.7
FIELDS x y z
SIZE 4 4 4
TYPE F F F
COUNT 1 1 1
WIDTH 1455
HEIGHT 1
VIEWPOINT 0 0 0 1 0 0 0
POINTS 1455
DATA ascii
-0.14991263 0.092952088 0.35700002
-0.14928669 0.092952088 0.35700002
-0.14866075 0.092952088 0.35700002
-0.14762014 0.09269172 0.35600001
-0.14699596 0.09269172 0.35600001
-0.1469758 0.093472831 0.35900003
-0.14512339 0.09269172 0.35600001
-0.14449921 0.09269172 0.35600001
-0.14387503 0.09269172 0.35600001
-0.14325084 0.09269172 0.35600001
-0.14302729 0.092952088 0.35700002
-0.14200246 0.09269172 0.35600001
-0.14137828 0.09269172 0.35600001
-0.14075409 0.09269172 0.35600001
-0.14052352 0.092952088 0.35700002
-0.13989758 0.092952088 0.35700002
-0.13966176 0.093212463 0.35800001
-0.13903408 0.093212463 0.35800001
-0.13879299 0.093472831 0.35900003
-0.13816354 0.093472831 0.35900003
-0.1375341 0.093472831 0.35900003
-0.13652331 0.093212463 0.35800001
-0.135516 0.092952088 0.35700002
-0.13489006 0.092952088 0.35700002
-0.13426413 0.092952088 0.35700002
-0.13363819 0.092952088 0.35700002
-0.13301225 0.092952088 0.35700002
-0.13238631 0.092952088 0.35700002
-0.13139129 0.09269172 0.35600001
-0.13150175 0.093212463 0.35800001
-0.13123962 0.093472831 0.35900003
0.32893673 0.17991567 0.69100004
0.33014828 0.17991567 0.69100004
-0.17041874 0.094888642 0.36200002
-0.16978404 0.094888642 0.36200002
-0.16914932 0.094888642 0.36200002
-0.16804911 0.094626524 0.36100003
-0.16741616 0.094626524 0.36100003
-0.1667832 0.094626524 0.36100003
-0.16225873 0.093840152 0.35800001
-0.16163103 0.093840152 0.35800001
-0.16100334 0.093840152 0.35800001
-0.16037564 0.093840152 0.35800001
-0.15930173 0.093578026 0.35700002
-0.15867579 0.093578026 0.35700002
-0.15804985 0.093578026 0.35700002
-0.15830584 0.094102278 0.35900003
-0.15767638 0.094102278 0.35900003
-0.15704694 0.094102278 0.35900003
-0.15641749 0.094102278 0.35900003
-0.15492015 0.093578026 0.35700002
-0.1547264 0.093840152 0.35800001
-0.15452915 0.094102278 0.35900003
-0.15347102 0.093840152 0.35800001
-0.15327026 0.094102278 0.35900003
-0.15264082 0.094102278 0.35900003
-0.15201136 0.094102278 0.35900003
-0.15053856 0.093578026 0.35700002
-0.14991263 0.093578026 0.35700002
-0.14886852 0.093315907 0.35600001
-0.14866075 0.093578026 0.35700002
-0.14803481 0.093578026 0.35700002
-0.14553104 0.093578026 0.35700002
-0.14490511 0.093578026 0.35700002
-0.14427917 0.093578026 0.35700002
-0.14365323 0.093578026 0.35700002
-0.14262666 0.093315907 0.35600001
-0.14200246 0.093315907 0.35600001
-0.14137828 0.093315907 0.35600001
-0.14075409 0.093315907 0.35600001
-0.14052352 0.093578026 0.35700002
-0.13989758 0.093578026 0.35700002
-0.13966176 0.093840152 0.35800001
-0.13903408 0.093840152 0.35800001
-0.13879299 0.094102278 0.35900003
-0.13777868 0.093840152 0.35800001
-0.13715099 0.093840152 0.35800001
-0.13652331 0.093840152 0.35800001
-0.135516 0.093578026 0.35700002
-0.13489006 0.093578026 0.35700002
-0.13426413 0.093578026 0.35700002
-0.13363819 0.093578026 0.35700002
-0.13301225 0.093578026 0.35700002
-0.13238631 0.093578026 0.35700002
-0.13139129 0.093315907 0.35600001
-0.13076711 0.093315907 0.35600001
0.32798466 0.18060298 0.68900001
0.32967049 0.18086509 0.69000006
0.3323189 0.18165147 0.69300002
0.33353397 0.18165147 0.69300002
-0.16978404 0.09552335 0.36200002
-0.16868207 0.095259473 0.36100003
-0.1618055 0.094203971 0.35700002
-0.16163103 0.094467849 0.35800001
-0.1605536 0.094203971 0.35700002
-0.15947969 0.093940094 0.35600001
-0.15885551 0.093940094 0.35600001
-0.15912026 0.094467849 0.35800001
-0.15849257 0.094467849 0.35800001
-0.15830584 0.094731726 0.35900003
-0.15767638 0.094731726 0.35900003
-0.15704694 0.094731726 0.35900003
-0.15641749 0.094731726 0.35900003
-0.15405224 0.093676217 0.35500002
-0.15429421 0.094203971 0.35700002
-0.15452915 0.094731726 0.35900003
-0.15261364 0.093940094 0.35600001
-0.15198945 0.093940094 0.35600001
-0.15136527 0.093940094 0.35600001
-0.15074109 0.093940094 0.35600001
-0.15053856 0.094203971 0.35700002
-0.14991263 0.094203971 0.35700002
-0.14886852 0.093940094 0.35600001
-0.14824434 0.093940094 0.35600001
-0.14762014 0.093940094 0.35600001
-0.14658305 0.093676217 0.35500002
-0.14490511 0.094203971 0.35700002
-0.14427917 0.094203971 0.35700002
-0.14365323 0.094203971 0.35700002
-0.14262666 0.093940094 0.35600001
-0.14200246 0.093940094 0.35600001
-0.14137828 0.093940094 0.35600001
-0.14114948 0.094203971 0.35700002
-0.13426413 0.094203971 0.35700002
-0.13363819 0.094203971 0.35700002
-0.13338484 0.094467849 0.35800001
0.29415935 0.18181102 0.68900001
0.29493871 0.18154715 0.68800002
0.32846069 0.1820749 0.69000006
0.32967049 0.1820749 0.69000006
0.33279845 0.1831304 0.69400001
0.33401525 0.1831304 0.69400001
-0.16135225 0.094564281 0.35600001
-0.16027658 0.094298646 0.35500002
-0.15965416 0.094298646 0.35500002
-0.15992767 0.09482991 0.35700002
-0.15930173 0.09482991 0.35700002
-0.15867579 0.09482991 0.35700002
-0.15849257 0.095095538 0.35800001
-0.15830584 0.095361166 0.35900003
-0.15723717 0.095095538 0.35800001
-0.15704694 0.095361166 0.35900003
-0.15641749 0.095361166 0.35900003
-0.15361831 0.094033018 0.354
-0.15299761 0.094033018 0.354
-0.15323782 0.094564281 0.35600001
-0.15261364 0.094564281 0.35600001
-0.15198945 0.094564281 0.35600001
-0.15136527 0.094564281 0.35600001
-0.15074109 0.094564281 0.35600001
-0.15011689 0.094564281 0.35600001
-0.14991263 0.09482991 0.35700002
-0.14886852 0.094564281 0.35600001
-0.14824434 0.094564281 0.35600001
-0.14720549 0.094298646 0.35500002
-0.14658305 0.094298646 0.35500002
-0.14262666 0.094564281 0.35600001
-0.14200246 0.094564281 0.35600001
0.29287854 0.18222217 0.68600005
0.29408133 0.18222217 0.68600005
0.32677662 0.18301907 0.68900001
0.32846069 0.1832847 0.69000006
0.32967049 0.1832847 0.69000006
0.33183938 0.18381596 0.69200003
0.33016494 0.18222217 0.68600005
0.3308847 0.18195654 0.68500006
0.33208573 0.18195654 0.68500006
-0.16089901 0.094921082 0.35500002
-0.16117954 0.095455848 0.35700002
-0.1605536 0.095455848 0.35700002
-0.16037564 0.095723234 0.35800001
-0.15974796 0.095723234 0.35800001
-0.15912026 0.095723234 0.35800001
-0.15849257 0.095723234 0.35800001
-0.15786487 0.095723234 0.35800001
-0.15529712 0.094921082 0.35500002
-0.15467468 0.094921082 0.35500002
-0.15361831 0.094653696 0.354
-0.15299761 0.094653696 0.354
-0.15280738 0.094921082 0.35500002
-0.15218495 0.094921082 0.35500002
-0.15198945 0.095188469 0.35600001
-0.15094008 0.094921082 0.35500002
-0.1511645 0.095455848 0.35700002
-0.15096025 0.095723234 0.35800001
-0.14949271 0.095188469 0.35600001
-0.14886852 0.095188469 0.35600001
-0.14824434 0.095188469 0.35600001
-0.14720549 0.094921082 0.35500002
-0.14658305 0.094921082 0.35500002
0.29159775 0.18262282 0.68300003
0.29236656 0.18235543 0.68200004
0.29399279 0.18262282 0.68300003
0.29519033 0.18262282 0.68300003
0.31965283 0.18155329 0.67900002
0.32084334 0.18155329 0.67900002
0.32203385 0.18155329 0.67900002
0.32846069 0.1844945 0.69000006
0.32871494 0.18395974 0.68800002
0.32992122 0.18395974 0.68800002
0.32968366 0.18315758 0.68500006
0.3308847 0.18315758 0.68500006
0.33208573 0.18315758 0.68500006
-0.16135225 0.095812656 0.35600001
-0.16117954 0.096081786 0.35700002
-0.16100334 0.096350923 0.35800001
-0.15529712 0.095543519 0.35500002
-0.15467468 0.095543519 0.35500002
-0.15318435 0.095005244 0.35300002
-0.15299761 0.095274381 0.354
-0.15280738 0.095543519 0.35500002
-0.15218495 0.095543519 0.35500002
-0.15156251 0.095543519 0.35500002
-0.1505149 0.095274381 0.354
-0.15074109 0.095812656 0.35600001
-0.15138192 0.096620061 0.35900003
-0.14991263 0.096081786 0.35700002
-0.14886852 0.095812656 0.35600001
-0.14824434 0.095812656 0.35600001
-0.14679082 0.095274381 0.354
-0.14617014 0.095274381 0.354
0.29040021 0.18382034 0.68300003
0.29117081 0.18355121 0.68200004
0.29150921 0.18301293 0.68000001
0.29270145 0.18301293 0.68000001
0.29389372 0.18301293 0.68000001
0.29551995 0.18328206 0.68100005
0.31965283 0.1827438 0.67900002
0.32037082 0.18247466 0.67800003
0.32155958 0.18247466 0.67800003
0.32322437 0.1827438 0.67900002
0.32584822 0.18355121 0.68200004
0.32752353 0.18382034 0.68300003
0.32920235 0.18408948 0.68400002
0.3308847 0.18435861 0.68500006
0.33208573 0.18435861 0.68500006
-0.15529712 0.096165948 0.35500002
-0.15423898 0.095895059 0.354
-0.1527504 0.095353283 0.35200003
-0.15213323 0.095353283 0.35200003
-0.15237693 0.095895059 0.354
-0.15175626 0.095895059 0.354
-0.15156251 0.096165948 0.35500002
-0.1505149 0.095895059 0.354
-0.15074109 0.096436836 0.35600001
0.2908254 0.18528876 0.68400002
0.29117081 0.18474698 0.68200004
0.29193789 0.18447609 0.68100005
0.29313192 0.18447609 0.68100005
0.29389372 0.1842052 0.68000001
0.29378414 0.18339252 0.67700005
0.29453546 0.18312164 0.67600006
0.29484579 0.18257986 0.67400002
0.29602754 0.18257986 0.67400002
0.31608129 0.18393432 0.67900002
0.31633729 0.18339252 0.67700005
0.31752428 0.18339252 0.67700005
0.31918207 0.18366341 0.67800003
0.32037082 0.18366341 0.67800003
0.32155958 0.18366341 0.67800003
0.32322437 0.18393432 0.67900002
0.32489267 0.1842052 0.68000001
0.32656446 0.18447609 0.68100005
0.32823977 0.18474698 0.68200004
0.32943556 0.18474698 0.68200004
0.33014652 0.18447609 0.68100005
-0.15485966 0.096515737 0.354
-0.15423898 0.096515737 0.354
-0.1527504 0.095970452 0.35200003
-0.15256542 0.096243098 0.35300002
-0.15237693 0.096515737 0.354
-0.15175626 0.096515737 0.354
0.28877926 0.18594275 0.68200004
0.28954986 0.18567011 0.68100005
0.28988999 0.18512483 0.67900002
0.29065183 0.18485218 0.67800003
0.29184058 0.18485218 0.67800003
0.29389372 0.18539746 0.68000001
0.29248229 0.18376161 0.67400002
0.29366404 0.18376161 0.67400002
0.29484579 0.18376161 0.67400002
0.29602754 0.18376161 0.67400002
0.29720929 0.18376161 0.67400002
0.29883376 0.18403424 0.67500001
0.30179513 0.18512483 0.67900002
0.30343187 0.18539746 0.68000001
0.3050721 0.18567011 0.68100005
0.30581641 0.18539746 0.68000001
0.31396326 0.18457954 0.67700005
0.31515026 0.18457954 0.67700005
0.31493548 0.18376161 0.67400002
0.31611723 0.18376161 0.67400002
0.31871128 0.18457954 0.67700005
0.31989831 0.18457954 0.67700005
0.32061103 0.18430689 0.67600006
0.32274833 0.18485218 0.67800003
0.32441488 0.18512483 0.67900002
0.32608494 0.18539746 0.68000001
0.32775849 0.18567011 0.68100005
0.32895252 0.18567011 0.68100005
0.33014652 0.18567011 0.68100005
-0.15485966 0.097136423 0.354
-0.15423898 0.097136423 0.354
-0.1527504 0.096587628 0.35200003
-0.15213323 0.096587628 0.35200003
-0.1519465 0.096862026 0.35300002
0.28877926 0.18713853 0.68200004
0.28954986 0.18686412 0.68100005
0.28946307 0.18604094 0.67800003
0.29065183 0.18604094 0.67800003
0.29184058 0.18604094 0.67800003
0.29130057 0.18494335 0.67400002
0.29161438 0.18439455 0.67200005
0.29366404 0.18494335 0.67400002
0.29397088 0.18439455 0.67200005
0.29514912 0.18439455 0.67200005
0.29632735 0.18439455 0.67200005
0.2979483 0.18466896 0.67300004
0.30046171 0.18549214 0.67600006
0.30298564 0.18631534 0.67900002
0.30417615 0.18631534 0.67900002
0.30536667 0.18631534 0.67900002
0.30655718 0.18631534 0.67900002
0.30820093 0.18658973 0.68000001
0.3093932 0.18658973 0.68000001
0.30967197 0.18604094 0.67800003
0.31131923 0.18631534 0.67900002
0.31277627 0.18576655 0.67700005
0.31396326 0.18576655 0.67700005
0.31515026 0.18576655 0.67700005
0.31493548 0.18494335 0.67400002
0.31611723 0.18494335 0.67400002
0.31965283 0.18631534 0.67900002
0.32084334 0.18631534 0.67900002
0.32203385 0.18631534 0.67900002
0.32274833 0.18604094 0.67800003
0.32537046 0.18686412 0.68100005
0.32704401 0.18713853 0.68200004
0.32872108 0.18741292 0.68300003
0.32943556 0.18713853 0.68200004
0.33063132 0.18713853 0.68200004
-0.15485966 0.097757101 0.354
-0.15423898 0.097757101 0.354
-0.1527504 0.097204797 0.35200003
-0.15256542 0.097480953 0.35300002
-0.15237693 0.097757101 0.354
0.28962612 0.1888866 0.68400002
0.29040021 0.18861045 0.68300003
0.28903612 0.18695354 0.67700005
0.29022312 0.18695354 0.67700005
0.28968835 0.18584895 0.67300004
0.29086834 0.18584895 0.67300004
0.29204834 0.18584895 0.67300004
0.29366404 0.1861251 0.67400002
0.29353341 0.18529665 0.671
0.29470992 0.18529665 0.671
0.2958864 0.18529665 0.671
0.29750559 0.1855728 0.67200005
0.29868385 0.1855728 0.67200005
0.30164698 0.1866774 0.67600006
0.30372816 0.18722969 0.67800003
0.30536667 0.18750586 0.67900002
0.3061057 0.18722969 0.67800003
0.30774769 0.18750586 0.67900002
0.30893821 0.18750586 0.67900002
0.31012872 0.18750586 0.67900002
0.31177774 0.187782 0.68000001
0.31158924 0.18695354 0.67700005
0.31231424 0.1866774 0.67600006
0.31349951 0.1866774 0.67600006
0.31468475 0.1866774 0.67600006
0.31633729 0.18695354 0.67700005
0.31846231 0.18750586 0.67900002
0.31965283 0.18750586 0.67900002
0.32084334 0.18750586 0.67900002
0.32250813 0.187782 0.68000001
0.32465246 0.1883343 0.68200004
0.32537046 0.18805815 0.68100005
0.32656446 0.18805815 0.68100005
0.32775849 0.18805815 0.68100005
0.32943556 0.1883343 0.68200004
0.33063132 0.1883343 0.68200004
-0.15485966 0.098377779 0.354
-0.15380327 0.098099872 0.35300002
-0.15318435 0.098099872 0.35300002
0.28134865 0.18619524 0.67000002
0.28252336 0.18619524 0.67000002
0.28369811 0.18619524 0.67000002
0.28487283 0.18619524 0.67000002
0.28604758 0.18619524 0.67000002
0.28807968 0.18675104 0.67200005
0.28968835 0.18702894 0.67300004
0.29086834 0.18702894 0.67300004
0.29248229 0.18730685 0.67400002
0.29322833 0.18702894 0.67300004
0.29309598 0.18619524 0.67000002
0.29470992 0.18647313 0.671
0.2958864 0.18647313 0.671
0.29750559 0.18675104 0.67200005
0.29868385 0.18675104 0.67200005
0.30030829 0.18702894 0.67300004
0.30148828 0.18702894 0.67300004
0.30401748 0.18786265 0.67600006
0.30520272 0.18786265 0.67600006
0.30638799 0.18786265 0.67600006
0.30893821 0.18869637 0.67900002
0.31058547 0.18897426 0.68000001
0.31131923 0.18869637 0.67900002
0.31204951 0.18841846 0.67800003
0.31231424 0.18786265 0.67600006
0.31349951 0.18786265 0.67600006
0.31468475 0.18786265 0.67600006
0.31633729 0.18814056 0.67700005
0.31846231 0.18869637 0.67900002
0.31965283 0.18869637 0.67900002
0.32131585 0.18897426 0.68000001
0.32203385 0.18869637 0.67900002
0.32417643 0.18925217 0.68100005
0.32584822 0.18953007 0.68200004
0.32704401 0.18953007 0.68200004
0.32823977 0.18953007 0.68200004
0.32846946 0.18897426 0.68000001
0.33014652 0.18925217 0.68100005
0.27975574 0.18709031 0.66900003
0.28134865 0.18736997 0.67000002
0.28294504 0.18764962 0.671
0.28454494 0.18792927 0.67200005
0.28572321 0.18792927 0.67200005
0.28604758 0.18736997 0.67000002
0.28807968 0.18792927 0.67200005
0.28882748 0.18764962 0.671
0.29000396 0.18764962 0.671
0.29161438 0.18792927 0.67200005
0.29235694 0.18764962 0.671
0.29309598 0.18736997 0.67000002
0.29427069 0.18736997 0.67000002
0.29544544 0.18736997 0.67000002
0.29706287 0.18764962 0.671
0.29823938 0.18764962 0.671
0.30030829 0.18820894 0.67300004
0.30148828 0.18820894 0.67300004
0.30311802 0.18848859 0.67400002
0.30475125 0.18876825 0.67500001
0.30638799 0.1890479 0.67600006
0.30848321 0.18960722 0.67800003
0.31012872 0.18988687 0.67900002
0.31131923 0.18988687 0.67900002
0.31250975 0.18988687 0.67900002
0.31231424 0.1890479 0.67600006
0.31349951 0.1890479 0.67600006
0.31561577 0.18960722 0.67800003
0.31587002 0.1890479 0.67600006
0.31799328 0.18960722 0.67800003
0.32012358 0.19016653 0.68000001
0.32131585 0.19016653 0.68000001
0.32250813 0.19016653 0.68000001
0.32417643 0.19044618 0.68100005
0.32584822 0.19072585 0.68200004
0.32704401 0.19072585 0.68200004
0.32823977 0.19072585 0.68200004
0.32750338 0.18960722 0.67800003
0.32917693 0.18988687 0.67900002
0.23306184 0.18291649 0.65000004
0.23276027 0.18179086 0.64600003
0.23353085 0.18150945 0.64500004
0.24702275 0.18657483 0.66300005
0.24893388 0.18713765 0.66500002
0.27706259 0.18882611 0.671
0.27865377 0.18910752 0.67200005
0.27941558 0.18882611 0.671
0.28059205 0.18882611 0.671
0.28218848 0.18910752 0.67200005
0.28336671 0.18910752 0.67200005
0.28496838 0.18938893 0.67300004
0.28657356 0.18967034 0.67400002
0.28690144 0.18910752 0.67200005
0.287651 0.18882611 0.671
0.28925791 0.18910752 0.67200005
0.28957176 0.18854471 0.67000002
0.29031256 0.18826328 0.66900003
0.29148552 0.18826328 0.66900003
0.29309598 0.18854471 0.67000002
0.29427069 0.18854471 0.67000002
0.29544544 0.18854471 0.67000002
0.29706287 0.18882611 0.671
0.29823938 0.18882611 0.671
0.29986209 0.18910752 0.67200005
0.30148828 0.18938893 0.67300004
0.30311802 0.18967034 0.67400002
0.30429977 0.18967034 0.67400002
0.30638799 0.19023316 0.67600006
0.30757323 0.19023316 0.67600006
0.3087585 0.19023316 0.67600006
0.30994374 0.19023316 0.67600006
0.311129 0.19023316 0.67600006
0.31231424 0.19023316 0.67600006
0.31349951 0.19023316 0.67600006
0.31515026 0.19051456 0.67700005
0.31680453 0.19079597 0.67800003
0.31752428 0.19051456 0.67700005
0.31965283 0.19107738 0.67900002
0.32131585 0.1913588 0.68000001
0.32203385 0.19107738 0.67900002
0.3237004 0.1913588 0.68000001
0.32489267 0.1913588 0.68000001
0.32608494 0.1913588 0.68000001
0.32727718 0.1913588 0.68000001
0.32846946 0.1913588 0.68000001
0.33063132 0.19192162 0.68200004
0.2273635 0.18405616 0.65000004
0.22850317 0.18405616 0.65000004
0.2316276 0.18292351 0.64600003
0.23239996 0.18264034 0.64500004
0.23316878 0.18235719 0.64400005
0.24395968 0.18717097 0.66100001
0.24511863 0.18717097 0.66100001
0.24702275 0.18773729 0.66300005
0.24855955 0.18802045 0.66400003
0.24972376 0.18802045 0.66400003
0.25239936 0.18915311 0.66800004
0.25319096 0.18886994 0.66700006
0.25825548 0.18915311 0.66800004
0.25903833 0.18886994 0.66700006
0.25942758 0.18830362 0.66500002
0.26059353 0.18830362 0.66500002
0.26136589 0.18802045 0.66400003
0.26213473 0.18773729 0.66300005
0.2632972 0.18773729 0.66300005
0.26485854 0.18802045 0.66400003
0.26682401 0.18858677 0.66600001
0.26758936 0.18830362 0.66500002
0.26875532 0.18830362 0.66500002
0.26992127 0.18830362 0.66500002
0.2714949 0.18858677 0.66600001
0.27307203 0.18886994 0.66700006
0.27424151 0.18886994 0.66700006
0.27664968 0.18971944 0.67000002
0.27782443 0.18971944 0.67000002
0.27858275 0.18943627 0.66900003
0.27975574 0.18943627 0.66900003
0.28134865 0.18971944 0.67000002
0.28252336 0.18971944 0.67000002
0.28327468 0.18943627 0.66900003
0.28487283 0.18971944 0.67000002
0.28604758 0.18971944 0.67000002
0.2872223 0.18971944 0.67000002
0.28710571 0.18886994 0.66700006
0.28827518 0.18886994 0.66700006
0.29031256 0.18943627 0.66900003
0.29192123 0.18971944 0.67000002
0.29309598 0.18971944 0.67000002
0.29427069 0.18971944 0.67000002
0.29544544 0.18971944 0.67000002
0.29662016 0.18971944 0.67000002
0.29779491 0.18971944 0.67000002
0.30030829 0.19056892 0.67300004
0.30193627 0.19085209 0.67400002
0.30311802 0.19085209 0.67400002
0.30429977 0.19085209 0.67400002
0.30502829 0.19056892 0.67300004
0.30711824 0.19113524 0.67500001
0.30830175 0.19113524 0.67500001
0.30948526 0.19113524 0.67500001
0.311129 0.19141841 0.67600006
0.31231424 0.19141841 0.67600006
0.31396326 0.19170158 0.67700005
0.31515026 0.19170158 0.67700005
0.31587002 0.19141841 0.67600006
0.31752428 0.19170158 0.67700005
0.31918207 0.19198474 0.67800003
0.32131585 0.19255106 0.68000001
0.32203385 0.19226789 0.67900002
0.3237004 0.19255106 0.68000001
0.32489267 0.19255106 0.68000001
0.32608494 0.19255106 0.68000001
0.32727718 0.19255106 0.68000001
0.32895252 0.19283423 0.68100005
0.33063132 0.1931174 0.68200004
0.22866009 0.18719025 0.65700001
0.22771329 0.18548074 0.65100002
0.22885472 0.18548074 0.65100002
0.22999613 0.18548074 0.65100002
0.23078249 0.18519583 0.65000004
0.23192216 0.18519583 0.65000004
0.23126905 0.18377125 0.64500004
0.23239996 0.18377125 0.64500004
0.23316878 0.18348633 0.64400005
0.23429793 0.18348633 0.64400005
0.24133143 0.18719025 0.65700001
0.24285245 0.18747516 0.65800005
0.24437697 0.18776008 0.65900004
0.245905 0.188045 0.66000003
0.24781087 0.18861483 0.66200006
0.24972376 0.18918467 0.66400003
0.25126582 0.18946958 0.66500002
0.25205219 0.18918467 0.66400003
0.25359774 0.18946958 0.66500002
0.25591302 0.19032434 0.66800004
0.25592968 0.18946958 0.66500002
0.25748226 0.1897545 0.66600001
0.25864998 0.1897545 0.66600001
0.25981769 0.1897545 0.66600001
0.2609854 0.1897545 0.66600001
0.26175952 0.18946958 0.66500002
0.26213473 0.18889976 0.66300005
0.26369432 0.18918467 0.66400003
0.26485854 0.18918467 0.66400003
0.26602274 0.18918467 0.66400003
0.26758936 0.18946958 0.66500002
0.26875532 0.18946958 0.66500002
0.2695154 0.18918467 0.66400003
0.27067959 0.18918467 0.66400003
0.27225322 0.18946958 0.66500002
0.27341917 0.18946958 0.66500002
0.27499807 0.1897545 0.66600001
0.27616578 0.1897545 0.66600001
0.27816632 0.19032434 0.66800004
0.27933756 0.19032434 0.66800004
0.2809287 0.19060925 0.66900003
0.28210169 0.19060925 0.66900003
0.28369811 0.19089417 0.67000002
0.28487283 0.19089417 0.67000002
0.28562063 0.19060925 0.66900003
0.28679362 0.19060925 0.66900003
0.28710571 0.19003941 0.66700006
0.28827518 0.19003941 0.66700006
0.28944466 0.19003941 0.66700006
0.29061413 0.19003941 0.66700006
0.2917836 0.19003941 0.66700006
0.29295307 0.19003941 0.66700006
0.29500446 0.19060925 0.66900003
0.29617745 0.19060925 0.66900003
0.29735044 0.19060925 0.66900003
0.29986209 0.19146399 0.67200005
0.30148828 0.19174892 0.67300004
0.30266827 0.19174892 0.67300004
0.30429977 0.19203383 0.67400002
0.30548152 0.19203383 0.67400002
0.30620828 0.19174892 0.67300004
0.30830175 0.19231875 0.67500001
0.30948526 0.19231875 0.67500001
0.31158924 0.19288859 0.67700005
0.31277627 0.19288859 0.67700005
0.31349951 0.19260366 0.67600006
0.31561577 0.1931735 0.67800003
0.31633729 0.19288859 0.67700005
0.31799328 0.1931735 0.67800003
0.31918207 0.1931735 0.67800003
0.3217884 0.19402824 0.68100005
0.32250813 0.19374333 0.68000001
0.32417643 0.19402824 0.68100005
0.32489267 0.19374333 0.68000001
0.32608494 0.19374333 0.68000001
0.32727718 0.19374333 0.68000001
0.32895252 0.19402824 0.68100005
0.33063132 0.19431317 0.68200004
0.22866009 0.18834218 0.65700001
0.22841287 0.18719551 0.65300006
0.2295578 0.18719551 0.65300006
0.22999613 0.18662217 0.65100002
0.23078249 0.1863355 0.65000004
0.23192216 0.1863355 0.65000004
0.23234472 0.18576215 0.648
0.23276027 0.18518881 0.64600003
0.23389292 0.18518881 0.64600003
0.23502557 0.18518881 0.64600003
0.24017949 0.18834218 0.65700001
0.24133143 0.18834218 0.65700001
0.24285245 0.18862885 0.65800005
0.24437697 0.18891554 0.65900004
0.245905 0.1892022 0.66000003
0.24781087 0.18977554 0.66200006
0.24972376 0.19034888 0.66400003
0.25088796 0.19034888 0.66400003
0.25205219 0.19034888 0.66400003
0.25359774 0.19063555 0.66500002
0.25552991 0.19120888 0.66700006
0.25631455 0.19092222 0.66600001
0.25748226 0.19092222 0.66600001
0.25864998 0.19092222 0.66600001
0.25981769 0.19092222 0.66600001
0.2609854 0.19092222 0.66600001
0.26175952 0.19063555 0.66500002
0.26292548 0.19063555 0.66500002
0.26369432 0.19034888 0.66400003
0.26485854 0.19034888 0.66400003
0.26682401 0.19092222 0.66600001
0.26799175 0.19092222 0.66600001
0.26875532 0.19063555 0.66500002
0.2695154 0.19034888 0.66400003
0.27108726 0.19063555 0.66500002
0.27225322 0.19063555 0.66500002
0.27383032 0.19092222 0.66600001
0.27458516 0.19063555 0.66500002
0.27616578 0.19092222 0.66600001
0.2773335 0.19092222 0.66600001
0.27850121 0.19092222 0.66600001
0.28050879 0.19149555 0.66800004
0.28210169 0.19178224 0.66900003
0.28327468 0.19178224 0.66900003
0.28487283 0.1920689 0.67000002
0.28604758 0.1920689 0.67000002
0.2872223 0.1920689 0.67000002
0.28710571 0.19120888 0.66700006
0.28827518 0.19120888 0.66700006
0.28944466 0.19120888 0.66700006
0.29061413 0.19120888 0.66700006
0.2917836 0.19120888 0.66700006
0.29339227 0.19149555 0.66800004
0.29544544 0.1920689 0.67000002
0.29662016 0.1920689 0.67000002
0.29779491 0.1920689 0.67000002
0.29986209 0.19264224 0.67200005
0.30148828 0.19292891 0.67300004
0.30266827 0.19292891 0.67300004
0.30429977 0.19321558 0.67400002
0.30548152 0.19321558 0.67400002
0.30620828 0.19292891 0.67300004
0.30830175 0.19350225 0.67500001
0.30948526 0.19350225 0.67500001
0.311129 0.19378892 0.67600006
0.31231424 0.19378892 0.67600006
0.31349951 0.19378892 0.67600006
0.31515026 0.19407558 0.67700005
0.31680453 0.19436225 0.67800003
0.31752428 0.19407558 0.67700005
0.31918207 0.19436225 0.67800003
0.3217884 0.19522227 0.68100005
0.32250813 0.1949356 0.68000001
0.32465246 0.19550894 0.68200004
0.32537046 0.19522227 0.68100005
0.32656446 0.19522227 0.68100005
0.32727718 0.1949356 0.68000001
0.32943556 0.19550894 0.68200004
0.33063132 0.19550894 0.68200004
0.22716187 0.18920571 0.65600002
0.22831205 0.18920571 0.65600002
0.22946224 0.18920571 0.65600002
0.23026088 0.18891728 0.65500003
0.23034942 0.18805201 0.65200001
0.23113754 0.18776359 0.65100002
0.23192216 0.18747516 0.65000004
0.23270327 0.18718675 0.64900005
0.23312058 0.18660989 0.64700001
0.23425497 0.18660989 0.64700001
0.23866373 0.18920571 0.65600002
0.23981392 0.18920571 0.65600002
0.24169876 0.18978254 0.65800005
0.24322152 0.19007097 0.65900004
0.24437697 0.19007097 0.65900004
0.245905 0.1903594 0.66000003
0.24706219 0.1903594 0.66000003
0.24897158 0.19093625 0.66200006
0.25013229 0.19093625 0.66200006
0.251293 0.19093625 0.66200006
0.25321639 0.19151309 0.66400003
0.25438061 0.19151309 0.66400003
0.25554481 0.19151309 0.66400003
0.25670904 0.19151309 0.66400003
0.25864998 0.19208995 0.66600001
0.25942758 0.19180152 0.66500002
0.25980982 0.19122466 0.66300005
0.26097226 0.19122466 0.66300005
0.26173934 0.19093625 0.66200006
0.26290005 0.19093625 0.66200006
0.26485854 0.19151309 0.66400003
0.26682401 0.19208995 0.66600001
0.26799175 0.19208995 0.66600001
0.26915947 0.19208995 0.66600001
0.27032718 0.19208995 0.66600001
0.2714949 0.19208995 0.66600001
0.27225322 0.19180152 0.66500002
0.27341917 0.19180152 0.66500002
0.27458516 0.19180152 0.66500002
0.27616578 0.19208995 0.66600001
0.2773335 0.19208995 0.66600001
0.27850121 0.19208995 0.66600001
0.27966893 0.19208995 0.66600001
0.28168002 0.19266678 0.66800004
0.28285125 0.19266678 0.66800004
0.28444764 0.19295521 0.66900003
0.28562063 0.19295521 0.66900003
0.28679362 0.19295521 0.66900003
0.28710571 0.19237836 0.66700006
0.28827518 0.19237836 0.66700006
0.28944466 0.19237836 0.66700006
0.29104984 0.19266678 0.66800004
0.29222104 0.19266678 0.66800004
0.2938315 0.19295521 0.66900003
0.2945635 0.19266678 0.66800004
0.29662016 0.19324364 0.67000002
0.29779491 0.19324364 0.67000002
0.29941586 0.19353205 0.671
0.30148828 0.1941089 0.67300004
0.30266827 0.1941089 0.67300004
0.30429977 0.19439733 0.67400002
0.30593476 0.19468574 0.67500001
0.30666324 0.19439733 0.67400002
0.30830175 0.19468574 0.67500001
0.30948526 0.19468574 0.67500001
0.31066874 0.19468574 0.67500001
0.31185225 0.19468574 0.67500001
0.31396326 0.1952626 0.67700005
0.31515026 0.1952626 0.67700005
0.31633729 0.1952626 0.67700005
0.31752428 0.1952626 0.67700005
0.31918207 0.19555102 0.67800003
0.3217884 0.19641629 0.68100005
0.3229824 0.19641629 0.68100005
0.32417643 0.19641629 0.68100005
0.32537046 0.19641629 0.68100005
0.32656446 0.19641629 0.68100005
0.32775849 0.19641629 0.68100005
0.32943556 0.19670472 0.68200004
0.3316009 0.19728155 0.68400002
0.22670074 0.19093625 0.65800005
0.22716187 0.1903559 0.65600002
0.22866009 0.19064607 0.65700001
0.22946224 0.1903559 0.65600002
0.23026088 0.19006571 0.65500003
0.23140931 0.19006571 0.65500003
0.23255774 0.19006571 0.65500003
0.23334938 0.18977554 0.65400004
0.23306184 0.18861483 0.65000004
0.23312058 0.1877443 0.64700001
0.23425497 0.1877443 0.64700001
0.23829992 0.19006571 0.65500003
0.23944835 0.19006571 0.65500003
0.24169876 0.19093625 0.65800005
0.24359059 0.19151659 0.66000003
0.24511863 0.19180678 0.66100001
0.24627759 0.19180678 0.66100001
0.24781087 0.19209695 0.66200006
0.24897158 0.19209695 0.66200006
0.25013229 0.19209695 0.66200006
0.251293 0.19209695 0.66200006
0.25245368 0.19209695 0.66200006
0.2539975 0.19238713 0.66300005
0.25515997 0.19238713 0.66300005
0.25632241 0.19238713 0.66300005
0.25748488 0.19238713 0.66300005
0.25786713 0.19180678 0.66100001
0.25902608 0.19180678 0.66100001
0.26018503 0.19180678 0.66100001
0.26134399 0.19180678 0.66100001
0.26290005 0.19209695 0.66200006
0.26445964 0.19238713 0.66300005
0.26682401 0.19325766 0.66600001
0.26799175 0.19325766 0.66600001
0.26915947 0.19325766 0.66600001
0.27032718 0.19325766 0.66600001
0.2714949 0.19325766 0.66600001
0.27266261 0.19325766 0.66600001
0.27383032 0.19325766 0.66600001
0.27499807 0.19325766 0.66600001
0.27616578 0.19325766 0.66600001
0.2773335 0.19325766 0.66600001
0.27850121 0.19325766 0.66600001
0.27966893 0.19325766 0.66600001
0.28083667 0.19325766 0.66600001
0.28200439 0.19325766 0.66600001
0.2831721 0.19325766 0.66600001
0.28562063 0.19412819 0.66900003
0.28679362 0.19412819 0.66900003
0.28710571 0.19354783 0.66700006
0.28827518 0.19354783 0.66700006
0.28944466 0.19354783 0.66700006
0.29148552 0.19412819 0.66900003
0.29397088 0.19499871 0.67200005
0.29558831 0.1952889 0.67300004
0.2958864 0.19470854 0.671
0.29706287 0.19470854 0.671
0.29912829 0.1952889 0.67300004
0.30075452 0.19557907 0.67400002
0.30238426 0.19586925 0.67500001
0.30266827 0.1952889 0.67300004
0.30429977 0.19557907 0.67400002
0.30638799 0.19615942 0.67600006
0.30711824 0.19586925 0.67500001
0.3087585 0.19615942 0.67600006
0.30948526 0.19586925 0.67500001
0.31066874 0.19586925 0.67500001
0.31092826 0.1952889 0.67300004
0.31303576 0.19586925 0.67500001
0.31515026 0.19644961 0.67700005
0.31633729 0.19644961 0.67700005
0.31752428 0.19644961 0.67700005
0.31918207 0.19673978 0.67800003
0.32131585 0.19732013 0.68000001
0.32250813 0.19732013 0.68000001
0.32465246 0.19790049 0.68200004
0.32584822 0.19790049 0.68200004
0.32656446 0.1976103 0.68100005
0.32823977 0.19790049 0.68200004
0.32943556 0.19790049 0.68200004
0.3316009 0.19848084 0.68400002
0.22371131 0.19150607 0.65600002
0.22486149 0.19150607 0.65600002
0.22566715 0.19121414 0.65500003
0.22750814 0.191798 0.65700001
0.22900812 0.19208995 0.65800005
0.22911245 0.19121414 0.65500003
0.23026088 0.19121414 0.65500003
0.23140931 0.19121414 0.65500003
0.23255774 0.19121414 0.65500003
0.23370618 0.19121414 0.65500003
0.23485461 0.19121414 0.65500003
0.23492213 0.19033836 0.65200001
0.2360653 0.19033836 0.65200001
0.23829992 0.19121414 0.65500003
0.23944835 0.19121414 0.65500003
0.2409641 0.19150607 0.65600002
0.24322152 0.19238187 0.65900004
0.2447478 0.1926738 0.66000003
0.24627759 0.19296573 0.66100001
0.24743654 0.19296573 0.66100001
0.24859549 0.19296573 0.66100001
0.24975444 0.19296573 0.66100001
0.25091338 0.19296573 0.66100001
0.25207233 0.19296573 0.66100001
0.2539975 0.19354959 0.66300005
0.25515997 0.19354959 0.66300005
0.25593582 0.19325766 0.66200006
0.25631979 0.1926738 0.66000003
0.25747699 0.1926738 0.66000003
0.25785047 0.19208995 0.65800005
0.25900415 0.19208995 0.65800005
0.26015785 0.19208995 0.65800005
0.26210579 0.1926738 0.66000003
0.26326299 0.1926738 0.66000003
0.26562211 0.19354959 0.66300005
0.26638219 0.19325766 0.66200006
0.26835117 0.19384152 0.66400003
0.26910949 0.19354959 0.66300005
0.27027196 0.19354959 0.66300005
0.27225322 0.19413345 0.66500002
0.27341917 0.19413345 0.66500002
0.27541098 0.1947173 0.66700006
0.27575111 0.19413345 0.66500002
0.27691707 0.19413345 0.66500002
0.27850121 0.19442537 0.66600001
0.27966893 0.19442537 0.66600001
0.28041497 0.19413345 0.66500002
0.28115752 0.19384152 0.66400003
0.2831721 0.19442537 0.66600001
0.28562063 0.19530118 0.66900003
0.28679362 0.19530118 0.66900003
0.28667524 0.19442537 0.66600001
0.28784299 0.19442537 0.66600001
0.28944466 0.1947173 0.66700006
0.29148552 0.19530118 0.66900003
0.29397088 0.19617696 0.67200005
0.29558831 0.19646889 0.67300004
0.2958864 0.19588503 0.671
0.2979483 0.19646889 0.67300004
0.29957277 0.19676082 0.67400002
0.30075452 0.19676082 0.67400002
0.30238426 0.19705275 0.67500001
0.30311802 0.19676082 0.67400002
0.30429977 0.19676082 0.67400002
0.30638799 0.19734468 0.67600006
0.30711824 0.19705275 0.67500001
0.3087585 0.19734468 0.67600006
0.30948526 0.19705275 0.67500001
0.31066874 0.19705275 0.67500001
0.31139025 0.19676082 0.67400002
0.312572 0.19676082 0.67400002
0.31515026 0.1976366 0.67700005
0.31633729 0.1976366 0.67700005
0.31752428 0.1976366 0.67700005
0.31918207 0.19792853 0.67800003
0.32131585 0.19851241 0.68000001
0.32250813 0.19851241 0.68000001
0.32465246 0.19909626 0.68200004
0.32584822 0.19909626 0.68200004
0.32656446 0.19880433 0.68100005
0.32823977 0.19909626 0.68200004
0.32943556 0.19909626 0.68200004
0.33208573 0.19997205 0.68500006
0.21581867 0.19177522 0.65300006
0.2169636 0.19177522 0.65300006
0.21844254 0.1920689 0.65400004
0.21958922 0.1920689 0.65400004
0.22073589 0.1920689 0.65400004
0.22120404 0.19148153 0.65200001
0.22302926 0.1920689 0.65400004
0.22417594 0.1920689 0.65400004
0.22532262 0.1920689 0.65400004
0.22681558 0.19236258 0.65500003
0.22866009 0.19294995 0.65700001
0.22981203 0.19294995 0.65700001
0.23096398 0.19294995 0.65700001
0.23211591 0.19294995 0.65700001
0.23326784 0.19294995 0.65700001
0.23370618 0.19236258 0.65500003
0.23485461 0.19236258 0.65500003
0.23600304 0.19236258 0.65500003
0.23715149 0.19236258 0.65500003
0.23829992 0.19236258 0.65500003
0.23944835 0.19236258 0.65500003
0.2409641 0.19265626 0.65600002
0.24322152 0.19353731 0.65900004
0.2447478 0.193831 0.66000003
0.245905 0.193831 0.66000003
0.24706219 0.193831 0.66000003
0.24897158 0.19441837 0.66200006
0.25013229 0.19441837 0.66200006
0.2516726 0.19471204 0.66300005
0.25283504 0.19471204 0.66300005
0.2536144 0.19441837 0.66200006
0.25439027 0.19412468 0.66100001
0.25593582 0.19441837 0.66200006
0.25631979 0.193831 0.66000003
0.25708687 0.19353731 0.65900004
0.2574586 0.19294995 0.65700001
0.25861052 0.19294995 0.65700001
0.25976247 0.19294995 0.65700001
0.26210579 0.193831 0.66000003
0.26326299 0.193831 0.66000003
0.26522148 0.19441837 0.66200006
0.26638219 0.19441837 0.66200006
0.2675429 0.19441837 0.66200006
0.26870358 0.19441837 0.66200006
0.26986429 0.19441837 0.66200006
0.27184382 0.19500573 0.66400003
0.27341917 0.19529942 0.66500002
0.27541098 0.19588678 0.66700006
0.27658045 0.19588678 0.66700006
0.2773335 0.1955931 0.66600001
0.2789194 0.19588678 0.66700006
0.28008887 0.19588678 0.66700006
0.28041497 0.19529942 0.66500002
0.28158095 0.19529942 0.66500002
0.28359729 0.19588678 0.66700006
0.28476676 0.19588678 0.66700006
0.28679362 0.19647415 0.66900003
0.28667524 0.1955931 0.66600001
0.28827518 0.19588678 0.66700006
0.28987861 0.19618046 0.66800004
0.29148552 0.19647415 0.66900003
0.29309598 0.19676784 0.67000002
0.29427069 0.19676784 0.67000002
0.29544544 0.19676784 0.67000002
0.2979483 0.19764888 0.67300004
0.29957277 0.19794257 0.67400002
0.30075452 0.19794257 0.67400002
0.30238426 0.19823624 0.67500001
0.30266827 0.19764888 0.67300004
0.30429977 0.19794257 0.67400002
0.30593476 0.19823624 0.67500001
0.30802822 0.19882362 0.67700005
0.30830175 0.19823624 0.67500001
0.30948526 0.19823624 0.67500001
0.311129 0.19852993 0.67600006
0.31185225 0.19823624 0.67500001
0.31303576 0.19823624 0.67500001
0.31468475 0.19852993 0.67600006
0.31680453 0.1991173 0.67800003
0.31799328 0.1991173 0.67800003
0.32012358 0.19970466 0.68000001
0.32131585 0.19970466 0.68000001
0.3229824 0.19999835 0.68100005
0.32417643 0.19999835 0.68100005
0.32441488 0.19941097 0.67900002
0.32608494 0.19970466 0.68000001
0.32727718 0.19970466 0.68000001
0.33040163 0.2008794 0.68400002
0.3316009 0.2008794 0.68400002
0.21320182 0.1926247 0.65200001
0.21434499 0.1926247 0.65200001
0.21548817 0.1926247 0.65200001
0.2169636 0.19292015 0.65300006
0.21844254 0.19321558 0.65400004
0.21958922 0.19321558 0.65400004
0.22039838 0.19292015 0.65300006
0.22120404 0.1926247 0.65200001
0.22337028 0.19351101 0.65500003
0.22451872 0.19351101 0.65500003
0.22532262 0.19321558 0.65400004
0.22681558 0.19351101 0.65500003
0.22796401 0.19351101 0.65500003
0.22911245 0.19351101 0.65500003
0.23096398 0.19410188 0.65700001
0.23140931 0.19351101 0.65500003
0.23255774 0.19351101 0.65500003
0.23370618 0.19351101 0.65500003
0.23485461 0.19351101 0.65500003
0.23600304 0.19351101 0.65500003
0.23715149 0.19351101 0.65500003
0.23829992 0.19351101 0.65500003
0.23908278 0.19321558 0.65400004
0.2409641 0.19380645 0.65600002
0.24248336 0.19410188 0.65700001
0.2447478 0.19498821 0.66000003
0.245905 0.19498821 0.66000003
0.24706219 0.19498821 0.66000003
0.24897158 0.19557907 0.66200006
0.25051013 0.19587451 0.66300005
0.2516726 0.19587451 0.66300005
0.25283504 0.19587451 0.66300005
0.2536144 0.19557907 0.66200006
0.25439027 0.19528364 0.66100001
0.25554922 0.19528364 0.66100001
0.25631979 0.19498821 0.66000003
0.25747699 0.19498821 0.66000003
0.25824234 0.19469276 0.65900004
0.25939777 0.19469276 0.65900004
0.26055321 0.19469276 0.65900004
0.26290005 0.19557907 0.66200006
0.26406077 0.19557907 0.66200006
0.26482084 0.19528364 0.66100001
0.26557741 0.19498821 0.66000003
0.26713875 0.19528364 0.66100001
0.2682977 0.19528364 0.66100001
0.26904899 0.19498821 0.66000003
0.271025 0.19557907 0.66200006
0.27259687 0.19587451 0.66300005
0.27458516 0.19646539 0.66500002
0.27616578 0.19676082 0.66600001
0.2773335 0.19676082 0.66600001
0.2789194 0.19705625 0.66700006
0.28008887 0.19705625 0.66700006
0.28083667 0.19676082 0.66600001
0.28158095 0.19646539 0.66500002
0.28359729 0.19705625 0.66700006
0.28519368 0.19735169 0.66800004
0.28679362 0.19764712 0.66900003
0.28796658 0.19764712 0.66900003
0.28957176 0.19794257 0.67000002
0.29031256 0.19764712 0.66900003
0.29192123 0.19794257 0.67000002
0.29309598 0.19794257 0.67000002
0.29427069 0.19794257 0.67000002
0.29544544 0.19794257 0.67000002
0.29706287 0.198238 0.671
0.29823938 0.198238 0.671
0.30030829 0.19882888 0.67300004
0.30148828 0.19882888 0.67300004
0.30266827 0.19882888 0.67300004
0.30429977 0.19912431 0.67400002
0.30502829 0.19882888 0.67300004
0.30620828 0.19882888 0.67300004
0.30830175 0.19941975 0.67500001
0.30948526 0.19941975 0.67500001
0.311129 0.19971518 0.67600006
0.31231424 0.19971518 0.67600006
0.31349951 0.19971518 0.67600006
0.31515026 0.20001063 0.67700005
0.31633729 0.20001063 0.67700005
0.31799328 0.20030606 0.67800003
0.32012358 0.20089693 0.68000001
0.3217884 0.20119236 0.68100005
0.32345667 0.20148781 0.68200004
0.32465246 0.20148781 0.68200004
0.32489267 0.20089693 0.68000001
0.32608494 0.20089693 0.68000001
0.32872108 0.20178324 0.68300003
0.33136773 0.20266955 0.68600005
0.33402491 0.20355587 0.68900001
0.19908836 0.19228193 0.64700001
0.20022278 0.19228193 0.64700001
0.20197962 0.19287631 0.64900005
0.20249158 0.19228193 0.64700001
0.20299655 0.19168755 0.64500004
0.20412745 0.19168755 0.64500004
0.20589481 0.19228193 0.64700001
0.20702921 0.19228193 0.64700001
0.21140817 0.1931735 0.65000004
0.21320182 0.19376788 0.65200001
0.21434499 0.19376788 0.65200001
0.21482717 0.1931735 0.65000004
0.21629909 0.19347069 0.65100002
0.21777453 0.19376788 0.65200001
0.21925345 0.19406506 0.65300006
0.22039838 0.19406506 0.65300006
0.22120404 0.19376788 0.65200001
0.22268823 0.19406506 0.65300006
0.22383316 0.19406506 0.65300006
0.22532262 0.19436225 0.65400004
0.22681558 0.19465944 0.65500003
0.22831205 0.19495665 0.65600002
0.22876266 0.19436225 0.65400004
0.23026088 0.19465944 0.65500003
0.23140931 0.19465944 0.65500003
0.23255774 0.19465944 0.65500003
0.23370618 0.19465944 0.65500003
0.23485461 0.19465944 0.65500003
0.23600304 0.19465944 0.65500003
0.23715149 0.19465944 0.65500003
0.23829992 0.19465944 0.65500003
0.23908278 0.19436225 0.65400004
0.24059679 0.19465944 0.65500003
0.24211429 0.19495665 0.65600002
0.24400614 0.19555102 0.65800005
0.24515983 0.19555102 0.65800005
0.24668786 0.19584821 0.65900004
0.24897158 0.19673978 0.66200006
0.25013229 0.19673978 0.66200006
0.251293 0.19673978 0.66200006
0.25245368 0.19673978 0.66200006
0.25323129 0.19644259 0.66100001
0.25515997 0.19703697 0.66300005
0.25593582 0.19673978 0.66200006
0.25709653 0.19673978 0.66200006
0.25864735 0.19703697 0.66300005
0.25863421 0.1961454 0.66000003
0.2597914 0.1961454 0.66000003
0.26055321 0.19584821 0.65900004
0.26170868 0.19584821 0.65900004
0.26326299 0.1961454 0.66000003
0.26442021 0.1961454 0.66000003
0.26557741 0.1961454 0.66000003
0.26633045 0.19584821 0.65900004
0.26748589 0.19584821 0.65900004
0.26864135 0.19584821 0.65900004
0.27061561 0.19644259 0.66100001
0.27259687 0.19703697 0.66300005
0.27458516 0.19763134 0.66500002
0.27616578 0.19792853 0.66600001
0.2773335 0.19792853 0.66600001
0.2789194 0.19822572 0.66700006
0.28008887 0.19822572 0.66700006
0.28125834 0.19822572 0.66700006
0.28242782 0.19822572 0.66700006
0.28359729 0.19822572 0.66700006
0.2864745 0.19941449 0.671
0.287651 0.19941449 0.671
0.28796658 0.19882011 0.66900003
0.29043615 0.19971168 0.67200005
0.29161438 0.19971168 0.67200005
0.29322833 0.20000887 0.67300004
0.29309598 0.1991173 0.67000002
0.29427069 0.1991173 0.67000002
0.29544544 0.1991173 0.67000002
0.29662016 0.1991173 0.67000002
0.29823938 0.19941449 0.671
0.29941586 0.19941449 0.671
0.30104032 0.19971168 0.67200005
0.30221856 0.19971168 0.67200005
0.30384827 0.20000887 0.67300004
0.30548152 0.20030606 0.67400002
0.30666324 0.20030606 0.67400002
0.3087585 0.20090044 0.67600006
0.31040224 0.20119762 0.67700005
0.311129 0.20090044 0.67600006
0.31231424 0.20090044 0.67600006
0.31396326 0.20119762 0.67700005
0.31515026 0.20119762 0.67700005
0.31680453 0.20149481 0.67800003
0.31799328 0.20149481 0.67800003
0.32059437 0.20238639 0.68100005
0.32226092 0.20268358 0.68200004
0.32345667 0.20268358 0.68200004
0.32465246 0.20268358 0.68200004
0.3268038 0.20327796 0.68400002
0.32800308 0.20327796 0.68400002
0.33016494 0.20387234 0.68600005
0.33185077 0.20416953 0.68700004
0.3345097 0.20506109 0.69000006
0.15109876 0.19012795 0.63600004
0.15221389 0.19012795 0.63600004
0.15260574 0.18923113 0.63300002
0.15371561 0.18923113 0.63300002
0.1897545 0.19431317 0.65000004
0.19060048 0.19401422 0.64900005
0.19144295 0.19371527 0.648
0.19257912 0.19371527 0.648
0.19401422 0.19401422 0.64900005
0.19856587 0.19401422 0.64900005
0.19970378 0.19401422 0.64900005
0.20053224 0.19371527 0.648
0.20135719 0.19341634 0.64700001
0.2034305 0.19431317 0.65000004
0.20362599 0.19341634 0.64700001
0.2047604 0.19341634 0.64700001
0.20525835 0.19281845 0.64500004
0.20638925 0.19281845 0.64500004
0.20784189 0.1931174 0.64600003
0.20897454 0.1931174 0.64600003
0.21108292 0.19401422 0.64900005
0.21254784 0.19431317 0.65000004
0.21335874 0.19401422 0.64900005
0.21449666 0.19401422 0.64900005
0.21563457 0.19401422 0.64900005
0.21777453 0.19491105 0.65200001
0.2189177 0.19491105 0.65200001
0.21972334 0.19461212 0.65100002
0.2205255 0.19431317 0.65000004
0.22166516 0.19431317 0.65000004
0.22280483 0.19431317 0.65000004
0.22497809 0.19520999 0.65300006
0.22681558 0.19580789 0.65500003
0.22831205 0.19610682 0.65600002
0.22911245 0.19580789 0.65500003
0.23061243 0.19610682 0.65600002
0.23211591 0.19640577 0.65700001
0.23255774 0.19580789 0.65500003
0.23370618 0.19580789 0.65500003
0.23413751 0.19520999 0.65300006
0.23528242 0.19520999 0.65300006
0.23715149 0.19580789 0.65500003
0.23866373 0.19610682 0.65600002
0.23908278 0.19550894 0.65400004
0.24059679 0.19580789 0.65500003
0.24137613 0.19550894 0.65400004
0.24363531 0.19640577 0.65700001
0.24478725 0.19640577 0.65700001
0.24556485 0.19610682 0.65600002
0.24859549 0.19760154 0.66100001
0.25013229 0.19790049 0.66200006
0.251293 0.19790049 0.66200006
0.25245368 0.19790049 0.66200006
0.25323129 0.19760154 0.66100001
0.25515997 0.19819944 0.66300005
0.25593582 0.19790049 0.66200006
0.25709653 0.19790049 0.66200006
0.25864735 0.19819944 0.66300005
0.25863421 0.19730259 0.66000003
0.2597914 0.19730259 0.66000003
0.26055321 0.19700366 0.65900004
0.26170868 0.19700366 0.65900004
0.26286411 0.19700366 0.65900004
0.26401955 0.19700366 0.65900004
0.26517501 0.19700366 0.65900004
0.26633045 0.19700366 0.65900004
0.26748589 0.19700366 0.65900004
0.26864135 0.19700366 0.65900004
0.27061561 0.19760154 0.66100001
0.27259687 0.19819944 0.66300005
0.27458516 0.19879732 0.66500002
0.27616578 0.19909626 0.66600001
0.2773335 0.19909626 0.66600001
0.2789194 0.19939519 0.66700006
0.28008887 0.19939519 0.66700006
0.28125834 0.19939519 0.66700006
0.28242782 0.19939519 0.66700006
0.28359729 0.19939519 0.66700006
0.28604758 0.20029204 0.67000002
0.287651 0.20059097 0.671
0.28882748 0.20059097 0.671
0.29130057 0.20148781 0.67400002
0.29161438 0.20088992 0.67200005
0.29322833 0.20118886 0.67300004
0.29440832 0.20118886 0.67300004
0.29514912 0.20088992 0.67200005
0.29544544 0.20029204 0.67000002
0.29662016 0.20029204 0.67000002
0.29823938 0.20059097 0.671
0.29986209 0.20088992 0.67200005
0.30148828 0.20118886 0.67300004
0.30266827 0.20118886 0.67300004
0.30384827 0.20118886 0.67300004
0.30548152 0.20148781 0.67400002
0.30802822 0.20238464 0.67700005
0.30921525 0.20238464 0.67700005
0.31040224 0.20238464 0.67700005
0.3102085 0.20148781 0.67400002
0.31277627 0.20238464 0.67700005
0.31396326 0.20238464 0.67700005
0.31515026 0.20238464 0.67700005
0.31773907 0.20328146 0.68000001
0.31893134 0.20328146 0.68000001
0.32106513 0.20387936 0.68200004
0.32226092 0.20387936 0.68200004
0.32440522 0.20447724 0.68400002
0.32655656 0.20507513 0.68600005
0.32775936 0.20507513 0.68600005
0.32848263 0.20477618 0.68500006
0.33112752 0.20567301 0.68800002
0.33281687 0.20597196 0.68900001
0.33547929 0.20686878 0.69200003
0.34301776 0.21075505 0.70500004
0.14640771 0.19094238 0.63500005
0.14728877 0.19064169 0.634
0.15109876 0.19124308 0.63600004
0.15221389 0.19124308 0.63600004
0.15260574 0.190341 0.63300002
0.15371561 0.190341 0.63300002
0.16767828 0.19364865 0.64400005
0.16802105 0.19274656 0.64100003
0.16914494 0.19274656 0.64100003
0.17026883 0.19274656 0.64100003
0.18887872 0.19455074 0.64700001
0.19060048 0.19515213 0.64900005
0.19144295 0.19485144 0.648
0.19257912 0.19485144 0.648
0.19341634 0.19455074 0.64700001
0.19455074 0.19455074 0.64700001
0.19568515 0.19455074 0.64700001
0.19651535 0.19425005 0.64600003
0.19795397 0.19455074 0.64700001
0.19908836 0.19455074 0.64700001
0.20022278 0.19455074 0.64700001
0.20135719 0.19455074 0.64700001
0.20249158 0.19455074 0.64700001
0.20362599 0.19455074 0.64700001
0.20507687 0.19485144 0.648
0.20653127 0.19515213 0.64900005
0.20638925 0.19394934 0.64500004
0.20752014 0.19394934 0.64500004
0.20865105 0.19394934 0.64500004
0.21108292 0.19515213 0.64900005
0.21222083 0.19515213 0.64900005
0.21335874 0.19515213 0.64900005
0.21449666 0.19515213 0.64900005
0.21563457 0.19515213 0.64900005
0.21777453 0.19605422 0.65200001
0.2189177 0.19605422 0.65200001
0.21938583 0.19545284 0.65000004
0.2205255 0.19545284 0.65000004
0.22234721 0.19605422 0.65200001
0.22383316 0.19635493 0.65300006
0.22497809 0.19635493 0.65300006
0.22681558 0.19695632 0.65500003
0.22796401 0.19695632 0.65500003
0.22911245 0.19695632 0.65500003
0.23026088 0.19695632 0.65500003
0.23176262 0.19725701 0.65600002
0.23255774 0.19695632 0.65500003
0.23334938 0.19665562 0.65400004
0.23449606 0.19665562 0.65400004
0.23528242 0.19635493 0.65300006
0.23678942 0.19665562 0.65400004
0.23902754 0.1975577 0.65700001
0.23981392 0.19725701 0.65600002
0.2409641 0.19725701 0.65600002
0.24137613 0.19665562 0.65400004
0.24252282 0.19665562 0.65400004
0.24366949 0.19665562 0.65400004
0.24556485 0.19725701 0.65600002
0.24784331 0.1981591 0.65900004
0.2493766 0.1984598 0.66000003
0.25053379 0.1984598 0.66000003
0.25207233 0.19876049 0.66100001
0.25284821 0.1984598 0.66000003
0.25439027 0.19876049 0.66100001
0.25554922 0.19876049 0.66100001
0.25593144 0.1981591 0.65900004
0.25786713 0.19876049 0.66100001
0.25902608 0.19876049 0.66100001
0.25939777 0.1981591 0.65900004
0.26055321 0.1981591 0.65900004
0.26170868 0.1981591 0.65900004
0.26246524 0.19785841 0.65800005
0.26401955 0.1981591 0.65900004
0.26517501 0.1981591 0.65900004
0.26633045 0.1981591 0.65900004
0.26748589 0.1981591 0.65900004
0.26864135 0.1981591 0.65900004
0.27061561 0.19876049 0.66100001
0.27259687 0.19936189 0.66300005
0.27458516 0.19996329 0.66500002
0.27616578 0.20026398 0.66600001
0.27774993 0.20056468 0.66700006
0.2789194 0.20056468 0.66700006
