# .PCD v0.7 - Point Cloud Data file format
VERSION 0.7
FIELDS x y z
SIZE 4 4 4
TYPE F F F
COUNT 1 1 1
WIDTH 414
HEIGHT 1
VIEWPOINT 0 0 0 1 0 0 0
POINTS 414
DATA ascii
0.050511781 -0.14133094 0.58200002
0.05153222 -0.14133094 0.58200002
0.052372068 -0.14084527 0.58000004
0.05329695 -0.14060242 0.57900006
0.054312129 -0.14060242 0.57900006
0.055327311 -0.14060242 0.57900006
0.05634249 -0.14060242 0.57900006
0.05706048 -0.13987392 0.57600003
0.058171216 -0.14011675 0.57700002
0.09200529 -0.21782449 0.89700001
0.093578026 -0.21782449 0.89700001
0.095150769 -0.21782449 0.89700001
0.096723512 -0.21782449 0.89700001
0.098296247 -0.21782449 0.89700001
0.09986899 -0.21782449 0.89700001
0.10121555 -0.21733882 0.89500004
0.10278478 -0.21733882 0.89500004
0.10435402 -0.21733882 0.89500004
0.10473975 -0.21491045 0.88500005
0.10629145 -0.21491045 0.88500005
0.10808686 -0.21539612 0.88700002
0.10951846 -0.21515329 0.88600004
-0.061991729 -0.21046574 0.87300003
-0.060530327 -0.21070683 0.87400001
0.10295486 -0.21132839 0.88300002
0.1046214 -0.21156771 0.88400006
0.10605124 -0.21132839 0.88300002
0.10735572 -0.21084973 0.88100004
0.10902402 -0.21108906 0.88200003
-0.06149466 -0.20574139 0.86600006
-0.059976272 -0.20574139 0.86600006
-0.058592893 -0.20621654 0.86800003
-0.057071 -0.20621654 0.86800003
-0.055549107 -0.20621654 0.86800003
-0.054089457 -0.20645413 0.86900002
-0.052565809 -0.20645413 0.86900002
-0.051042162 -0.20645413 0.86900002
-0.049518518 -0.20645413 0.86900002
-0.047994871 -0.20645413 0.86900002
-0.046578176 -0.20692928 0.87100005
-0.045051023 -0.20692928 0.87100005
-0.04352387 -0.20692928 0.87100005
-0.041996717 -0.20692928 0.87100005
-0.0174895 -0.1354187 0.57000005
-0.0164901 -0.1354187 0.57000005
-0.0154907 -0.1354187 0.57000005
-0.014542147 -0.13589385 0.57200003
-0.01358658 -0.136369 0.574
-0.012580167 -0.136369 0.574
-0.011593916 -0.13660659 0.57500005
-0.01058575 -0.13660659 0.57500005
-0.0097108362 -0.1385072 0.583
-0.0086886436 -0.1385072 0.583
-0.00766645 -0.1385072 0.583
-0.0066556535 -0.13874477 0.58400005
-0.0056317067 -0.13874477 0.58400005
-0.00461565 -0.13898236 0.58500004
-0.0035960868 -0.13921992 0.58600003
-0.0025686333 -0.13921992 0.58600003
-0.00154907 -0.13993266 0.58900005
-0.00051635667 -0.13993266 0.58900005
0.00051635667 -0.13993266 0.58900005
0.00155433 -0.14040782 0.59100002
0.0025905499 -0.14040782 0.59100002
0.0036390433 -0.14088297 0.59300005
0.0046629901 -0.14040782 0.59100002
0.0056992099 -0.14040782 0.59100002
0.0067354301 -0.14040782 0.59100002
0.0077716499 -0.14040782 0.59100002
0.0088078696 -0.14040782 0.59100002
0.0098774033 -0.14088297 0.59300005
0.01093554 -0.14112054 0.59400004
0.01197702 -0.14112054 0.59400004
0.012996583 -0.14088297 0.59300005
0.01403631 -0.14088297 0.59300005
0.00467877 -0.13880351 0.59300005
0.0056992099 -0.13833536 0.59100002
0.0067354301 -0.13833536 0.59100002
0.0077716499 -0.13833536 0.59100002
0.0088078696 -0.13833536 0.59100002
0.0098607466 -0.13856944 0.59200001
0.01091713 -0.13880351 0.59300005
0.011936693 -0.13856944 0.59200001
0.0130185 -0.13903758 0.59400004
0.014059979 -0.13903758 0.59400004
0.015076037 -0.13880351 0.59300005
0.016115764 -0.13880351 0.59300005
0.017155491 -0.13880351 0.59300005
0.018195217 -0.13880351 0.59300005
0.019234944 -0.13880351 0.59300005
0.020274671 -0.13880351 0.59300005
0.021314397 -0.13880351 0.59300005
0.02239182 -0.13903758 0.59400004
0.023472751 -0.13927165 0.59500003
0.024474779 -0.13903758 0.59400004
0.025473304 -0.13880351 0.59300005
0.026513031 -0.13880351 0.59300005
0.027552757 -0.13880351 0.59300005
0.028544266 -0.13856944 0.59200001
0.02958224 -0.13856944 0.59200001
0.030620214 -0.13856944 0.59200001
0.031604711 -0.13833536 0.59100002
0.032751389 -0.13880351 0.59300005
0.047531988 -0.13441843 0.583
0.048470899 -0.13418786 0.58200002
0.049491338 -0.13418786 0.58200002
0.050424989 -0.1339573 0.58100003
0.051355135 -0.13372673 0.58000004
0.052372068 -0.13372673 0.58000004
0.05329695 -0.13349617 0.57900006
0.054218326 -0.1332656 0.57800001
0.055136196 -0.13303505 0.57700002
0.056050561 -0.13280448 0.57600003
0.05706048 -0.13280448 0.57600003
0.057868768 -0.13234335 0.574
0.05867004 -0.13188222 0.57200003
0.059568621 -0.13165167 0.57100004
0.0604637 -0.1314211 0.57000005
0.061247438 -0.13095997 0.56800002
0.062133748 -0.13072941 0.56700003
0.062571205 -0.12957659 0.56200004
0.063443489 -0.12934603 0.56100005
0.064427108 -0.12934603 0.56100005
0.065410733 -0.12934603 0.56100005
0.066394351 -0.12934603 0.56100005
-0.060500521 -0.19494613 0.85200006
-0.05900668 -0.19494613 0.85200006
-0.057512838 -0.19494613 0.85200006
-0.056019001 -0.19494613 0.85200006
-0.054781146 -0.19586135 0.85600007
-0.054027215 -0.19860707 0.86800003
-0.052384339 -0.19814946 0.86600006
-0.050807215 -0.19792065 0.86500007
-0.049290583 -0.19792065 0.86500007
-0.04777395 -0.19792065 0.86500007
-0.04636427 -0.19837826 0.86700004
-0.044792406 -0.19814946 0.86600006
-0.01945411 -0.13019289 0.56900001
-0.018456463 -0.13019289 0.56900001
-0.0174895 -0.1304217 0.57000005
-0.0164901 -0.1304217 0.57000005
-0.015463524 -0.13019289 0.56900001
-0.014516723 -0.13065051 0.57100004
-0.01353924 -0.13087931 0.57200003
-0.01255825 -0.13110813 0.57300001
-0.01161408 -0.13179456 0.57600003
-0.01062257 -0.13202336 0.57700002
-0.0096442103 -0.13248099 0.57900006
-0.0086886436 -0.13339622 0.583
-0.0076795998 -0.13362505 0.58400005
-0.0066442564 -0.13339622 0.583
-0.0056220633 -0.13339622 0.583
-0.0046077599 -0.13362505 0.58400005
-0.00358995 -0.13385385 0.58500004
-0.0025686333 -0.13408266 0.58600003
-0.00154907 -0.13476908 0.58900005
-0.00051723333 -0.1349979 0.59000003
0.00051723333 -0.1349979 0.59000003
0.00155433 -0.13522671 0.59100002
0.0025905499 -0.13522671 0.59100002
0.0036329066 -0.13545552 0.59200001
0.0046708798 -0.13545552 0.59200001
0.0057184966 -0.13568433 0.59300005
0.0067354301 -0.13522671 0.59100002
0.0077716499 -0.13522671 0.59100002
0.05329695 -0.13045064 0.57900006
0.054312129 -0.13045064 0.57900006
0.055231754 -0.13022533 0.57800001
0.056050561 -0.12977472 0.57600003
0.056961417 -0.12954941 0.57500005
0.057868768 -0.12932411 0.574
0.058772609 -0.1290988 0.57300001
0.059568621 -0.12864821 0.57100004
0.060251545 -0.12797229 0.56800002
0.061247438 -0.12797229 0.56800002
0.062024165 -0.12752168 0.56600004
0.062571205 -0.12662047 0.56200004
0.063556582 -0.12662047 0.56200004
0.064427108 -0.12639517 0.56100005
0.065294132 -0.12616986 0.56
0.066157646 -0.12594457 0.55900002
0.066897556 -0.12549396 0.55700004
0.067752309 -0.12526865 0.55600005
0.068727158 -0.12526865 0.55600005
-0.01941992 -0.1269764 0.56800002
-0.018424027 -0.1269764 0.56800002
-0.017428134 -0.1269764 0.56800002
-0.016432241 -0.1269764 0.56800002
-0.01540917 -0.12675285 0.56700003
-0.014440454 -0.1269764 0.56800002
-0.01353924 -0.1278706 0.57200003
-0.012536333 -0.1278706 0.57200003
-0.011573753 -0.1283177 0.574
-0.01058575 -0.12854125 0.57500005
-0.0095942402 -0.12876479 0.57600003
-0.0085843196 -0.12876479 0.57600003
0.00154907 -0.12857281 0.58900005
0.0025817833 -0.12857281 0.58900005
0.0036206334 -0.12879109 0.59000003
0.0046629901 -0.1290094 0.59100002
0.0056992099 -0.1290094 0.59100002
0.0067468267 -0.12922768 0.59200001
0.0077848001 -0.12922768 0.59200001
0.0088376766 -0.12944597 0.59300005
0.0098774033 -0.12944597 0.59300005
0.01091713 -0.12944597 0.59300005
0.01197702 -0.12966426 0.59400004
0.0130185 -0.12966426 0.59400004
0.01403631 -0.12944597 0.59300005
0.015076037 -0.12944597 0.59300005
0.016115764 -0.12944597 0.59300005
0.01718442 -0.12966426 0.59400004
0.018225899 -0.12966426 0.59400004
0.01926738 -0.12966426 0.59400004
0.020377239 -0.13010085 0.59600002
0.021422226 -0.13010085 0.59600002
0.022467213 -0.13010085 0.59600002
0.0234333 -0.12966426 0.59400004
0.024433577 -0.12944597 0.59300005
0.025473304 -0.12944597 0.59300005
0.026513031 -0.12944597 0.59300005
0.027506294 -0.12922768 0.59200001
0.028496049 -0.1290094 0.59100002
0.029532271 -0.1290094 0.59100002
0.03056849 -0.1290094 0.59100002
0.031604711 -0.1290094 0.59100002
0.03264093 -0.1290094 0.59100002
0.033791117 -0.12944597 0.59300005
0.034830842 -0.12944597 0.59300005
0.035749588 -0.1290094 0.59100002
0.036723565 -0.12879109 0.59000003
0.037694037 -0.12857281 0.58900005
0.038792498 -0.12879109 0.59000003
0.039826967 -0.12879109 0.59000003
0.040861432 -0.12879109 0.59000003
0.041824888 -0.12857281 0.58900005
0.042857602 -0.12857281 0.58900005
0.043815799 -0.12835452 0.588
0.04477049 -0.12813623 0.58700001
0.04564365 -0.12769964 0.58500004
0.046669349 -0.12769964 0.58500004
0.04761352 -0.12748136 0.58400005
0.048554182 -0.12726307 0.583
0.049491338 -0.12704478 0.58200002
0.050424989 -0.12682649 0.58100003
0.051266588 -0.12638991 0.57900006
0.052191474 -0.12617162 0.57800001
0.05329695 -0.12638991 0.57900006
0.054218326 -0.12617162 0.57800001
0.055136196 -0.12595333 0.57700002
0.056050561 -0.12573504 0.57600003
0.056862354 -0.12529846 0.574
0.057667132 -0.12486188 0.57200003
0.058567468 -0.12464359 0.57100004
0.059464298 -0.1244253 0.57000005
0.06060046 -0.12267898 0.56200004
0.061585832 -0.12267898 0.56200004
0.062348533 -0.1222424 0.56
0.063217312 -0.12202411 0.55900002
0.064197421 -0.12202411 0.55900002
0.065060936 -0.12180582 0.55800003
0.066039301 -0.12180582 0.55800003
0.06701766 -0.12180582 0.55800003
-0.058867291 -0.17950889 0.82900006
-0.057413775 -0.17950889 0.82900006
-0.056095269 -0.17994197 0.83100003
-0.054703999 -0.18015851 0.83200002
-0.053245228 -0.18015851 0.83200002
-0.01365759 -0.12494165 0.57700002
-0.012645917 -0.12494165 0.57700002
-0.011634244 -0.12494165 0.57700002
0.045799695 -0.12504861 0.58700001
0.046669349 -0.12462255 0.58500004
0.04761352 -0.12440952 0.58400005
0.048554182 -0.12419649 0.583
0.049406301 -0.12377043 0.58100003
0.050424989 -0.12377043 0.58100003
0.051355135 -0.1235574 0.58000004
0.052281771 -0.12334437 0.57900006
0.05329695 -0.12334437 0.57900006
0.054218326 -0.12313134 0.57800001
0.055136196 -0.12291831 0.57700002
0.056050561 -0.12270528 0.57600003
0.05706048 -0.12270528 0.57600003
-0.00154907 -0.12134381 0.58900005
-0.00051635667 -0.12134381 0.58900005
0.00052424666 -0.12319797 0.59800005
0.00157274 -0.12319797 0.59800005
0.0026212332 -0.12319797 0.59800005
0.0036635899 -0.12299195 0.597
0.0047103302 -0.12299195 0.597
0.0057570701 -0.12299195 0.597
0.0068038101 -0.12299195 0.597
0.0078637004 -0.12319797 0.59800005
0.0089121936 -0.12319797 0.59800005
0.0099940002 -0.12361 0.60000002
0.01100918 -0.12319797 0.59800005
0.012077836 -0.12340398 0.59900004
0.013128083 -0.12340398 0.59900004
0.01417833 -0.12340398 0.59900004
0.015203153 -0.12319797 0.59800005
0.016251646 -0.12319797 0.59800005
0.01730014 -0.12319797 0.59800005
0.018379316 -0.12340398 0.59900004
0.019397127 -0.12319797 0.59800005
0.020479809 -0.12340398 0.59900004
0.021494113 -0.12319797 0.59800005
0.022542607 -0.12319797 0.59800005
0.02355165 -0.12299195 0.597
0.02459839 -0.12299195 0.597
0.025688086 -0.12319797 0.59800005
0.026826 -0.12361 0.60000002
0.027785074 -0.12319797 0.59800005
0.028833566 -0.12319797 0.59800005
0.02988206 -0.12319797 0.59800005
0.030982276 -0.12340398 0.59900004
0.032086 -0.12361 0.60000002
0.033082768 -0.12340398 0.59900004
0.034133017 -0.12340398 0.59900004
0.035065789 -0.12299195 0.597
0.036052041 -0.12278593 0.59600002
0.037097026 -0.12278593 0.59600002
0.038078018 -0.12257992 0.59500003
0.0390555 -0.1223739 0.59400004
0.040029477 -0.12216789 0.59300005
0.041069202 -0.12216789 0.59300005
0.042037919 -0.12196187 0.59200001
0.043075893 -0.12196187 0.59200001
0.04403935 -0.12175585 0.59100002
0.04492303 -0.12134381 0.58900005
0.045799695 -0.12093178 0.58700001
0.046669349 -0.12051975 0.58500004
0.04761352 -0.12031373 0.58400005
0.048554182 -0.12010772 0.583
0.049576376 -0.12010772 0.583
0.050424989 -0.11969569 0.58100003
0.051355135 -0.11948966 0.58000004
0.052462362 -0.11969569 0.58100003
0.0067810165 -0.11945022 0.59500003
0.0078242496 -0.11945022 0.59500003
0.00769012 -0.10359044 0.51600003
0.0085948398 -0.10359044 0.51600003
0.0094811497 -0.10338968 0.51500005
0.010384116 -0.10338968 0.51500005
0.011309 -0.10359044 0.51600003
0.01219005 -0.10338968 0.51500005
0.013093017 -0.10338968 0.51500005
0.016197294 -0.11965097 0.59600002
0.01727121 -0.11985173 0.597
0.018379316 -0.12025324 0.59900004
0.019462001 -0.120454 0.60000002
0.020548189 -0.12065475 0.60100001
0.021601943 -0.12065475 0.60100001
0.0068511502 -0.10185377 0.52100003
0.0077497335 -0.10165826 0.52000004
0.0086281532 -0.10126727 0.51800001
0.0095179696 -0.10107177 0.51700002
0.010424444 -0.10107177 0.51700002
0.011352833 -0.10126727 0.51800001
0.01221372 -0.10087628 0.51600003
0.013093017 -0.10068078 0.51500005
0.01402316 -0.10087628 0.51600003
0.01492788 -0.10087628 0.51600003
0.015863283 -0.10107177 0.51700002
0.016802194 -0.10126727 0.51800001
0.017710419 -0.10126727 0.51800001
0.01865459 -0.10146277 0.51900005
0.026689241 -0.10087628 0.51600003
0.027593959 -0.10087628 0.51600003
0.028388219 -0.10048529 0.514
0.029346416 -0.10068078 0.51500005
0.030366857 -0.10107177 0.51700002
0.031333819 -0.10126727 0.51800001
0.032242045 -0.10126727 0.51800001
0.033150274 -0.10126727 0.51800001
0.034124251 -0.10146277 0.51900005
0.035034228 -0.10146277 0.51900005
0.035944209 -0.10146277 0.51900005
0.0369252 -0.10165826 0.52000004
0.037909698 -0.10185377 0.52100003
0.038823184 -0.10185377 0.52100003
0.03973667 -0.10185377 0.52100003
-0.0032647066 -0.10120591 0.53200001
-0.00232755 -0.10101567 0.53100002
-0.0013939 -0.10082543 0.53000003
-0.00046463334 -0.10082543 0.53000003
0.00046375667 -0.10063519 0.52900004
0.00138864 -0.10044496 0.528
0.0023100167 -0.10025472 0.52700001
0.00322175 -0.099874251 0.52500004
0.0041422499 -0.099874251 0.52500004
0.0050531067 -0.099684015 0.52400005
0.0059718532 -0.099684015 0.52400005
0.044056881 -0.097852655 0.52900004
0.044899359 -0.097667679 0.528
0.04582512 -0.097667679 0.528
0.047282141 -0.09877754 0.53400004
0.048308715 -0.098962516 0.53500003
0.049246751 -0.098962516 0.53500003
0.050372388 -0.099332467 0.537
0.051409487 -0.09951745 0.53800005
0.090678014 -0.13965738 0.75500005
0.092001781 -0.13965738 0.75500005
0.043210901 -0.095249832 0.53000003
0.04422345 -0.095429547 0.53100002
0.045324542 -0.095788985 0.53300005
0.046432648 -0.096148416 0.53500003
0.047724858 -0.096867286 0.53900003
-0.038068373 -0.13098101 0.73600006
-0.036777921 -0.13098101 0.73600006
-0.035439249 -0.13080305 0.73500001
-0.034243476 -0.13115898 0.73700005
-0.022392696 -0.064993434 0.62300003
-0.02024048 -0.061759412 0.59200001
