# .PCD v0.7 - Point Cloud Data file format
VERSION 0.7
FIELDS x y z
SIZE 4 4 4
TYPE F F F
COUNT 1 1 1
WIDTH 327
HEIGHT 1
VIEWPOINT 0 0 0 1 0 0 0
POINTS 327
DATA ascii
-0.3749249 -0.45824155 1.159
-0.28990841 -0.43728659 1.1060001
-0.28796923 -0.43728659 1.1060001
-0.39479983 -0.46526277 1.182
-0.3910661 -0.46329466 1.177
-0.3812781 -0.45896479 1.166
-0.37825799 -0.45778394 1.1630001
-0.37460142 -0.45581582 1.1580001
-0.37257105 -0.45581582 1.1580001
-0.36862078 -0.45345408 1.1520001
-0.36660096 -0.45345408 1.1520001
-0.36426464 -0.45306045 1.151
-0.36035821 -0.4506987 1.1450001
-0.29458368 -0.43652827 1.1090001
-0.29263923 -0.43652827 1.1090001
-0.29069477 -0.43652827 1.1090001
-0.28796923 -0.43534741 1.1060001
-0.28603002 -0.43534741 1.1060001
-0.3944658 -0.46279848 1.1810001
-0.39239511 -0.46279848 1.1810001
-0.38900241 -0.46123099 1.177
-0.38628125 -0.46044725 1.1750001
-0.3812781 -0.45692042 1.166
-0.37825799 -0.4557448 1.1630001
-0.37460142 -0.45378545 1.1580001
-0.37257105 -0.45378545 1.1580001
-0.36862078 -0.45143422 1.1520001
-0.36660096 -0.45143422 1.1520001
-0.36426464 -0.45104235 1.151
-0.36098766 -0.4494749 1.1470001
-0.3589766 -0.4494749 1.1470001
-0.35696551 -0.4494749 1.1470001
-0.35402605 -0.44829929 1.1440001
-0.29927996 -0.43575943 1.1120001
-0.29626074 -0.43419197 1.108
-0.29431805 -0.43419197 1.108
-0.29263923 -0.43458381 1.1090001
-0.28964627 -0.43301636 1.105
-0.28770885 -0.43301636 1.105
-0.28499556 -0.43184075 1.102
-0.28357711 -0.43262449 1.1040001
-0.28189656 -0.43301636 1.105
-0.27483499 -0.43105701 1.1
-0.27290633 -0.43105701 1.1
-0.27073133 -0.43066514 1.0990001
-0.385295 -0.45721674 1.1720001
-0.38095111 -0.45448592 1.1650001
-0.37793276 -0.45331556 1.1620001
-0.37395445 -0.45097485 1.156
-0.37192759 -0.45097485 1.156
-0.36862078 -0.4494144 1.1520001
-0.36660096 -0.4494144 1.1520001
-0.36426464 -0.44902429 1.151
-0.36224654 -0.44902429 1.151
-0.36022848 -0.44902429 1.151
-0.35696551 -0.44746381 1.1470001
-0.35495445 -0.44746381 1.1470001
-0.35202023 -0.44629347 1.1440001
-0.3467918 -0.44473299 1.1400001
-0.33156848 -0.44044173 1.1290001
-0.32673892 -0.43927136 1.126
-0.2995491 -0.43419984 1.113
-0.29626074 -0.43224928 1.108
-0.29431805 -0.43224928 1.108
-0.29184759 -0.43146902 1.1060001
-0.28990841 -0.43146902 1.1060001
-0.28692773 -0.42990857 1.102
-0.28396109 -0.42834809 1.098
-0.28254968 -0.42912832 1.1
-0.28062099 -0.42912832 1.1
-0.27869233 -0.42912832 1.1
-0.27676368 -0.42912832 1.1
-0.27483499 -0.42912832 1.1
-0.27265823 -0.42873821 1.0990001
-0.27097768 -0.42912832 1.1
-0.38029712 -0.45166656 1.1630001
-0.37728226 -0.45050147 1.1600001
-0.37395445 -0.448948 1.156
-0.37192759 -0.448948 1.156
-0.36862078 -0.44739455 1.1520001
-0.36628273 -0.4470062 1.151
-0.3636317 -0.44622946 1.149
-0.36161712 -0.44622946 1.149
-0.36022848 -0.4470062 1.151
-0.35696551 -0.44545275 1.1470001
-0.35495445 -0.44545275 1.1470001
-0.35202023 -0.44428766 1.1440001
-0.35001442 -0.44428766 1.1440001
-0.3467918 -0.44273421 1.1400001
-0.34479299 -0.44273421 1.1400001
-0.34159142 -0.44118074 1.136
-0.33959964 -0.44118074 1.136
-0.33472973 -0.44001564 1.133
-0.33156848 -0.4384622 1.1290001
-0.32958898 -0.4384622 1.1290001
-0.32644874 -0.43690875 1.125
-0.32418782 -0.4365204 1.1240001
-0.32221708 -0.4365204 1.1240001
-0.31910667 -0.43496692 1.12
-0.31714293 -0.43496692 1.12
-0.3151792 -0.43496692 1.12
-0.38029712 -0.44962743 1.1630001
-0.37728226 -0.44846758 1.1600001
-0.37395445 -0.44692117 1.156
-0.37192759 -0.44692117 1.156
-0.36830083 -0.4449881 1.151
-0.3659645 -0.44460151 1.1500001
-0.36394817 -0.44460151 1.1500001
-0.36161712 -0.44421488 1.149
-0.36022848 -0.4449881 1.151
-0.35696551 -0.44344166 1.1470001
-0.35495445 -0.44344166 1.1470001
-0.35202023 -0.44228184 1.1440001
-0.35001442 -0.44228184 1.1440001
-0.3467918 -0.4407354 1.1400001
-0.34479299 -0.4407354 1.1400001
-0.34309489 -0.441122 1.141
-0.33989856 -0.43957555 1.1370001
-0.33760783 -0.43918896 1.136
-0.33472973 -0.43802914 1.133
-0.33156848 -0.4364827 1.1290001
-0.32958898 -0.4364827 1.1290001
-0.32644874 -0.43493626 1.125
-0.32418782 -0.43454963 1.1240001
-0.32221708 -0.43454963 1.1240001
-0.31910667 -0.43300319 1.12
-0.31714293 -0.43300319 1.12
-0.3151792 -0.43300319 1.12
-0.31321546 -0.43300319 1.12
-0.31125173 -0.43300319 1.12
-0.30426997 -0.43145674 1.1160001
-0.30150056 -0.43029693 1.113
-0.29927996 -0.42991033 1.1120001
-0.29599336 -0.42797726 1.107
-0.29325551 -0.42681745 1.1040001
-0.29052821 -0.4256576 1.1010001
-0.28912205 -0.42643082 1.103
-0.28614664 -0.42488438 1.0990001
-0.28421971 -0.42488438 1.0990001
-0.28254968 -0.425271 1.1
-0.28036588 -0.42488438 1.0990001
-0.27843899 -0.42488438 1.0990001
-0.27651206 -0.42488438 1.0990001
-0.27458516 -0.42488438 1.0990001
-0.27191395 -0.42372456 1.0960001
-0.26999229 -0.42372456 1.0960001
-0.26807064 -0.42372456 1.0960001
-0.26614898 -0.42372456 1.0960001
-0.309288 -0.43103945 1.12
-0.30426997 -0.42950004 1.1160001
-0.30204234 -0.42911518 1.115
-0.2995491 -0.42834547 1.113
-0.29626074 -0.4264212 1.108
-0.29352114 -0.42526662 1.105
-0.28973657 -0.42257261 1.098
-0.28807354 -0.42295748 1.0990001
-0.28536552 -0.42180291 1.0960001
-0.28344387 -0.42180291 1.0960001
-0.28177908 -0.42218778 1.097
-0.28011078 -0.42257261 1.098
-0.27793226 -0.42218778 1.097
-0.27525404 -0.4210332 1.0940001
-0.2733359 -0.4210332 1.0940001
-0.27116966 -0.42064834 1.0930001
-0.26851425 -0.41949376 1.09
-0.26782605 -0.42141804 1.095
-0.26614898 -0.42180291 1.0960001
-0.37663177 -0.44363365 1.1580001
-0.37330747 -0.44210124 1.154
-0.3712841 -0.44210124 1.154
-0.36798084 -0.44056883 1.1500001
-0.3659645 -0.44056883 1.1500001
-0.36426464 -0.44095194 1.151
-0.36224654 -0.44095194 1.151
-0.36085442 -0.44171813 1.153
-0.35758793 -0.44018573 1.149
-0.35495445 -0.43941951 1.1470001
-0.35294336 -0.43941951 1.1470001
-0.35032037 -0.43865332 1.1450001
-0.347096 -0.43712091 1.141
-0.34479299 -0.43673781 1.1400001
-0.34309489 -0.43712091 1.141
-0.34109434 -0.43712091 1.141
-0.33731064 -0.43482229 1.1350001
-0.33532062 -0.43482229 1.1350001
-0.33215585 -0.43328986 1.131
-0.33017284 -0.43328986 1.131
-0.32615858 -0.43060815 1.1240001
-0.32418782 -0.43060815 1.1240001
-0.32221708 -0.43060815 1.1240001
-0.31910667 -0.42907572 1.12
-0.31714293 -0.42907572 1.12
-0.3151792 -0.42907572 1.12
-0.37663177 -0.4416033 1.1580001
-0.37460142 -0.4416033 1.1580001
-0.37160584 -0.44045925 1.1550001
-0.36830083 -0.43893385 1.151
-0.3659645 -0.4385525 1.1500001
-0.36458111 -0.4393152 1.1520001
-0.36256129 -0.4393152 1.1520001
-0.36116737 -0.4400779 1.154
-0.35914403 -0.4400779 1.154
-0.35526392 -0.4377898 1.148
-0.35325107 -0.4377898 1.148
-0.35062635 -0.4370271 1.146
-0.34831282 -0.43664575 1.1450001
-0.34479299 -0.43473899 1.1400001
-0.34309489 -0.43512034 1.141
-0.34109434 -0.43512034 1.141
-0.33760783 -0.43321359 1.136
-0.33502519 -0.43245089 1.1340001
-0.33215585 -0.43130684 1.131
-0.33017284 -0.43130684 1.131
-0.32615858 -0.42863739 1.1240001
-0.32418782 -0.42863739 1.1240001
-0.32221708 -0.42863739 1.1240001
-0.31910667 -0.42711198 1.12
-0.31714293 -0.42711198 1.12
-0.3151792 -0.42711198 1.12
-0.31321546 -0.42711198 1.12
-0.31125173 -0.42711198 1.12
-0.309288 -0.42711198 1.12
-0.30622667 -0.42558661 1.1160001
-0.30426997 -0.42558661 1.1160001
-0.30177146 -0.42482391 1.1140001
-0.29847255 -0.42291716 1.1090001
-0.29545859 -0.42139176 1.105
-0.29298988 -0.42062905 1.103
-0.29000047 -0.41910365 1.0990001
-0.28807354 -0.41910365 1.0990001
-0.28344387 -0.4179596 1.0960001
-0.28152221 -0.4179596 1.0960001
-0.37192759 -0.43881375 1.156
-0.36990073 -0.43881375 1.156
-0.36787388 -0.43881375 1.156
-0.36584702 -0.43881375 1.156
-0.36256129 -0.43729535 1.1520001
-0.36116737 -0.43805456 1.154
-0.35914403 -0.43805456 1.154
-0.35650176 -0.43729535 1.1520001
-0.35325107 -0.43577698 1.148
-0.3515442 -0.43615657 1.149
-0.34861702 -0.43501776 1.146
-0.34479299 -0.43274021 1.1400001
-0.34309489 -0.4331198 1.141
-0.34109434 -0.4331198 1.141
-0.33760783 -0.43122181 1.136
-0.33502519 -0.43046263 1.1340001
-0.3330369 -0.43046263 1.1340001
-0.33017284 -0.42932382 1.131
-0.32818982 -0.42932382 1.131
-0.3250531 -0.42780545 1.1270001
-0.32221708 -0.42666665 1.1240001
-0.32024634 -0.42666665 1.1240001
-0.31827557 -0.42666665 1.1240001
-0.3151792 -0.42514828 1.12
-0.31321546 -0.42514828 1.12
-0.31125173 -0.42514828 1.12
-0.309288 -0.42514828 1.12
-0.30622667 -0.42362988 1.1160001
-0.30426997 -0.42362988 1.1160001
-0.30150056 -0.42249107 1.113
-0.29847255 -0.4209727 1.1090001
-0.29572597 -0.4198339 1.1060001
-0.29298988 -0.41869512 1.103
-0.32024634 -0.42469591 1.1240001
-0.31827557 -0.42469591 1.1240001
-0.31658626 -0.42507374 1.125
-0.31321546 -0.42318454 1.12
-0.31125173 -0.42318454 1.12
-0.309288 -0.42318454 1.12
-0.30732426 -0.42318454 1.12
-0.30426997 -0.42167315 1.1160001
-0.30231324 -0.42167315 1.1160001
-0.2995491 -0.42053962 1.113
-0.35588282 -0.43250349 1.1500001
-0.35386649 -0.43250349 1.1500001
-0.35185015 -0.43250349 1.1500001
-0.34570035 -0.42987087 1.143
-0.34429768 -0.43062305 1.1450001
-0.3422901 -0.43062305 1.1450001
-0.3384994 -0.42836651 1.1390001
-0.33650237 -0.42836651 1.1390001
-0.33421162 -0.42799041 1.138
-0.33134055 -0.42686215 1.1350001
-0.3293505 -0.42686215 1.1350001
-0.32620677 -0.42535779 1.131
-0.32307708 -0.42385343 1.1270001
-0.32024634 -0.42272517 1.1240001
-0.31827557 -0.42272517 1.1240001
-0.31630483 -0.42272517 1.1240001
-0.31433409 -0.42272517 1.1240001
-0.31236336 -0.42272517 1.1240001
-0.309288 -0.42122081 1.12
-0.30732426 -0.42122081 1.12
-0.30536053 -0.42122081 1.12
-0.30339679 -0.42122081 1.12
-0.32138601 -0.42027399 1.128
-0.31940824 -0.42027399 1.128
-0.31658626 -0.41915625 1.125
-0.31433409 -0.41878366 1.1240001
-0.31236336 -0.41878366 1.1240001
-0.31039259 -0.41878366 1.1240001
-0.30732426 -0.41729334 1.12
-0.33827499 -0.42259279 1.1450001
-0.33479899 -0.4207474 1.1400001
-0.33280021 -0.4207474 1.1400001
-0.3308014 -0.4207474 1.1400001
-0.32764891 -0.41927108 1.136
-0.32565713 -0.41927108 1.136
-0.32281059 -0.41816387 1.133
-0.32082406 -0.41816387 1.133
-0.31883752 -0.41816387 1.133
-0.31657135 -0.41779479 1.1320001
-0.31458658 -0.41779479 1.1320001
-0.31039259 -0.41484216 1.1240001
-0.30842185 -0.41484216 1.1240001
-0.33196211 -0.41821209 1.1440001
-0.32880259 -0.41674981 1.1400001
-0.3268038 -0.41674981 1.1400001
-0.32366532 -0.41528752 1.136
-0.32167354 -0.41528752 1.136
-0.31883752 -0.4141908 1.133
-0.31657135 -0.41382524 1.1320001
-0.31458658 -0.41382524 1.1320001
-0.3126018 -0.41382524 1.1320001
-0.30951944 -0.41236296 1.128
