# .PCD v0.7 - Point Cloud Data file format
VERSION 0.7
FIELDS x y z
SIZE 4 4 4
TYPE F F F
COUNT 1 1 1
WIDTH 283
HEIGHT 1
VIEWPOINT 0 0 0 1 0 0 0
POINTS 283
DATA ascii
0.02239182 -0.14424498 0.59400004
0.0234333 -0.14424498 0.59400004
-0.01363392 -0.138864 0.57600003
-0.012667833 -0.13934617 0.57800001
-0.011654407 -0.13934617 0.57800001
-0.01062257 -0.13910508 0.57700002
-0.0097274929 -0.14079267 0.58400005
-0.0086588366 -0.14006941 0.58100003
-0.0076532997 -0.1403105 0.58200002
-0.0066556535 -0.14079267 0.58400005
-0.0056317067 -0.14079267 0.58400005
-0.0046077599 -0.14079267 0.58400005
-0.00358995 -0.14103375 0.58500004
-0.00256425 -0.14103375 0.58500004
-0.0015464399 -0.141757 0.588
-0.00051635667 -0.14199808 0.58900005
0.00051460334 -0.14151591 0.58700001
0.00154907 -0.14199808 0.58900005
0.0025905499 -0.14248025 0.59100002
0.0036329066 -0.14272133 0.59200001
0.0046629901 -0.14248025 0.59100002
0.0056992099 -0.14248025 0.59100002
0.0067354301 -0.14248025 0.59100002
0.0077848001 -0.14272133 0.59200001
0.0088376766 -0.14296241 0.59300005
0.00989406 -0.1432035 0.59400004
0.01091713 -0.14296241 0.59300005
0.011956857 -0.14296241 0.59300005
0.013040417 -0.14344458 0.59500003
0.01408365 -0.14344458 0.59500003
0.015126883 -0.14344458 0.59500003
0.016170116 -0.14344458 0.59500003
0.01721335 -0.14344458 0.59500003
0.018256582 -0.14344458 0.59500003
0.019299816 -0.14344458 0.59500003
0.02034305 -0.14344458 0.59500003
0.021350339 -0.1432035 0.59400004
0.02239182 -0.1432035 0.59400004
0.023472751 -0.14344458 0.59500003
0.024515983 -0.14344458 0.59500003
0.02551626 -0.1432035 0.59400004
0.02655774 -0.1432035 0.59400004
0.027599219 -0.1432035 0.59400004
0.028592484 -0.14296241 0.59300005
0.029632211 -0.14296241 0.59300005
0.030671937 -0.14296241 0.59300005
0.031658188 -0.14272133 0.59200001
0.023472751 -0.14135812 0.59500003
0.024515983 -0.14135812 0.59500003
0.025473304 -0.14088297 0.59300005
0.026513031 -0.14088297 0.59300005
0.027552757 -0.14088297 0.59300005
0.028592484 -0.14088297 0.59300005
0.029632211 -0.14088297 0.59300005
0.030620214 -0.14064538 0.59200001
0.031604711 -0.14040782 0.59100002
0.032751389 -0.14088297 0.59300005
0.033791117 -0.14088297 0.59300005
0.034772106 -0.14064538 0.59200001
0.035689101 -0.14017023 0.59000003
0.036723565 -0.14017023 0.59000003
0.037758034 -0.14017023 0.59000003
0.038726751 -0.13993266 0.58900005
0.039826967 -0.14017023 0.59000003
0.040861432 -0.14017023 0.59000003
0.041824888 -0.13993266 0.58900005
0.04278484 -0.13969508 0.588
0.043890316 -0.13993266 0.58900005
0.044846758 -0.13969508 0.588
0.045799695 -0.13945751 0.58700001
0.046749126 -0.13921992 0.58600003
0.047695048 -0.13898236 0.58500004
0.048637465 -0.13874477 0.58400005
0.049661413 -0.13874477 0.58400005
0.050598569 -0.1385072 0.583
0.0036390433 -0.13880351 0.59300005
0.00467877 -0.13880351 0.59300005
0.0056992099 -0.13833536 0.59100002
0.0067354301 -0.13833536 0.59100002
0.0077716499 -0.13833536 0.59100002
0.0088078696 -0.13833536 0.59100002
0.0098774033 -0.13880351 0.59300005
0.01093554 -0.13903758 0.59400004
-0.01161408 -0.13381439 0.57600003
-0.01060416 -0.13381439 0.57600003
-0.009660867 -0.13474366 0.58000004
-0.0086588366 -0.13497598 0.58100003
-0.00766645 -0.13544062 0.583
-0.0066442564 -0.13544062 0.583
-0.0056220633 -0.13544062 0.583
-0.0046077599 -0.13567293 0.58400005
-0.0035838133 -0.13567293 0.58400005
-0.0025686333 -0.13613756 0.58600003
-0.00154381 -0.13636988 0.58700001
-0.00051635667 -0.13683452 0.58900005
0.00051723333 -0.13706683 0.59000003
0.0015569599 -0.13753146 0.59200001
0.0025993166 -0.13776378 0.59300005
0.0036390433 -0.13776378 0.59300005
0.00467877 -0.13776378 0.59300005
0.0056992099 -0.13729915 0.59100002
0.0067354301 -0.13729915 0.59100002
0.0077716499 -0.13729915 0.59100002
0.0088078696 -0.13729915 0.59100002
0.0098774033 -0.13776378 0.59300005
0.01093554 -0.13799609 0.59400004
0.011956857 -0.13776378 0.59300005
0.027552757 -0.13568433 0.59300005
0.028592484 -0.13568433 0.59300005
0.02958224 -0.13545552 0.59200001
0.030620214 -0.13545552 0.59200001
0.031604711 -0.13522671 0.59100002
0.03264093 -0.13522671 0.59100002
0.033791117 -0.13568433 0.59300005
0.034772106 -0.13545552 0.59200001
0.035689101 -0.1349979 0.59000003
0.036723565 -0.1349979 0.59000003
0.037758034 -0.1349979 0.59000003
0.038726751 -0.13476908 0.58900005
0.039759465 -0.13476908 0.58900005
0.040792175 -0.13476908 0.58900005
0.041753881 -0.13454027 0.588
0.042712077 -0.13431147 0.58700001
0.043592248 -0.13385385 0.58500004
0.044617951 -0.13385385 0.58500004
0.045565628 -0.13362505 0.58400005
0.046589572 -0.13362505 0.58400005
0.04761352 -0.13362505 0.58400005
0.048554182 -0.13339622 0.583
0.049491338 -0.13316742 0.58200002
0.050511781 -0.13316742 0.58200002
0.051443677 -0.13293861 0.58100003
0.052372068 -0.1327098 0.58000004
-0.0076795998 -0.1305532 0.58400005
-0.0066442564 -0.13032965 0.583
-0.0056413501 -0.13077675 0.58500004
-0.0046235397 -0.1310003 0.58600003
-0.0035960868 -0.1310003 0.58600003
-0.00256425 -0.13077675 0.58500004
-0.00154381 -0.13122384 0.58700001
-0.00051635667 -0.13167095 0.58900005
0.00051723333 -0.1318945 0.59000003
0.0015569599 -0.13234159 0.59200001
0.0025949334 -0.13234159 0.59200001
0.0036329066 -0.13234159 0.59200001
0.00467877 -0.13256516 0.59300005
0.0057184966 -0.13256516 0.59300005
0.0067582233 -0.13256516 0.59300005
0.0077716499 -0.13211805 0.59100002
0.0088078696 -0.13211805 0.59100002
0.0098607466 -0.13234159 0.59200001
0.01091713 -0.13256516 0.59300005
0.01197702 -0.1327887 0.59400004
0.012996583 -0.13256516 0.59300005
0.01403631 -0.13256516 0.59300005
0.015076037 -0.13256516 0.59300005
0.016115764 -0.13256516 0.59300005
0.017155491 -0.13256516 0.59300005
0.018195217 -0.13256516 0.59300005
0.019234944 -0.13256516 0.59300005
0.020274671 -0.13256516 0.59300005
0.021350339 -0.1327887 0.59400004
0.02239182 -0.1327887 0.59400004
0.023472751 -0.13301225 0.59500003
0.024515983 -0.13301225 0.59500003
0.02551626 -0.1327887 0.59400004
0.026513031 -0.13256516 0.59300005
0.027552757 -0.13256516 0.59300005
0.028640701 -0.1327887 0.59400004
0.029632211 -0.13256516 0.59300005
0.030723659 -0.1327887 0.59400004
0.031711664 -0.13256516 0.59300005
0.03264093 -0.13211805 0.59100002
0.03367715 -0.13211805 0.59100002
0.034654632 -0.1318945 0.59000003
0.035689101 -0.1318945 0.59000003
0.036723565 -0.1318945 0.59000003
0.037758034 -0.1318945 0.59000003
-0.0086290296 -0.12638991 0.57900006
-0.00766645 -0.12726307 0.583
-0.0066328598 -0.12704478 0.58200002
-0.0056220633 -0.12726307 0.583
-0.00461565 -0.12769964 0.58500004
-0.0035838133 -0.12748136 0.58400005
-0.00256425 -0.12769964 0.58500004
-0.00154118 -0.12791795 0.58600003
-0.01268975 -0.12334437 0.57900006
-0.01167457 -0.12334437 0.57900006
-0.0106778 -0.1235574 0.58000004
-0.009660867 -0.1235574 0.58000004
-0.0086439336 -0.1235574 0.58000004
-0.0076401499 -0.12377043 0.58100003
-0.0066328598 -0.12398346 0.58200002
-0.0056124199 -0.12398346 0.58200002
-0.00459198 -0.12398346 0.58200002
-0.0035838133 -0.12440952 0.58400005
-0.00256425 -0.12462255 0.58500004
-0.00154118 -0.12483558 0.58600003
-0.00051548 -0.12526163 0.588
0.00051811 -0.12590073 0.59100002
0.0015569599 -0.12611376 0.59200001
0.0025905499 -0.12590073 0.59100002
0.0036267699 -0.12590073 0.59100002
0.0046866601 -0.12653983 0.59400004
0.00572814 -0.12653983 0.59400004
0.0067696199 -0.12653983 0.59400004
0.0078110998 -0.12653983 0.59400004
0.0088525796 -0.12653983 0.59400004
0.0099107167 -0.12675285 0.59500003
0.01097236 -0.12696588 0.59600002
0.011997183 -0.12675285 0.59500003
0.013040417 -0.12675285 0.59500003
0.01410732 -0.12696588 0.59600002
0.01517773 -0.12717891 0.597
0.01622447 -0.12717891 0.597
0.01727121 -0.12717891 0.597
0.018317949 -0.12717891 0.597
0.019332252 -0.12696588 0.59600002
0.02034305 -0.12675285 0.59500003
0.021422226 -0.12696588 0.59600002
0.022429517 -0.12675285 0.59500003
0.023472751 -0.12675285 0.59500003
0.024474779 -0.12653983 0.59400004
0.025559217 -0.12675285 0.59500003
0.026602451 -0.12675285 0.59500003
0.027599219 -0.12653983 0.59400004
0.028640701 -0.12653983 0.59400004
0.00155433 -0.12279207 0.59100002
0.0026212332 -0.12424646 0.59800005
0.0036697267 -0.12424646 0.59800005
0.0047103302 -0.12403869 0.597
0.0057570701 -0.12403869 0.597
0.0068152067 -0.12424646 0.59800005
0.0078637004 -0.12424646 0.59800005
0.0089270966 -0.12445423 0.59900004
0.0099606868 -0.12424646 0.59800005
0.01102759 -0.12445423 0.59900004
0.012077836 -0.12445423 0.59900004
0.013106166 -0.12424646 0.59800005
0.01415466 -0.12424646 0.59800005
0.015203153 -0.12424646 0.59800005
0.016251646 -0.12424646 0.59800005
0.01730014 -0.12424646 0.59800005
0.018348632 -0.12424646 0.59800005
0.01936469 -0.12403869 0.597
0.02988206 -0.12110098 0.59800005
0.030930553 -0.12110098 0.59800005
0.03192557 -0.12089847 0.597
0.03297231 -0.12089847 0.597
0.034019049 -0.12089847 0.597
0.035007052 -0.12069596 0.59600002
0.036112528 -0.12089847 0.597
0.037097026 -0.12069596 0.59600002
0.038078018 -0.12049345 0.59500003
0.0390555 -0.12029094 0.59400004
0.040029477 -0.12008843 0.59300005
0.041069202 -0.12008843 0.59300005
0.042037919 -0.11988592 0.59200001
0.043075893 -0.11988592 0.59200001
0.044113867 -0.11988592 0.59200001
0.04492303 -0.11927839 0.58900005
0.045799695 -0.11887337 0.58700001
0.046749126 -0.11867086 0.58600003
0.047695048 -0.11846835 0.58500004
0.048720751 -0.11846835 0.58500004
0.04974645 -0.11846835 0.58500004
0.051620763 -0.11806333 0.583
0.02988206 -0.1179555 0.59800005
0.030930553 -0.1179555 0.59800005
0.031979047 -0.1179555 0.59800005
0.03297231 -0.11775825 0.597
0.034019049 -0.11775825 0.597
0.035124525 -0.1179555 0.59800005
0.036233511 -0.11815275 0.59900004
0.037283756 -0.11815275 0.59900004
0.038206011 -0.11775825 0.597
0.039252751 -0.11775825 0.597
-0.013931987 -0.10424969 0.54800004
-0.01299483 -0.10443993 0.54900002
-0.01203225 -0.10443993 0.54900002
-0.011049506 -0.10424969 0.54800004
-0.01304217 -0.10192214 0.551
-0.012076084 -0.10192214 0.551
