# .PCD v0.7 - Point Cloud Data file format
VERSION 0.7
FIELDS x y z
SIZE 4 4 4
TYPE F F F
COUNT 1 1 1
WIDTH 139
HEIGHT 1
VIEWPOINT 0 0 0 1 0 0 0
POINTS 139
DATA ascii
-0.2747789 0.0057895067 0.50800002
-0.27675489 0.0067065 0.51000005
-0.2758607 0.0067065 0.51000005
-0.27496651 0.0067065 0.51000005
-0.27085757 0.0066933502 0.509
-0.26676264 0.0066801999 0.50800002
-0.27729756 0.0076156035 0.51100004
-0.27640161 0.0076156035 0.51100004
-0.27496651 0.0076007 0.51000005
-0.27353489 0.0075857965 0.509
-0.27264246 0.0075857965 0.509
-0.25112554 0.0084449295 0.50700003
-0.2502366 0.0084449295 0.50700003
-0.24934767 0.0084449295 0.50700003
-0.22445033 0.0083783036 0.50300002
-0.22180456 0.0083783036 0.50300002
-0.22092263 0.0083783036 0.50300002
-0.27353489 0.011155583 0.509
-0.27264246 0.011155583 0.509
-0.20552047 0.011002166 0.50200003
-0.20071897 0.01098025 0.50100005
-0.19984055 0.01098025 0.50100005
-0.19505833 0.010958333 0.5
-0.19418167 0.010958333 0.5
-0.193305 0.010958333 0.5
-0.19242834 0.010958333 0.5
-0.18854383 0.010936417 0.49900001
-0.1876689 0.010936417 0.49900001
-0.17856123 0.0109145 0.49800003
-0.17768806 0.0109145 0.49800003
-0.17017063 0.010936417 0.49900001
-0.17979468 0.01181133 0.49900001
-0.17856123 0.011787659 0.49800003
-0.17804486 0.01181133 0.49900001
-0.17104556 0.01181133 0.49900001
-0.17017063 0.01181133 0.49900001
-0.16929573 0.01181133 0.49900001
-0.16842082 0.01181133 0.49900001
-0.15760538 0.011787659 0.49800003
-0.1369704 0.01174032 0.49600002
-0.13610074 0.01174032 0.49600002
-0.18015499 0.012711667 0.5
-0.177525 0.012711667 0.5
-0.17664833 0.012711667 0.5
-0.17542012 0.012686243 0.49900001
-0.17454521 0.012686243 0.49900001
-0.17367029 0.012686243 0.49900001
-0.17279539 0.012686243 0.49900001
-0.17104556 0.012686243 0.49900001
-0.16982962 0.01266082 0.49800003
-0.16895646 0.01266082 0.49800003
-0.1680833 0.01266082 0.49800003
-0.1675459 0.012686243 0.49900001
-0.16579607 0.012686243 0.49900001
-0.16109802 0.01266082 0.49800003
-0.15958139 0.012609974 0.49600002
-0.15847854 0.01266082 0.49800003
-0.15728891 0.012635397 0.49700001
-0.15641749 0.012635397 0.49700001
-0.15554608 0.012635397 0.49700001
-0.15293187 0.012635397 0.49700001
-0.15206046 0.012635397 0.49700001
-0.15118906 0.012635397 0.49700001
-0.15031765 0.012635397 0.49700001
-0.14944625 0.012635397 0.49700001
-0.14857483 0.012635397 0.49700001
-0.14770342 0.012635397 0.49700001
-0.14683202 0.012635397 0.49700001
-0.14596061 0.012635397 0.49700001
-0.14479728 0.012609974 0.49600002
-0.14392762 0.012609974 0.49600002
-0.14305797 0.012609974 0.49600002
-0.14218833 0.012609974 0.49600002
-0.14131866 0.012609974 0.49600002
-0.13959952 0.012533703 0.49300003
-0.13929795 0.01258455 0.49500003
-0.13843004 0.01258455 0.49500003
-0.13756216 0.01258455 0.49500003
-0.13669425 0.01258455 0.49500003
-0.13610074 0.012609974 0.49600002
-0.13523109 0.012609974 0.49600002
-0.13436145 0.012609974 0.49600002
-0.13349178 0.012609974 0.49600002
-0.13208736 0.012559126 0.49400002
-0.13095559 0.012533703 0.49300003
-0.13035508 0.012559126 0.49400002
-0.17104556 0.013561157 0.49900001
-0.17017063 0.013561157 0.49900001
-0.16929573 0.013561157 0.49900001
-0.16109802 0.01353398 0.49800003
-0.15958139 0.013479627 0.49600002
-0.15784208 0.013479627 0.49600002
-0.15697242 0.013479627 0.49600002
-0.15610278 0.013479627 0.49600002
-0.15523311 0.013479627 0.49600002
-0.15467468 0.013506804 0.49700001
-0.15411274 0.01353398 0.49800003
-0.15293187 0.013506804 0.49700001
-0.15206046 0.013506804 0.49700001
-0.15088485 0.013479627 0.49600002
-0.15001521 0.013479627 0.49600002
-0.14914554 0.013479627 0.49600002
-0.14797695 0.01345245 0.49500003
-0.14710905 0.01345245 0.49500003
-0.14624114 0.01345245 0.49500003
-0.14537326 0.01345245 0.49500003
-0.14450535 0.01345245 0.49500003
-0.14363745 0.01345245 0.49500003
-0.14276955 0.01345245 0.49500003
-0.14190164 0.01345245 0.49500003
-0.14103375 0.01345245 0.49500003
-0.13959952 0.013398097 0.49300003
-0.13901654 0.013425273 0.49400002
-0.13815039 0.013425273 0.49400002
-0.13728425 0.013425273 0.49400002
-0.1364181 0.013425273 0.49400002
-0.13555196 0.013425273 0.49400002
-0.1346858 0.013425273 0.49400002
-0.13436145 0.013479627 0.49600002
-0.13295351 0.013425273 0.49400002
-0.13155259 0.01337092 0.49200001
-0.13042434 0.013343743 0.49100003
-0.12982732 0.01337092 0.49200001
-0.12948893 0.013425273 0.49400002
-0.12862279 0.013425273 0.49400002
-0.15436347 0.01434928 0.49600002
-0.15380327 0.01437821 0.49700001
-0.15262416 0.01434928 0.49600002
-0.15058064 0.01432035 0.49500003
-0.14074883 0.01429142 0.49400002
-0.13728425 0.01429142 0.49400002
-0.13128522 0.01420463 0.49100003
-0.13042434 0.01420463 0.49100003
-0.12956344 0.01420463 0.49100003
-0.12896468 0.01423356 0.49200001
-0.1283624 0.01426249 0.49300003
-0.15380327 0.015249616 0.49700001
-0.15323958 0.0152803 0.49800003
-0.15323958 0.01615346 0.49800003
