# .PCD v0.7 - Point Cloud Data file format
VERSION 0.7
FIELDS x y z
SIZE 4 4 4
TYPE F F F
COUNT 1 1 1
WIDTH 1488
HEIGHT 1
VIEWPOINT 0 0 0 1 0 0 0
POINTS 1488
DATA ascii
0.76316023 -1.1260214 3.2850001
0.77172881 -1.1301347 3.2970002
0.77562296 -1.1273924 3.2890003
0.78899211 -1.1383613 3.3210001
0.79481494 -1.1383613 3.3210001
0.80063772 -1.1383613 3.3210001
0.80767477 -1.1400752 3.3260002
0.81350631 -1.1400752 3.3260002
0.82155502 -1.1431602 3.3350003
0.82765049 -1.143503 3.3360002
0.83349961 -1.143503 3.3360002
0.83934873 -1.143503 3.3360002
0.83582366 -1.1308203 3.2990003
0.84211808 -1.1315057 3.3010001
0.8581804 -1.1452168 3.3410001
0.87438297 -1.1589279 3.381
0.88031095 -1.1589279 3.381
0.88440412 -1.1565285 3.3740001
0.89031988 -1.1565285 3.3740001
0.89623559 -1.1565285 3.3740001
0.91124237 -1.1681828 3.4080002
1.1595144 -0.91121435 2.6720002
1.1533067 -0.90268874 2.6470001
1.1579478 -0.90268874 2.6470001
1.2346193 -0.95861655 2.8110001
1.2457215 -0.96339089 2.825
1.2524455 -0.964755 2.8290002
1.2628462 -0.96134478 2.8190002
1.2668895 -0.96066272 2.8170002
1.2680571 -0.950432 2.7870002
1.2692897 -0.94770384 2.779
1.2704942 -0.94497567 2.7710001
1.2712106 -0.94190645 2.7620001
1.2760532 -0.94190645 2.7620001
1.2808959 -0.94190645 2.7620001
1.2857386 -0.94190645 2.7620001
1.2905813 -0.94190645 2.7620001
1.2930789 -0.94020134 2.7570002
1.2800236 -0.92724246 2.7190001
1.2748679 -0.92008096 2.6980002
1.285764 -0.92451423 2.7110002
1.2790926 -0.91632968 2.687
1.2847594 -0.91701174 2.6890001
1.2937899 -0.92008096 2.6980002
1.2985204 -0.92008096 2.6980002
1.2940731 -0.91360152 2.6790001
1.2968311 -0.91223741 2.6750002
1.3015212 -0.91223741 2.6750002
1.3062114 -0.91223741 2.6750002
1.3006104 -0.90507591 2.654
1.3057555 -0.90541697 2.6550002
1.3104106 -0.90541697 2.6550002
1.2566184 -0.8651762 2.5370002
0.24044774 -0.41357014 1.2190001
0.24258506 -0.41357014 1.2190001
0.2455254 -0.41492721 1.223
0.24766973 -0.41492721 1.223
0.24940553 -0.41424868 1.2210001
0.25072229 -0.4128916 1.217
0.25285608 -0.4128916 1.217
0.25519943 -0.41323087 1.2180001
0.25733498 -0.41323087 1.2180001
0.25947055 -0.41323087 1.2180001
0.2616061 -0.41323087 1.2180001
0.26482433 -0.41492721 1.223
0.26718697 -0.41526648 1.2240001
0.269113 -0.41492721 1.223
0.27125731 -0.41492721 1.223
0.2736252 -0.41526648 1.2240001
0.72006947 -1.084307 3.1960001
0.71818024 -1.0731111 3.1630001
0.72303957 -1.0720932 3.1600001
0.74495012 -1.0961814 3.2310002
0.75502914 -1.1026275 3.2500002
0.762366 -1.1050024 3.2570002
0.77703786 -1.1178946 3.2950001
0.7828151 -1.1178946 3.2950001
0.79840487 -1.1318047 3.3360002
0.79629827 -1.1206088 3.3030002
0.80208951 -1.1206088 3.3030002
0.8076362 -1.1202695 3.302
0.81268662 -1.1192517 3.2990003
0.82765049 -1.1318047 3.3360002
0.83349961 -1.1318047 3.3360002
0.83934873 -1.1318047 3.3360002
0.84570456 -1.1324832 3.3380001
0.85232252 -1.1335011 3.3410001
0.8581804 -1.1335011 3.3410001
0.8725726 -1.144697 3.3740001
0.87848836 -1.144697 3.3740001
0.88440412 -1.144697 3.3740001
0.89031988 -1.144697 3.3740001
0.89623559 -1.144697 3.3740001
0.91124237 -1.1562321 3.4080002
0.91721773 -1.1562321 3.4080002
0.9231931 -1.1562321 3.4080002
0.92916846 -1.1562321 3.4080002
0.93514383 -1.1562321 3.4080002
0.97011495 -1.1918555 3.5130002
0.97571862 -1.191177 3.5110002
0.98103559 -1.1901592 3.5080001
0.98718625 -1.1901592 3.5080001
1.2663678 -0.93222106 2.7620001
1.2712106 -0.93222106 2.7620001
1.2760532 -0.93222106 2.7620001
1.2785771 -0.93053347 2.7570002
1.283411 -0.93053347 2.7570002
1.2788998 -0.92378312 2.7370002
1.2827606 -0.9231081 2.7350001
1.277199 -0.91568273 2.7130001
1.2720329 -0.90859485 2.6920002
1.2838669 -0.91365761 2.707
1.2948016 -0.91804534 2.72
1.287626 -0.90960741 2.6950002
1.2937899 -0.91061997 2.6980002
1.2874508 -0.90285707 2.6750002
1.292141 -0.90285707 2.6750002
1.2851959 -0.89475667 2.651
1.2908171 -0.8954317 2.6530001
1.2852144 -0.88834387 2.6320002
1.2697368 -0.8745057 2.5910001
1.2555909 -0.86168003 2.5530002
1.2427925 -0.84986699 2.5180001
1.2506746 -0.8522296 2.5250001
0.23788349 -0.40493059 1.2060001
0.23999801 -0.40493059 1.2060001
0.24291557 -0.40627363 1.21
0.24483459 -0.40593788 1.2090001
0.24695437 -0.40593788 1.2090001
0.24866211 -0.40526634 1.207
0.25015509 -0.40425906 1.2040001
0.25226608 -0.40425906 1.2040001
0.25479966 -0.40493059 1.2060001
0.25691417 -0.40493059 1.2060001
0.26010263 -0.40660939 1.2110001
0.2622259 -0.40660939 1.2110001
0.26260287 -0.40392327 1.2030001
0.26471213 -0.40392327 1.2030001
0.26881754 -0.40694517 1.212
0.26781291 -0.40224448 1.1980001
0.2696881 -0.4019087 1.197
0.27178684 -0.4019087 1.197
0.27411437 -0.40224448 1.1980001
0.27644545 -0.40258023 1.199
0.27808306 -0.4019087 1.197
0.2801818 -0.4019087 1.197
0.28228053 -0.4019087 1.197
0.8001582 -1.1308509 3.3680003
0.80606341 -1.1308509 3.3680003
0.81196868 -1.1308509 3.3680003
0.8178739 -1.1308509 3.3680003
0.81595224 -1.1201065 3.3360002
0.82180136 -1.1201065 3.3360002
0.83558959 -1.1308509 3.3680003
0.8414948 -1.1308509 3.3680003
0.84740001 -1.1308509 3.3680003
0.85457206 -1.1325297 3.3730001
0.86074114 -1.1328654 3.3740001
0.8666569 -1.1328654 3.3740001
0.8725726 -1.1328654 3.3740001
0.87848836 -1.1328654 3.3740001
0.88440412 -1.1328654 3.3740001
0.89031988 -1.1328654 3.3740001
0.89623559 -1.1328654 3.3740001
0.91124237 -1.1442814 3.4080002
0.92340791 -1.152004 3.4310002
0.92942357 -1.152004 3.4310002
0.931077 -1.1466317 3.4150002
0.93514383 -1.1442814 3.4080002
0.93973845 -1.1426026 3.4030001
0.95515376 -1.1540185 3.4370003
0.96117997 -1.1540185 3.4370003
0.98718625 -1.1778578 3.5080001
0.26085654 -0.39914194 1.1950001
0.26295179 -0.39914194 1.1950001
0.26504701 -0.39914194 1.1950001
0.26714224 -0.39914194 1.1950001
0.26901218 -0.39880794 1.194
0.27110565 -0.39880794 1.194
0.27319914 -0.39880794 1.194
0.8414948 -1.1190405 3.3680003
0.83733588 -1.1057502 3.3280001
0.84545118 -1.1087404 3.3370001
0.86074114 -1.121034 3.3740001
0.8651157 -1.1190405 3.3680003
0.87102091 -1.1190405 3.3680003
0.87848836 -1.121034 3.3740001
0.88440412 -1.121034 3.3740001
0.89031988 -1.121034 3.3740001
0.89623559 -1.121034 3.3740001
0.90295351 -1.1220307 3.3770001
0.91829431 -1.1336597 3.4120002
0.93375784 -1.1452887 3.4470003
0.93543929 -1.1399726 3.4310002
0.93514383 -1.1323307 3.4080002
0.94111919 -1.1323307 3.4080002
0.94709456 -1.1323307 3.4080002
0.96257824 -1.1436274 3.4420002
0.96720618 -1.1419661 3.4370003
0.974365 -1.1432952 3.4410002
0.98068315 -1.1436274 3.4420002
0.98671812 -1.1436274 3.4420002
1.0031364 -1.1555886 3.4780002
1.276894 -0.91138005 2.743
1.2817034 -0.91138005 2.743
1.2865127 -0.91138005 2.743
1.2823775 -0.90506715 2.7240002
1.2781756 -0.8987543 2.7050002
1.2838669 -0.89941877 2.707
1.2848049 -0.89676076 2.6990001
1.2885816 -0.89609623 2.697
1.2923514 -0.8954317 2.6950002
1.2850443 -0.88712531 2.6700001
1.2786157 -0.8794834 2.6470001
1.2803479 -0.87748986 2.641
1.2908171 -0.88147694 2.6530001
1.2852144 -0.87449956 2.6320002
1.2805181 -0.86818665 2.6130002
1.2850995 -0.86818665 2.6130002
0.235122 -0.39395997 1.192
0.23641595 -0.39263797 1.1880001
0.23849891 -0.39263797 1.1880001
0.24058188 -0.39263797 1.1880001
0.24246058 -0.39230746 1.187
0.24433577 -0.39197695 1.1860001
0.24662299 -0.39230746 1.187
0.24891372 -0.39263797 1.1880001
0.25078541 -0.39230746 1.187
0.2528666 -0.39230746 1.187
0.25430346 -0.39131594 1.184
0.25637943 -0.39131594 1.184
0.25845537 -0.39131594 1.184
0.26053131 -0.39131594 1.184
0.26216367 -0.39065495 1.182
0.26401255 -0.39032444 1.1810001
0.26608324 -0.39032444 1.1810001
0.26815394 -0.39032444 1.1810001
0.26999581 -0.38999394 1.1800001
0.27137303 -0.38900241 1.177
0.27320439 -0.3886719 1.176
0.27620259 -0.38999394 1.1800001
0.27850735 -0.39032444 1.1810001
0.83949602 -1.1104912 3.3600001
0.82928461 -1.089339 3.2960002
0.83886391 -1.0942966 3.3110001
1.2842605 -0.90161312 2.7280002
1.2791207 -0.89467251 2.707
1.2838669 -0.89467251 2.707
1.2852809 -0.89235902 2.7
1.2885816 -0.8913675 2.697
1.2889946 -0.88839293 2.6880002
1.2840817 -0.88178289 2.6680002
1.2771666 -0.87385082 2.6440001
1.2599865 -0.85897815 2.5990002
1.2684358 -0.86162215 2.6070001
1.2829684 -0.86525774 2.618
1.2875586 -0.86525774 2.618
0.23374125 -0.38956875 1.1850001
0.23522194 -0.3885825 1.182
0.23729438 -0.3885825 1.182
0.2389618 -0.387925 1.1800001
0.24021368 -0.38661 1.176
0.2422756 -0.38661 1.176
0.24496083 -0.38759625 1.179
0.24744706 -0.38825375 1.1810001
0.24951774 -0.38825375 1.1810001
0.25158843 -0.38825375 1.1810001
0.25365913 -0.38825375 1.1810001
0.25551325 -0.387925 1.1800001
0.25758219 -0.387925 1.1800001
0.25965112 -0.387925 1.1800001
0.26083288 -0.38661 1.176
0.26267126 -0.38628125 1.1750001
0.26518202 -0.38693875 1.177
0.26542923 -0.38430876 1.169
0.26725009 -0.38398001 1.1680001
0.26952854 -0.38430876 1.169
0.22821824 -0.37630653 1.1570001
0.23024686 -0.37630653 1.1570001
0.23307849 -0.37760749 1.161
0.23511411 -0.37760749 1.161
0.23796678 -0.37890849 1.1650001
0.2398034 -0.37858325 1.164
0.24288313 -0.38020945 1.169
0.2451423 -0.38053471 1.1700001
0.24719369 -0.38053471 1.1700001
0.24924509 -0.38053471 1.1700001
0.25129649 -0.38053471 1.1700001
0.25291482 -0.37988421 1.1680001
0.25496271 -0.37988421 1.1680001
0.25789079 -0.38118517 1.1720001
0.25817132 -0.37858325 1.164
0.26043576 -0.37890849 1.1650001
0.26270369 -0.37923372 1.166
0.26383984 -0.37793276 1.1620001
0.26587722 -0.37793276 1.1620001
0.26676178 -0.37630653 1.1570001
0.26879039 -0.37630653 1.1570001
0.27128711 -0.37695703 1.159
0.27237594 -0.37565604 1.1550001
0.27345073 -0.37435508 1.151
0.27475083 -0.37337935 1.148
0.27652258 -0.37305409 1.1470001
0.27659097 -0.37045217 1.1390001
0.27883258 -0.3707774 1.1400001
0.2808314 -0.3707774 1.1400001
0.28283021 -0.3707774 1.1400001
0.28183079 -0.36687449 1.128
0.85016763 -1.0989972 3.3790002
0.85786569 -1.1012739 3.3860002
0.86380243 -1.1012739 3.3860002
0.86973923 -1.1012739 3.3860002
0.87567604 -1.1012739 3.3860002
0.88577873 -1.1064779 3.4020002
0.89226782 -1.1071283 3.404
0.8987639 -1.1077788 3.4060001
0.9047358 -1.1077788 3.4060001
0.90963811 -1.1064779 3.4020002
0.9166795 -1.1077788 3.4060001
0.92265135 -1.1077788 3.4060001
0.92753261 -1.1064779 3.4020002
0.93377185 -1.1068031 3.4030001
0.93973845 -1.1068031 3.4030001
0.94681662 -1.108104 3.4070001
0.95306993 -1.1084293 3.4080002
0.96861321 -1.1194875 3.4420002
0.97578084 -1.1207886 3.4460001
0.97213566 -1.1097302 3.4120002
0.97811806 -1.1097302 3.4120002
0.98294669 -1.1084293 3.4080002
0.99182385 -1.1116817 3.4180002
0.9975248 -1.1113565 3.4170001
0.99588019 -1.1029001 3.3910003
0.99828047 -1.0989972 3.3790002
1.0128235 -1.1084293 3.4080002
1.0220872 -1.1120069 3.4190001
0.22664025 -0.36967543 1.149
0.22825682 -0.36903197 1.1470001
0.2302679 -0.36903197 1.1470001
0.23207645 -0.36871022 1.146
0.23408578 -0.36871022 1.146
0.23506501 -0.36710152 1.141
0.2374811 -0.36774501 1.143
0.24095184 -0.36999717 1.1500001
0.24275689 -0.36967543 1.149
0.24391934 -0.36838847 1.1450001
0.2461417 -0.36871022 1.146
0.24555258 -0.36484939 1.1340001
0.24754086 -0.36484939 1.1340001
0.24952914 -0.36484939 1.1340001
0.25107384 -0.3642059 1.1320001
0.25350571 -0.36484939 1.1340001
0.2568458 -0.3667798 1.1400001
0.26134223 -0.37031889 1.151
0.26336032 -0.37031889 1.151
0.26583952 -0.37096238 1.153
0.26693186 -0.36967543 1.149
0.26894644 -0.36967543 1.149
0.27072519 -0.36935368 1.148
0.2717877 -0.36806676 1.1440001
0.27259687 -0.36645806 1.1390001
0.27242416 -0.36356243 1.13
0.27464828 -0.36388418 1.131
0.27712047 -0.36452764 1.133
0.27787527 -0.36291894 1.128
0.27985305 -0.36291894 1.128
0.28058153 -0.36131027 1.123
0.28255054 -0.36131027 1.123
0.28451952 -0.36131027 1.123
0.28572321 -0.36034507 1.12
0.28948498 -0.36259723 1.1270001
0.29146099 -0.36259723 1.1270001
0.29317662 -0.36227548 1.126
0.8917436 -1.0945481 3.4020002
0.89770842 -1.0945481 3.4020002
0.90367323 -1.0945481 3.4020002
0.90963811 -1.0945481 3.4020002
0.91560292 -1.0945481 3.4020002
0.9215678 -1.0945481 3.4020002
0.93543929 -1.1038785 3.4310002
0.94227815 -1.1048437 3.4340003
0.94194764 -1.0974438 3.4110003
0.95765489 -1.1087046 3.4460001
0.96257824 -1.1074176 3.4420002
0.96861321 -1.1074176 3.4420002
0.96615326 -1.0977654 3.4120002
0.97213566 -1.0977654 3.4120002
0.97811806 -1.0977654 3.4120002
0.9841004 -1.0977654 3.4120002
0.98950243 -1.0971221 3.4100001
0.99489743 -1.0964786 3.4080002
0.22230075 -0.3586452 1.1270001
0.22427675 -0.3586452 1.1270001
0.22705579 -0.35991812 1.131
0.22660869 -0.35609937 1.1190001
0.22775361 -0.35482645 1.115
0.22909053 -0.35387176 1.1120001
0.23145577 -0.35450822 1.1140001
0.23340899 -0.35450822 1.1140001
0.2353622 -0.35450822 1.1140001
0.23752844 -0.35482645 1.115
0.24034254 -0.35609937 1.1190001
0.24317068 -0.35737228 1.123
0.24623112 -0.35896343 1.128
0.24710867 -0.35737228 1.123
0.24863406 -0.35673583 1.1210001
0.25104666 -0.35737228 1.123
0.25301564 -0.35737228 1.123
0.25589287 -0.3586452 1.1270001
0.25786886 -0.3586452 1.1270001
0.26053655 -0.35959989 1.13
0.26275015 -0.35991812 1.131
0.26473317 -0.35991812 1.131
0.26718783 -0.36055458 1.133
0.26917437 -0.36055458 1.133
0.27068222 -0.35991812 1.131
0.27266526 -0.35991812 1.131
0.27416259 -0.35928166 1.1290001
0.27614212 -0.35928166 1.1290001
0.27787527 -0.35896343 1.128
0.27886066 -0.35769051 1.1240001
0.2808314 -0.35769051 1.1240001
0.28179574 -0.3564176 1.12
0.28375947 -0.3564176 1.12
0.28470275 -0.35514468 1.1160001
0.28665948 -0.35514468 1.1160001
0.28861621 -0.35514468 1.1160001
0.29109365 -0.35578114 1.118
0.2930539 -0.35578114 1.118
0.29501411 -0.35578114 1.118
0.29591182 -0.35450822 1.1140001
0.96313232 -1.1169873 3.5100002
0.94885141 -1.0934383 3.4360001
0.95543164 -1.0940747 3.4380002
0.96257824 -1.0953476 3.4420002
0.97424144 -1.1017122 3.4620001
0.98116094 -1.102667 3.4650002
0.97213566 -1.0858008 3.4120002
0.97811806 -1.0858008 3.4120002
0.98352355 -1.0851643 3.4100001
0.98950243 -1.0851643 3.4100001
0.99489743 -1.0845279 3.4080002
0.9991107 -1.0826185 3.4020002
1.0050756 -1.0826185 3.4020002
1.0024219 -1.0733898 3.3730001
1.0107274 -1.0759356 3.381
1.015152 -1.0743445 3.3760002
1.0250031 -1.0784814 3.3890002
1.0263821 -1.0737081 3.3740001
1.0365812 -1.0781633 3.3880002
1.0486757 -1.0845279 3.4080002
0.21993375 -0.35287148 1.115
0.22188872 -0.35287148 1.115
0.2246467 -0.35413739 1.1190001
0.22559614 -0.35255501 1.1140001
0.22693656 -0.35160556 1.1110001
0.22847249 -0.35097262 1.1090001
0.23083247 -0.35160556 1.1110001
0.23298995 -0.35192207 1.1120001
0.23472838 -0.35160556 1.1110001
0.23667634 -0.35160556 1.1110001
0.23862427 -0.35160556 1.1110001
0.24078877 -0.35192207 1.1120001
0.2444848 -0.35445386 1.12
0.22223763 -0.34839872 1.107
0.22417857 -0.34839872 1.107
0.2261195 -0.34839872 1.107
0.22764842 -0.34776929 1.105
0.23000139 -0.34839872 1.107
0.23215185 -0.34871346 1.108
0.23388326 -0.34839872 1.107
0.23582421 -0.34839872 1.107
0.23755036 -0.348084 1.1060001
0.23948956 -0.348084 1.1060001
0.24164703 -0.34839872 1.107
0.24270779 -0.34713984 1.103
0.24441993 -0.34682512 1.102
0.2476934 -0.34871346 1.108
0.25076261 -0.35028708 1.113
0.25271407 -0.35028708 1.113
0.25466552 -0.35028708 1.113
0.25707811 -0.3509165 1.115
0.25996235 -0.35217541 1.1190001
0.26192433 -0.35217541 1.1190001
0.26435795 -0.35280484 1.1210001
0.26703617 -0.35374904 1.1240001
0.26972491 -0.3546932 1.1270001
0.27073658 -0.35343429 1.123
0.27246273 -0.35311958 1.1220001
0.27516374 -0.35406375 1.125
0.27688989 -0.35374904 1.1240001
0.27687588 -0.35123125 1.1160001
0.27883258 -0.35123125 1.1160001
0.2802861 -0.35060179 1.1140001
0.28223932 -0.35060179 1.1140001
0.28393742 -0.35028708 1.113
0.28588888 -0.35028708 1.113
0.28809896 -0.35060179 1.1140001
0.28927106 -0.34965762 1.1110001
0.29121903 -0.34965762 1.1110001
0.29316697 -0.34965762 1.1110001
0.29484931 -0.34934291 1.11
0.29278475 -0.34462205 1.095
0.29497379 -0.34493676 1.0960001
0.29689544 -0.34493676 1.0960001
1.0165975 -1.082963 3.4410002
1.0110403 -1.0706887 3.4020002
1.0158094 -1.0694299 3.3980002
1.0202638 -1.0678563 3.3930001
1.0186516 -1.0599881 3.3680003
1.0282073 -1.0637648 3.3800001
1.0485135 -1.0785569 3.427
1.0545222 -1.0785569 3.427
1.0651728 -1.0832777 3.4420002
0.22579427 -0.34109345 1.0960001
0.22875477 -0.34264955 1.1010001
0.23089471 -0.34296077 1.102
0.23282689 -0.34296077 1.102
0.23475906 -0.34296077 1.102
0.23669124 -0.34296077 1.102
0.23862341 -0.34296077 1.102
0.240119 -0.34233832 1.1
0.24116749 -0.34109345 1.0960001
0.24220195 -0.33984861 1.092
0.24434015 -0.3401598 1.0930001
0.24693245 -0.34109345 1.0960001
0.24976233 -0.34233832 1.1
0.25169098 -0.34233832 1.1
0.2540808 -0.34296077 1.102
0.25787151 -0.34545049 1.11
0.25817922 -0.34327197 1.103
0.26034895 -0.3435832 1.1040001
0.26157191 -0.34264955 1.1010001
0.26326299 -0.34233832 1.1
0.26591492 -0.34327197 1.103
0.26590616 -0.34078225 1.095
0.26709229 -0.33984861 1.092
0.2682679 -0.33891496 1.0890001
0.27017727 -0.33891496 1.0890001
0.27358574 -0.34078225 1.095
0.27726686 -0.34296077 1.102
0.27742556 -0.34078225 1.095
0.28011078 -0.3417159 1.098
0.28332025 -0.34327197 1.103
0.28473696 -0.34264955 1.1010001
0.28770885 -0.34389442 1.105
0.28859779 -0.34264955 1.1010001
0.29026434 -0.34233832 1.1
0.292193 -0.34233832 1.1
0.2938543 -0.34202713 1.0990001
0.29605034 -0.34233832 1.1
0.297979 -0.34233832 1.1
1.0494313 -1.0674732 3.4300001
1.0554453 -1.0674732 3.4300001
0.216186 -0.3391718 1.0960001
0.21751064 -0.33824342 1.0930001
0.21942703 -0.33824342 1.0930001
0.22134343 -0.33824342 1.0930001
0.22325982 -0.33824342 1.0930001
0.22517622 -0.33824342 1.0930001
0.22813146 -0.33979073 1.098
0.23005661 -0.33979073 1.098
0.23198178 -0.33979073 1.098
0.23326784 -0.33886236 1.095
0.23518775 -0.33886236 1.095
0.23775727 -0.33979073 1.098
0.23924583 -0.3391718 1.0960001
0.23984723 -0.33731502 1.09
0.24198017 -0.33762449 1.0910001
0.24389304 -0.33762449 1.0910001
0.24603124 -0.33793396 1.092
0.24862705 -0.33886236 1.095
0.25054696 -0.33886236 1.095
0.25269741 -0.3391718 1.0960001
0.25624529 -0.34133807 1.103
0.25607258 -0.33855289 1.0940001
0.25704744 -0.33731502 1.09
0.25919613 -0.33762449 1.0910001
0.26015171 -0.33638665 1.087
0.26205757 -0.33638665 1.087
0.26493481 -0.33762449 1.0910001
0.26562473 -0.33607718 1.0860001
0.26728252 -0.33576772 1.085
0.26918489 -0.33576772 1.085
0.27208665 -0.33700556 1.0890001
0.27399603 -0.33700556 1.0890001
0.27666548 -0.33793396 1.092
0.27934545 -0.33886236 1.095
0.28049475 -0.33793396 1.092
0.28189215 -0.33731502 1.09
0.28666738 -0.34071913 1.1010001
0.28728718 -0.3391718 1.0960001
0.28920883 -0.3391718 1.0960001
0.29113048 -0.3391718 1.0960001
0.2938543 -0.3401002 1.0990001
0.29497379 -0.3391718 1.0960001
0.29689544 -0.3391718 1.0960001
0.29854444 -0.33886236 1.095
0.28366742 -0.33078825 1.075
0.29086486 -0.33694243 1.095
0.29278475 -0.33694243 1.095
0.29470465 -0.33694243 1.095
0.29662454 -0.33694243 1.095
0.29772651 -0.33601931 1.092
0.29881796 -0.33509618 1.0890001
0.29962274 -0.33386534 1.085
0.3006914 -0.33294222 1.082
0.30174953 -0.33201909 1.079
0.3016715 -0.32986513 1.072
0.30411741 -0.33048055 1.074
0.21164925 -0.32829151 1.0730001
0.21412759 -0.32920936 1.0760001
0.21661644 -0.33012724 1.079
0.21830578 -0.32982129 1.0780001
0.22019587 -0.32982129 1.0780001
0.22229198 -0.33012724 1.079
0.22439159 -0.33043319 1.08
0.22733282 -0.33196297 1.085
0.22923519 -0.33196297 1.085
0.22964634 -0.32982129 1.0780001
0.23132165 -0.32951534 1.077
0.2338596 -0.33043319 1.08
0.23553491 -0.33012724 1.079
0.23742676 -0.33012724 1.079
0.23865321 -0.32920936 1.0760001
0.2405398 -0.32920936 1.0760001
0.21007125 -0.32210925 1.0650001
0.21193855 -0.32210925 1.0650001
0.21380585 -0.32210925 1.0650001
0.21648319 -0.32331905 1.069
0.2183575 -0.32331905 1.069
0.21961376 -0.32241169 1.0660001
0.22210613 -0.32331905 1.069
0.22398044 -0.32331905 1.069
0.22585475 -0.32331905 1.069
0.22751604 -0.32301658 1.0680001
0.22938859 -0.32301658 1.0680001
0.23082809 -0.32241169 1.0660001
0.23247884 -0.32210925 1.0650001
0.23434615 -0.32210925 1.0650001
0.23532626 -0.32089946 1.0610001
0.23718655 -0.32089946 1.0610001
0.23972274 -0.32180679 1.064
0.24113418 -0.32120189 1.062
0.24322502 -0.32150435 1.0630001
0.24531938 -0.32180679 1.064
0.24718493 -0.32180679 1.064
0.24975269 -0.32271415 1.067
0.25233096 -0.32362151 1.0700001
0.25420704 -0.32362151 1.0700001
0.2560831 -0.32362151 1.0700001
0.25771809 -0.32331905 1.069
0.25934955 -0.32301658 1.0680001
0.25975457 -0.32120189 1.062
0.26161662 -0.32120189 1.062
0.26347867 -0.32120189 1.062
0.26534069 -0.32120189 1.062
0.26695114 -0.32089946 1.0610001
0.26957148 -0.32180679 1.064
0.27245748 -0.32301658 1.0680001
0.27330258 -0.32180679 1.064
0.27516812 -0.32180679 1.064
0.27729404 -0.32210925 1.0650001
0.27916133 -0.32210925 1.0650001
0.28102866 -0.32210925 1.0650001
0.28103653 -0.3199921 1.0580001
0.28182203 -0.3187823 1.054
0.28205523 -0.31696761 1.0480001
0.28389272 -0.31696761 1.0480001
0.28736606 -0.3187823 1.054
0.28921407 -0.3187823 1.054
0.29244286 -0.32029456 1.059
0.29457754 -0.32059699 1.0600001
0.29727504 -0.32150435 1.0630001
0.29885742 -0.32120189 1.062
0.30128577 -0.32180679 1.064
0.30229658 -0.32089946 1.0610001
0.30186352 -0.31847984 1.0530001
0.30370978 -0.31847984 1.0530001
0.3046855 -0.3175725 1.0500001
0.30565071 -0.31666514 1.0470001
0.30748644 -0.31666514 1.0470001
0.2094795 -0.31933987 1.062
0.21134154 -0.31933987 1.062
0.21320358 -0.31933987 1.062
0.21506561 -0.31933987 1.062
0.21692766 -0.31933987 1.062
0.21899572 -0.31964055 1.0630001
0.2216906 -0.32084334 1.067
0.22356139 -0.32084334 1.067
0.22522092 -0.32054263 1.0660001
0.22708997 -0.32054263 1.0660001
0.2280999 -0.31933987 1.062
0.22952886 -0.31873846 1.0600001
0.2311691 -0.31843776 1.059
0.23302589 -0.31843776 1.059
0.23466088 -0.31813708 1.0580001
0.23718655 -0.31903917 1.0610001
0.23904684 -0.31903917 1.0610001
0.20809875 -0.31538522 1.0550001
0.20994851 -0.31538522 1.0550001
0.21179828 -0.31538522 1.0550001
0.21364805 -0.31538522 1.0550001
0.21549782 -0.31538522 1.0550001
0.21734758 -0.31538522 1.0550001
0.21961288 -0.31598309 1.057
0.22146617 -0.31598309 1.057
0.22374199 -0.31658098 1.059
0.22559877 -0.31658098 1.059
0.22659642 -0.31538522 1.0550001
0.22779657 -0.31448838 1.052
0.23029594 -0.31538522 1.0550001
0.23214571 -0.31538522 1.0550001
0.23377368 -0.31508628 1.054
0.23651589 -0.31628203 1.0580001
0.23837093 -0.31628203 1.0580001
0.240453 -0.31658098 1.059
0.24185216 -0.31598309 1.057
0.24370544 -0.31598309 1.057
0.2453264 -0.31568417 1.056
0.24717791 -0.31568417 1.056
0.24690703 -0.31299368 1.0470001
0.24874277 -0.31299368 1.0470001
0.25129649 -0.31389049 1.0500001
0.25386074 -0.31478733 1.0530001
0.25643551 -0.31568417 1.056
0.25804245 -0.31538522 1.0550001
0.25964588 -0.31508628 1.054
0.26149389 -0.31508628 1.054
0.22401902 -0.30814043 1.0430001
0.22584774 -0.30814043 1.0430001
0.22811306 -0.30873132 1.0450001
0.22994529 -0.30873132 1.0450001
0.23177752 -0.30873132 1.0450001
0.23428039 -0.30961764 1.0480001
0.23544198 -0.30873132 1.0450001
0.23750128 -0.30902675 1.046
0.2402505 -0.3102085 1.0500001
0.24209149 -0.3102085 1.0500001
0.24323554 -0.30932218 1.0470001
0.24507129 -0.30932218 1.0470001
0.24619956 -0.30843589 1.044
0.24803004 -0.30843589 1.044
0.2481852 -0.30636781 1.0370001
0.25000343 -0.30636781 1.0370001
0.25497851 -0.3102085 1.0500001
0.25804245 -0.31168568 1.0550001
0.25989223 -0.31168568 1.0550001
0.26149389 -0.31139025 1.054
0.26259235 -0.31050393 1.051
0.26443511 -0.31050393 1.051
0.26627785 -0.31050393 1.051
0.26812062 -0.31050393 1.051
0.26996335 -0.31050393 1.051
0.27103028 -0.30961764 1.0480001
0.27286777 -0.30961764 1.0480001
0.29602841 -0.30695871 1.039
0.299095 -0.30636781 1.0370001
0.30091321 -0.30636781 1.0370001
0.30185562 -0.30548152 1.034
0.30278751 -0.3045952 1.031
0.30489063 -0.30489063 1.0320001
0.30670008 -0.30489063 1.0320001
0.30880848 -0.30518606 1.033
0.30941686 -0.30400434 1.029
0.3115235 -0.30429977 1.0300001
0.31150422 -0.30252716 1.024
0.31238174 -0.30164084 1.021
0.31417191 -0.30164084 1.021
0.28497013 -0.29926333 1.0190001
0.29041511 -0.30308118 1.0320001
0.29250771 -0.30337489 1.033
0.29346415 -0.30249384 1.0300001
0.29527009 -0.30249384 1.0300001
0.29707602 -0.30249384 1.0300001
0.29888198 -0.30249384 1.0300001
0.30097982 -0.30278751 1.031
0.30278751 -0.30278751 1.031
0.30429977 -0.30249384 1.0300001
0.30580851 -0.30220014 1.029
0.30761269 -0.30220014 1.029
0.30821407 -0.30102542 1.0250001
0.31061614 -0.30161279 1.0270001
0.31150422 -0.30073172 1.024
0.31238174 -0.29985067 1.021
0.31324878 -0.29896963 1.018
0.31503367 -0.29896963 1.018
0.24363793 -0.29539984 1.018
0.24542283 -0.29539984 1.018
0.24745056 -0.29569003 1.0190001
0.24923721 -0.29569003 1.0190001
0.25028482 -0.2948195 1.016
0.25206622 -0.2948195 1.016
0.2538476 -0.2948195 1.016
0.25638381 -0.29569003 1.0190001
0.25589022 -0.29307842 1.01
0.2576611 -0.29307842 1.01
0.26200059 -0.29598019 1.0200001
0.26275453 -0.2948195 1.016
0.2645359 -0.2948195 1.016
0.26631731 -0.2948195 1.016
0.26809868 -0.2948195 1.016
0.26988009 -0.2948195 1.016
0.27219623 -0.29539984 1.018
0.27371198 -0.29510966 1.0170001
0.27414069 -0.29365879 1.0120001
0.27591506 -0.29365879 1.0120001
0.27823821 -0.29423913 1.0140001
0.2783592 -0.29249808 1.008
0.28096026 -0.29336861 1.011
0.2832922 -0.29394895 1.013
0.28506833 -0.29394895 1.013
0.2874108 -0.29452932 1.0150001
0.2908999 -0.29627037 1.021
0.29269007 -0.29627037 1.021
0.29448023 -0.29627037 1.021
0.31193903 -0.29249808 1.008
0.31277275 -0.29162756 1.005
0.31453484 -0.29162756 1.005
0.20298339 -0.29419181 1.0200001
0.20416953 -0.29332653 1.0170001
0.19744726 -0.28695667 1.001
0.19920233 -0.28695667 1.001
0.2033665 -0.29039672 1.013
0.20352255 -0.28810334 1.005
0.20528466 -0.28810334 1.005
0.30129805 -0.28548649 1.0020001
0.3030549 -0.28548649 1.0020001
0.30481175 -0.28548649 1.0020001
0.30503878 -0.28406191 0.99700004
0.30678686 -0.28406191 0.99700004
0.30791602 -0.28349209 0.99500006
0.30872694 -0.28263733 0.99200004
0.31109217 -0.28320718 0.99400002
0.31283498 -0.28320718 0.99400002
0.31457782 -0.28320718 0.99400002
0.31632063 -0.28320718 0.99400002
0.31742346 -0.28263733 0.99200004
0.31916279 -0.28263733 0.99200004
0.32122555 -0.28292224 0.99300003
0.32296664 -0.28292224 0.99300003
0.32536167 -0.28349209 0.99500006
0.32644874 -0.28292224 0.99300003
0.32818982 -0.28292224 0.99300003
0.19429125 -0.27718884 0.98500007
0.19601828 -0.27718884 0.98500007
0.19774531 -0.27718884 0.98500007
0.20028239 -0.2783145 0.98900002
0.20201643 -0.2783145 0.98900002
0.20375048 -0.2783145 0.98900002
0.20548452 -0.2783145 0.98900002
0.20700905 -0.27803308 0.98800004
0.20874135 -0.27803308 0.98800004
0.21132576 -0.27915871 0.99200004
0.21285029 -0.27887732 0.99100006
0.21458784 -0.27887732 0.99100006
0.21676196 -0.27944013 0.99300003
0.21872307 -0.27972153 0.99400002
0.22046588 -0.27972153 0.99400002
0.22064385 -0.27775165 0.98700005
0.22237439 -0.27775165 0.98700005
0.22592138 -0.28000295 0.99500006
0.22766595 -0.28000295 0.99500006
0.22941051 -0.28000295 0.99500006
0.23045813 -0.27915871 0.99200004
0.2324315 -0.27944013 0.99300003
0.23346511 -0.27859589 0.99000007
0.23567605 -0.27915871 0.99200004
0.23741536 -0.27915871 0.99200004
0.23915467 -0.27915871 0.99200004
0.24162248 -0.28000295 0.99500006
0.24336705 -0.28000295 0.99500006
0.24437259 -0.27915871 0.99200004
0.2453676 -0.2783145 0.98900002
0.2468518 -0.27803308 0.98800004
0.24858409 -0.27803308 0.98800004
0.25031638 -0.27803308 0.98800004
0.25255889 -0.27859589 0.99000007
0.25429469 -0.27859589 0.99000007
0.21027288 -0.27035084 0.97900003
0.21198939 -0.27035084 0.97900003
0.21370591 -0.27035084 0.97900003
0.21586251 -0.27090314 0.98100007
0.21713893 -0.27035084 0.97900003
0.21885546 -0.27035084 0.97900003
0.22102256 -0.27090314 0.98100007
0.22228847 -0.27035084 0.97900003
0.22400498 -0.27035084 0.97900003
0.22456868 -0.2689701 0.97400004
0.22534716 -0.26786551 0.97000003
0.22704791 -0.26786551 0.97000003
0.22874863 -0.26786551 0.97000003
0.23044936 -0.26786551 0.97000003
0.23215009 -0.26786551 0.97000003
0.23385084 -0.26786551 0.97000003
0.23555157 -0.26786551 0.97000003
0.23749688 -0.26814166 0.97100008
0.23993841 -0.2689701 0.97400004
0.24239044 -0.26979855 0.97700006
0.2438536 -0.2695224 0.97600007
0.24556485 -0.2695224 0.97600007
0.24727611 -0.2695224 0.97600007
0.24822202 -0.26869395 0.97300005
0.24992803 -0.26869395 0.97300005
0.251634 -0.26869395 0.97300005
0.25334001 -0.26869395 0.97300005
0.25504601 -0.26869395 0.97300005
0.25675198 -0.26869395 0.97300005
0.25845799 -0.26869395 0.97300005
0.26043138 -0.2689701 0.97400004
0.26133171 -0.26814166 0.97100008
0.26086706 -0.26593244 0.96300006
0.26255554 -0.26593244 0.96300006
0.26726234 -0.2689701 0.97400004
0.2689701 -0.2689701 0.97400004
0.27067783 -0.2689701 0.97400004
0.27378386 -0.27035084 0.97900003
0.27550039 -0.27035084 0.97900003
0.27665058 -0.26979855 0.97700006
0.27836359 -0.26979855 0.97700006
0.28007659 -0.26979855 0.97700006
0.28150117 -0.2695224 0.97600007
0.28321242 -0.2695224 0.97600007
0.2840479 -0.26869395 0.97300005
0.28604758 -0.2689701 0.97400004
0.28775531 -0.2689701 0.97400004
0.28916585 -0.26869395 0.97300005
0.2917687 -0.2695224 0.97600007
0.29167578 -0.26786551 0.97000003
0.29277161 -0.26731321 0.96800005
0.29446882 -0.26731321 0.96800005
0.29616606 -0.26731321 0.96800005
0.29970953 -0.2689701 0.97400004
0.30203623 -0.2695224 0.97600007
0.30281383 -0.26869395 0.97300005
0.3045198 -0.26869395 0.97300005
0.19074075 -0.2636461 0.96700007
0.19243622 -0.2636461 0.96700007
0.19453321 -0.26419139 0.96900004
0.19683972 -0.26500931 0.97200006
0.19854397 -0.26500931 0.97200006
0.20086625 -0.26582724 0.97500002
0.20132913 -0.26419139 0.96900004
0.20323764 -0.26446402 0.97000003
0.20557219 -0.26528198 0.97300005
0.20621304 -0.26391876 0.96800005
0.20705113 -0.26282817 0.96400005
0.20809174 -0.26201025 0.96100003
0.20977668 -0.26201025 0.96100003
0.20029028 -0.26113796 0.96400005
0.20219001 -0.26140884 0.96500003
0.23095345 -0.26140884 0.96500003
0.23192216 -0.26059619 0.96200007
0.23360887 -0.26059619 0.96200007
0.23505099 -0.26032528 0.96100003
0.23772131 -0.26140884 0.96500003
0.24015757 -0.26222152 0.96800005
0.24110524 -0.26140884 0.96500003
0.24279721 -0.26140884 0.96500003
0.24448918 -0.26140884 0.96500003
0.24541582 -0.26059619 0.96200007
0.24710253 -0.26059619 0.96200007
0.24878924 -0.26059619 0.96200007
0.24969482 -0.25978351 0.95900005
0.25111416 -0.25951263 0.95800006
0.25279385 -0.25951263 0.95800006
0.25447354 -0.25951263 0.95800006
0.25615323 -0.25951263 0.95800006
0.2583712 -0.26005441 0.96000004
0.25951263 -0.25951263 0.95800006
0.26119232 -0.25951263 0.95800006
0.26342079 -0.26005441 0.96000004
0.265104 -0.26005441 0.96000004
0.2667872 -0.26005441 0.96000004
0.26847041 -0.26005441 0.96000004
0.27015361 -0.26005441 0.96000004
0.27183679 -0.26005441 0.96000004
0.27465966 -0.26113796 0.96400005
0.27634987 -0.26113796 0.96400005
0.2768864 -0.26005441 0.96000004
0.27856961 -0.26005441 0.96000004
0.28200439 -0.26167974 0.96600002
0.28369811 -0.26167974 0.96600002
0.28509638 -0.26140884 0.96500003
0.28678834 -0.26140884 0.96500003
0.28848031 -0.26140884 0.96500003
0.29017228 -0.26140884 0.96500003
0.29095688 -0.26059619 0.96200007
0.29142678 -0.25951263 0.95800006
0.29249457 -0.25897083 0.95600003
0.29355535 -0.25842905 0.95400006
0.295228 -0.25842905 0.95400006
0.29845679 -0.25978351 0.95900005
0.2995123 -0.25924173 0.95700002
0.30056077 -0.25869995 0.95500004
0.30286816 -0.25924173 0.95700002
0.30645549 -0.26086706 0.96300006
0.18797925 -0.25481632 0.95300007
0.18965018 -0.25481632 0.95300007
0.1913211 -0.25481632 0.95300007
0.19137195 -0.25267726 0.94500005
0.19302885 -0.25267726 0.94500005
0.19592185 -0.25428155 0.95100003
0.1967582 -0.253212 0.94700003
0.19862811 -0.25347939 0.94800007
0.20029028 -0.25347939 0.94800007
0.20173942 -0.253212 0.94700003
0.20382938 -0.25374678 0.94900006
0.2054933 -0.25374678 0.94900006
0.20715721 -0.25374678 0.94900006
0.20882112 -0.25374678 0.94900006
0.21092863 -0.25428155 0.95100003
0.2119254 -0.25347939 0.94800007
0.21358755 -0.25347939 0.94800007
0.2132062 -0.25107294 0.93900007
0.21462378 -0.25080556 0.93800002
0.21742122 -0.25214249 0.94300002
0.2188423 -0.2518751 0.94200003
0.22049394 -0.2518751 0.94200003
0.22214557 -0.2518751 0.94200003
0.22379722 -0.2518751 0.94200003
0.22688484 -0.25347939 0.94800007
0.22902916 -0.25401416 0.95000005
0.23069483 -0.25401416 0.95000005
0.2323605 -0.25401416 0.95000005
0.23402616 -0.25401416 0.95000005
0.23544374 -0.25374678 0.94900006
0.2368578 -0.25347939 0.94800007
0.23977798 -0.25481632 0.95300007
0.24144891 -0.25481632 0.95300007
0.24337494 -0.25508371 0.95400006
0.24427703 -0.25428155 0.95100003
0.24594446 -0.25428155 0.95100003
0.24761187 -0.25428155 0.95100003
0.26091966 -0.24456106 0.93300003
0.26199272 -0.24403682 0.93100005
0.26447454 -0.24482319 0.93400002
0.26582724 -0.24456106 0.93300003
0.26631641 -0.24351257 0.92900002
0.26794529 -0.24351257 0.92900002
0.26986429 -0.2437747 0.93000007
0.27091104 -0.24325044 0.92800003
0.27106971 -0.24193983 0.92300004
0.27268803 -0.24193983 0.92300004
0.27519795 -0.24272621 0.92600006
0.27562577 -0.24167772 0.92200005
0.27724233 -0.24167772 0.92200005
0.2788589 -0.24167772 0.92200005
0.28108388 -0.24220195 0.92400002
0.28270397 -0.24220195 0.92400002
0.28524718 -0.24298833 0.92700005
0.28687251 -0.24298833 0.92700005
0.28943151 -0.2437747 0.93000007
0.29106209 -0.2437747 0.93000007
0.29206327 -0.24325044 0.92800003
0.29369035 -0.24325044 0.92800003
0.29531744 -0.24325044 0.92800003
0.29694453 -0.24325044 0.92800003
0.29889336 -0.24351257 0.92900002
0.3001987 -0.24325044 0.92800003
0.30215105 -0.24351257 0.92900002
0.3037799 -0.24351257 0.92900002
0.30508 -0.24325044 0.92800003
0.30835959 -0.24456106 0.93300003
0.31099224 -0.24534744 0.93600005
0.31330138 -0.24587168 0.93800002
0.31427449 -0.24534744 0.93600005
0.31625313 -0.24560957 0.93700004
0.31789598 -0.24560957 0.93700004
0.31885681 -0.24508531 0.93500006
0.31843951 -0.24351257 0.92900002
0.3193793 -0.24298833 0.92700005
0.32100466 -0.24298833 0.92700005
0.32262999 -0.24298833 0.92700005
0.32530469 -0.2437747 0.93000007
0.32693529 -0.2437747 0.93000007
0.19343387 -0.24240448 0.93100005
0.19527574 -0.24266484 0.93200004
0.19690984 -0.24266484 0.93200004
0.28056225 -0.23554367 0.91700006
0.28217006 -0.23554367 0.91700006
0.28377786 -0.23554367 0.91700006
0.28569689 -0.23580053 0.91800004
0.28730646 -0.23580053 0.91800004
0.28828657 -0.23528682 0.91600007
0.29115853 -0.23631427 0.92000002
0.2937263 -0.23708485 0.92300004
0.29374468 -0.23580053 0.91800004
0.29535425 -0.23580053 0.91800004
0.29728732 -0.2360574 0.91900003
0.2995491 -0.23657113 0.92100006
0.3027989 -0.23785545 0.92600006
0.3017925 -0.23580053 0.91800004
0.30340207 -0.23580053 0.91800004
0.30467936 -0.23554367 0.91700006
0.30728918 -0.23631427 0.92000002
0.30890226 -0.23631427 0.92000002
0.31085286 -0.23657113 0.92100006
0.31246766 -0.23657113 0.92100006
0.31305942 -0.23580053 0.91800004
0.31501177 -0.2360574 0.91900003
0.31558949 -0.23528682 0.91600007
0.31684926 -0.23502995 0.91500002
0.31845355 -0.23502995 0.91500002
0.32005784 -0.23502995 0.91500002
0.31990442 -0.23374563 0.91000003
0.32149997 -0.23374563 0.91000003
0.3230955 -0.23374563 0.91000003
0.32540464 -0.23425935 0.91200006
0.33094779 -0.23708485 0.92300004
0.33184552 -0.23657113 0.92100006
0.33346033 -0.23657113 0.92100006
0.33543897 -0.23682798 0.92200005
0.33595884 -0.2360574 0.91900003
0.33757013 -0.2360574 0.91900003
0.33881238 -0.23580053 0.91800004
0.17930025 -0.2303012 0.90900004
0.18089403 -0.2303012 0.90900004
0.18288933 -0.23080792 0.91100007
0.18448661 -0.23080792 0.91100007
0.1860839 -0.23080792 0.91100007
0.18747516 -0.23055457 0.91000003
0.18927847 -0.23080792 0.91100007
0.19066623 -0.23055457 0.91000003
0.19247304 -0.23080792 0.91100007
0.19428337 -0.23106128 0.91200006
0.19545284 -0.23055457 0.91000003
0.19704837 -0.23055457 0.91000003
0.19864389 -0.23055457 0.91000003
0.20067953 -0.23106128 0.91200006
0.20183496 -0.23055457 0.91000003
0.2034305 -0.23055457 0.91000003
0.20480072 -0.2303012 0.90900004
0.20548628 -0.22928779 0.90500003
0.20638663 -0.22852771 0.90200007
0.20819868 -0.22878107 0.90300006
0.209085 -0.228021 0.90000004
0.21042892 -0.22776765 0.89900005
0.21153353 -0.22726093 0.89700001
0.21263112 -0.22675422 0.89500004
0.21420035 -0.22675422 0.89500004
0.21625175 -0.22726093 0.89700001
0.21782449 -0.22726093 0.89700001
0.21939723 -0.22726093 0.89700001
0.22294071 -0.22928779 0.90500003
0.22626416 -0.23106128 0.91200006
0.22786319 -0.23106128 0.91200006
0.22996545 -0.23156799 0.91400003
0.23131463 -0.23131463 0.91300005
0.23342565 -0.23182134 0.91500002
0.23502995 -0.23182134 0.91500002
0.2358584 -0.23106128 0.91200006
0.23745744 -0.23106128 0.91200006
0.2382701 -0.2303012 0.90900004
0.24012777 -0.23055457 0.91000003
0.24092641 -0.2297945 0.90700006
0.24144715 -0.22878107 0.90300006
0.24303041 -0.22878107 0.90300006
0.24515545 -0.22928779 0.90500003
0.24701487 -0.22954114 0.90600002
0.24860337 -0.22954114 0.90600002
0.2501919 -0.22954114 0.90600002
0.18335482 -0.22080603 0.89000005
0.18710433 -0.22155032 0.89300007
0.2468781 -0.22179842 0.89400005
0.24816768 -0.22155032 0.89300007
0.24945374 -0.22130223 0.89200002
0.25101772 -0.22130223 0.89200002
0.25201535 -0.22080603 0.89000005
0.25443059 -0.22155032 0.89300007
0.25599632 -0.22155032 0.89300007
0.25698519 -0.22105412 0.89100003
0.25796705 -0.22055793 0.88900006
0.25923383 -0.22030984 0.88800007
0.2607908 -0.22030984 0.88800007
0.2617569 -0.21981364 0.88600004
0.26301315 -0.21956556 0.88500005
0.26426589 -0.21931745 0.88400006
0.26731932 -0.22055793 0.88900006
0.26918051 -0.22080603 0.89000005
0.27013257 -0.22030984 0.88800007
0.27230144 -0.22080603 0.89000005
0.27416959 -0.22105412 0.89100003
0.27542236 -0.22080603 0.89000005
0.27698284 -0.22080603 0.89000005
0.27854329 -0.22080603 0.89000005
0.27884486 -0.21981364 0.88600004
0.28071481 -0.22006175 0.88700002
0.28290647 -0.22055793 0.88900006
0.28510514 -0.22105412 0.89100003
0.28666738 -0.22105412 0.89100003
0.28758261 -0.22055793 0.88900006
0.28979182 -0.22105412 0.89100003
0.29070005 -0.22055793 0.88900006
0.29160124 -0.22006175 0.88700002
0.29447848 -0.22105412 0.89100003
0.29703745 -0.22179842 0.89400005
0.29860494 -0.22179842 0.89400005
0.30017242 -0.22179842 0.89400005
0.3017399 -0.22179842 0.89400005
0.30262884 -0.22130223 0.89200002
0.30453384 -0.22155032 0.89300007
0.30609956 -0.22155032 0.89300007
0.30766529 -0.22155032 0.89300007
0.30819216 -0.22080603 0.89000005
0.30975264 -0.22080603 0.89000005
0.31131309 -0.22080603 0.89000005
0.31357664 -0.22130223 0.89200002
0.31620052 -0.22204651 0.89500004
0.3181248 -0.22229461 0.89600003
0.32076618 -0.2230389 0.89900005
0.32198387 -0.22279081 0.89800006
0.32319808 -0.2225427 0.89700001
0.32513288 -0.22279081 0.89800006
0.32707119 -0.2230389 0.89900005
0.32864743 -0.2230389 0.89900005
0.3287544 -0.22204651 0.89500004
0.32995453 -0.22179842 0.89400005
0.25719032 -0.21548378 0.88100004
0.258735 -0.21548378 0.88100004
0.25968882 -0.21499461 0.87900007
0.26123002 -0.21499461 0.87900007
0.2621733 -0.21450543 0.87700003
0.26521447 -0.21572837 0.88200003
0.26706335 -0.21597297 0.88300002
0.26861155 -0.21597297 0.88300002
0.27015972 -0.21597297 0.88300002
0.27170792 -0.21597297 0.88300002
0.27356559 -0.21621756 0.88400006
0.27542675 -0.21646215 0.88500005
0.27603954 -0.21572837 0.88200003
0.2779007 -0.21597297 0.88300002
0.2794489 -0.21597297 0.88300002
0.2809971 -0.21597297 0.88300002
0.28254527 -0.21597297 0.88300002
0.28409347 -0.21597297 0.88300002
0.28531817 -0.21572837 0.88200003
0.28653938 -0.21548378 0.88100004
0.28841105 -0.21572837 0.88200003
0.29061499 -0.21621756 0.88400006
0.29216495 -0.21621756 0.88400006
0.29404715 -0.21646215 0.88500005
0.29626685 -0.21695133 0.88700002
0.29782209 -0.21695133 0.88700002
0.29937729 -0.21695133 0.88700002
0.30127177 -0.21719591 0.88800007
0.30282873 -0.21719591 0.88800007
0.30438569 -0.21719591 0.88800007
0.30594262 -0.21719591 0.88800007
0.30680704 -0.21670674 0.88600004
0.30836049 -0.21670674 0.88600004
0.30886456 -0.21597297 0.88300002
0.17405602 -0.20901924 0.86700004
0.17598119 -0.20950142 0.86900002
0.2754136 -0.21215333 0.88000005
0.27664182 -0.21191224 0.87900007
0.27723357 -0.211189 0.87600005
0.27845123 -0.21094792 0.87500006
0.27998543 -0.21094792 0.87500006
0.28151959 -0.21094792 0.87500006
0.28208327 -0.21022466 0.87200004
0.28426266 -0.21070683 0.87400001
0.28677607 -0.21143009 0.87700003
0.28897125 -0.21191224 0.87900007
0.29051244 -0.21191224 0.87900007
0.29205361 -0.21191224 0.87900007
0.29359478 -0.21191224 0.87900007
0.29614326 -0.2126355 0.88200003
0.29768971 -0.2126355 0.88200003
0.29957542 -0.21287659 0.88300002
0.30112359 -0.21287659 0.88300002
0.30335736 -0.21335874 0.88500005
0.30421999 -0.21287659 0.88300002
0.30507562 -0.21239442 0.88100004
0.3066203 -0.21239442 0.88100004
0.30781519 -0.21215333 0.88000005
0.30935812 -0.21215333 0.88000005
0.31090108 -0.21215333 0.88000005
0.312444 -0.21215333 0.88000005
0.31398693 -0.21215333 0.88000005
0.31552985 -0.21215333 0.88000005
0.31743312 -0.21239442 0.88100004
0.3189778 -0.21239442 0.88100004
0.32052249 -0.21239442 0.88100004
0.32316387 -0.21311766 0.88400006
0.32471383 -0.21311766 0.88400006
0.32331115 -0.211189 0.87600005
0.32484707 -0.211189 0.87600005
0.32675558 -0.21143009 0.87700003
0.32829326 -0.21143009 0.87700003
0.32870266 -0.21070683 0.87400001
0.3294794 -0.21022466 0.87200004
0.33138788 -0.21046574 0.87300003
0.33291855 -0.21046574 0.87300003
0.33483231 -0.21070683 0.87400001
0.33713445 -0.211189 0.87600005
0.33905697 -0.21143009 0.87700003
0.34059465 -0.21143009 0.87700003
0.34135208 -0.21094792 0.87500006
0.34131876 -0.20998359 0.87100005
0.34284592 -0.20998359 0.87100005
0.34358233 -0.20950142 0.86900002
0.34391457 -0.20877817 0.86600006
0.34543297 -0.20877817 0.86600006
0.34574944 -0.20805492 0.86300004
0.34766495 -0.208296 0.86400002
0.17002951 -0.20630246 0.86200005
0.17154087 -0.20630246 0.86200005
0.17345376 -0.20678112 0.86400002
0.17496864 -0.20678112 0.86400002
0.17668778 -0.20702045 0.86500007
0.17820442 -0.20702045 0.86500007
0.18075989 -0.2082171 0.87000006
0.18207577 -0.20797777 0.86900002
0.18444453 -0.20893508 0.87300003
0.18618822 -0.20917442 0.87400001
0.18729107 -0.20869575 0.87200004
0.18881997 -0.20869575 0.87200004
0.19100375 -0.20941375 0.87500006
0.19209783 -0.20893508 0.87300003
0.19385028 -0.20917442 0.87400001
0.1953827 -0.20917442 0.87400001
0.19646451 -0.20869575 0.87200004
0.34976369 -0.20384078 0.85800004
0.17758636 -0.20327972 0.86200005
0.17972104 -0.20398718 0.86500007
0.18165673 -0.20445883 0.86700004
0.18317688 -0.20445883 0.86700004
0.18512307 -0.20493047 0.86900002
0.18600236 -0.20422301 0.86600006
0.18708768 -0.20375136 0.86400002
0.18860255 -0.20375136 0.86400002
0.19011743 -0.20375136 0.86400002
0.19185412 -0.20398718 0.86500007
0.19225299 -0.20280807 0.86000001
0.19353557 -0.20257224 0.85900003
0.19458756 -0.20210059 0.85700005
0.19631898 -0.20233642 0.85800004
0.19782335 -0.20233642 0.85800004
0.20025696 -0.20327972 0.86200005
0.20153427 -0.20304389 0.86100006
0.20280807 -0.20280807 0.86000001
0.20455351 -0.20304389 0.86100006
0.20654179 -0.20351553 0.86300004
0.20757274 -0.20304389 0.86100006
0.20908237 -0.20304389 0.86100006
0.21108116 -0.20351553 0.86300004
0.21308698 -0.20398718 0.86500007
0.21460362 -0.20398718 0.86500007
0.21711965 -0.20493047 0.86900002
0.2191465 -0.20540212 0.87100005
0.22067365 -0.20540212 0.87100005
0.2219457 -0.2051663 0.87000006
0.22347111 -0.2051663 0.87000006
0.22499649 -0.2051663 0.87000006
0.42314595 -0.20504531 0.87600005
0.42468187 -0.20504531 0.87600005
0.42621779 -0.20504531 0.87600005
0.42775372 -0.20504531 0.87600005
0.42830953 -0.20457718 0.87400001
0.42984194 -0.20457718 0.87400001
0.22791053 -0.19932769 0.85800004
0.2294149 -0.19932769 0.85800004
0.2311884 -0.19956002 0.85900003
0.23269451 -0.19956002 0.85900003
0.2347459 -0.20002465 0.86100006
0.23570673 -0.19956002 0.85900003
0.23721285 -0.19956002 0.85900003
0.23816316 -0.19909538 0.85700005
0.23966576 -0.19909538 0.85700005
0.24060555 -0.19863075 0.85500002
0.24210465 -0.19863075 0.85500002
0.24274901 -0.19793379 0.85200006
0.24395616 -0.19770148 0.85100001
0.24573667 -0.19793379 0.85200006
0.24810106 -0.19863075 0.85500002
0.24930821 -0.19839843 0.85400003
0.25109926 -0.19863075 0.85500002
0.25259835 -0.19863075 0.85500002
0.25409746 -0.19863075 0.85500002
0.25559655 -0.19863075 0.85500002
0.25679496 -0.19839843 0.85400003
0.25829229 -0.19839843 0.85400003
0.26039806 -0.19886306 0.85600007
0.26189891 -0.19886306 0.85600007
0.26401517 -0.19932769 0.85800004
0.26490062 -0.19886306 0.85600007
0.26422295 -0.19723685 0.84900004
0.26571152 -0.19723685 0.84900004
0.26845899 -0.19816612 0.85300004
0.27027106 -0.19839843 0.85400003
0.27113196 -0.19793379 0.85200006
0.27198583 -0.19746916 0.85000002
0.27411965 -0.19793379 0.85200006
0.27593696 -0.19816612 0.85300004
0.27743256 -0.19816612 0.85300004
0.27925515 -0.19839843 0.85400003
0.27976626 -0.19770148 0.85100001
0.28125834 -0.19770148 0.85100001
0.2820859 -0.19723685 0.84900004
0.28324047 -0.19700453 0.84800005
0.28472731 -0.19700453 0.84800005
0.28621414 -0.19700453 0.84800005
0.28770095 -0.19700453 0.84800005
0.28918779 -0.19700453 0.84800005
0.29033184 -0.19677222 0.84700006
0.29216143 -0.19700453 0.84800005
0.29468712 -0.19770148 0.85100001
0.29652724 -0.19793379 0.85200006
0.29802108 -0.19793379 0.85200006
0.29881182 -0.19746916 0.85000002
0.30030218 -0.19746916 0.85000002
0.3032127 -0.19839843 0.85400003
0.30506685 -0.19863075 0.85500002
0.30620739 -0.19839843 0.85400003
0.30770475 -0.19839843 0.85400003
0.31065035 -0.19932769 0.85800004
0.31288233 -0.19979233 0.86000001
0.31402463 -0.19956002 0.85900003
0.3151634 -0.19932769 0.85800004
0.31666777 -0.19932769 0.85800004
0.31668881 -0.19839843 0.85400003
0.31744099 -0.19793379 0.85200006
0.31818616 -0.19746916 0.85000002
0.32005259 -0.19770148 0.85100001
0.31927761 -0.19630758 0.84500003
0.32075918 -0.19630758 0.84500003
0.335062 -0.19220039 0.84000003
0.33613417 -0.19197159 0.83900005
0.33840999 -0.19242921 0.84100002
0.34109697 -0.19311564 0.84400004
0.34217089 -0.19288683 0.84300005
0.34364894 -0.19288683 0.84300005
0.34553641 -0.19311564 0.84400004
0.34496045 -0.19197159 0.83900005
0.34643149 -0.19197159 0.83900005
0.34582922 -0.19082753 0.83400005
0.34687507 -0.19059873 0.83300006
0.34917194 -0.19105636 0.83500004
0.35063598 -0.19105636 0.83500004
0.35210001 -0.19105636 0.83500004
0.35229376 -0.19036992 0.83200002
0.35417771 -0.19059873 0.83300006
0.19888324 -0.18868409 0.83100003
0.20034026 -0.18868409 0.83100003
0.20228294 -0.1891382 0.83300006
0.20472182 -0.19004643 0.83700001
0.20618936 -0.19004643 0.83700001
0.20765691 -0.19004643 0.83700001
0.20912445 -0.19004643 0.83700001
0.21034038 -0.18981937 0.83600003
0.21256624 -0.19050054 0.83900005
0.21301685 -0.18959232 0.83500004
0.21448088 -0.18959232 0.83500004
0.21646215 -0.19004643 0.83700001
0.21766932 -0.18981937 0.83600003
0.21939723 -0.19004643 0.83700001
0.22086477 -0.19004643 0.83700001
0.22259794 -0.19027348 0.83800006
0.22406723 -0.19027348 0.83800006
0.2252674 -0.19004643 0.83700001
0.22673492 -0.19004643 0.83700001
0.2290204 -0.19072759 0.84000003
0.2302188 -0.19050054 0.83900005
0.23168986 -0.19050054 0.83900005
0.2334388 -0.19072759 0.84000003
0.23491161 -0.19072759 0.84000003
0.23666582 -0.19095466 0.84100002
0.23927301 -0.19186288 0.84500003
0.3487266 -0.18487585 0.82700002
0.34975317 -0.1846523 0.82600003
0.35120144 -0.1846523 0.82600003
0.35264969 -0.1846523 0.82600003
0.35452664 -0.18487585 0.82700002
0.35597664 -0.18487585 0.82700002
0.41451779 -0.1953827 0.87400001
0.41557419 -0.19515915 0.87300003
0.41710484 -0.19515915 0.87300003
0.41959459 -0.19560625 0.87500006
0.42112875 -0.19560625 0.87500006
0.42266291 -0.19560625 0.87500006
0.42322749 -0.19515915 0.87300003
0.42475814 -0.19515915 0.87300003
0.4258005 -0.1949356 0.87200004
0.42487913 -0.19381785 0.86700004
0.42639926 -0.19381785 0.86700004
0.23389292 -0.18320404 0.82600003
0.23534116 -0.18320404 0.82600003
