# .PCD v0.7 - Point Cloud Data file format
VERSION 0.7
FIELDS x y z
SIZE 4 4 4
TYPE F F F
COUNT 1 1 1
WIDTH 1561
HEIGHT 1
VIEWPOINT 0 0 0 1 0 0 0
POINTS 1561
DATA ascii
0.66172552 -1.286845 3.2120001
0.66507179 -1.2824379 3.2010002
0.66963655 -1.2804347 3.1960001
0.67418385 -1.2784317 3.1910002
0.6689142 -1.2579992 3.1400001
0.67678225 -1.2624061 3.1510003
0.68274009 -1.2632074 3.1530001
0.70289379 -1.29005 3.2200003
0.70875955 -1.2904507 3.2210002
0.71019292 -1.2828386 3.2020001
0.71960747 -1.2896494 3.2190001
0.72705388 -1.2928545 3.2270002
0.73271185 -1.2928545 3.2270002
0.74546295 -1.3052742 3.2580001
0.74886972 -1.3012679 3.2480001
0.74503952 -1.2848418 3.2070003
0.75019437 -1.2840405 3.2050002
0.76288849 -1.2960596 3.2350001
0.76784778 -1.2948577 3.2320001
0.77351457 -1.2948577 3.2320001
0.78014565 -1.2964603 3.2360001
0.78581947 -1.2964603 3.2360001
0.79589587 -1.3036717 3.2540002
0.80332559 -1.3064761 3.2610002
0.80904323 -1.3064761 3.2610002
0.80676562 -1.2936558 3.2290001
0.8091563 -1.2884475 3.2160001
0.81378162 -1.286845 3.2120001
0.82196444 -1.2908514 3.2220001
0.82761365 -1.2908514 3.2220001
0.83378011 -1.2916526 3.2240002
0.8376103 -1.2888482 3.2170002
0.8524251 -1.3028704 3.2520001
0.85944629 -1.3048736 3.2570002
0.86701632 -1.3076781 3.2640002
0.8746109 -1.3104825 3.2710001
0.88034606 -1.3104825 3.2710001
0.88987362 -1.3160914 3.2850001
0.89454275 -1.3144889 3.2810001
0.8884964 -1.2972615 3.2380002
0.89859211 -1.3036717 3.2540002
0.90346372 -1.3024698 3.2510002
0.9074859 -1.300066 3.2450001
0.91627097 -1.3044729 3.256
0.92169666 -1.3040724 3.2550001
0.93053782 -1.3084793 3.2660003
0.93884426 -1.312085 3.2750001
0.94545168 -1.313287 3.2780001
0.95003837 -1.3116845 3.2740002
0.95577884 -1.3116845 3.2740002
0.96416235 -1.3152902 3.2830002
0.96991855 -1.3152902 3.2830002
0.98815674 -1.332117 3.325
0.99249184 -1.3301138 3.3200002
0.99229902 -1.322101 3.3000002
0.99566537 -1.3188959 3.2920001
1.0005248 -1.3176939 3.2890003
1.0157762 -1.3301138 3.3200002
1.022828 -1.3317163 3.3240001
1.0255615 -1.3277099 3.3140001
1.0313721 -1.3277099 3.3140001
1.0371826 -1.3277099 3.3140001
1.0411048 -1.3253061 3.3080001
1.0399423 -1.3164921 3.2860003
1.0434761 -1.3136876 3.279
1.0492253 -1.3136876 3.279
1.0565832 -1.3156908 3.2840002
1.0626646 -1.3160914 3.2850001
1.065172 -1.312085 3.2750001
1.0676441 -1.3080788 3.2650001
1.0733688 -1.3080788 3.2650001
1.0668647 -1.2932552 3.2280002
1.0725245 -1.2932552 3.2280002
1.0825264 -1.2984635 3.2410002
1.0882089 -1.2984635 3.2410002
1.0938915 -1.2984635 3.2410002
1.1026275 -1.3020692 3.2500002
1.1069617 -1.3004667 3.2460001
1.1020269 -1.2880468 3.2150002
1.109042 -1.2896494 3.2190001
1.1157249 -1.2908514 3.2220001
1.1279868 -1.2984635 3.2410002
1.1315707 -1.2960596 3.2350001
1.1347818 -1.2932552 3.2280002
1.1407949 -1.2936558 3.2290001
1.1347398 -1.2804347 3.1960001
1.139273 -1.2792329 3.1930001
1.1455885 -1.2800342 3.1950002
1.1400208 -1.2676144 3.164
1.1318099 -1.2523903 3.1260002
1.1234659 -1.237166 3.0880001
1.1277834 -1.2359641 3.085
1.1218054 -1.2235444 3.0540001
1.1326963 -1.2295539 3.0690002
1.1447521 -1.2367654 3.0870001
1.1501647 -1.2367654 3.0870001
1.1638126 -1.2455794 3.1090002
1.1583571 -1.2339609 3.0800002
1.1645131 -1.2347622 3.0820003
1.1771293 -1.2423743 3.1010001
1.1825663 -1.2423743 3.1010001
1.1669327 -1.2203393 3.0460002
1.1726582 -1.22074 3.0470002
1.1660157 -1.2083201 3.016
1.1713037 -1.2083201 3.016
1.1586465 -1.1898909 2.97
1.1689482 -1.1950991 2.983
1.1753592 -1.1963011 2.9860001
1.1833624 -1.1991055 2.993
1.1782846 -1.188689 2.9670002
1.1802958 -1.1854839 2.9590001
1.1854839 -1.1854839 2.9590001
1.1926839 -1.1874871 2.9640002
1.1978809 -1.1874871 2.9640002
1.2018601 -1.1862851 2.9610002
1.2070516 -1.1862851 2.9610002
1.1917731 -1.1662533 2.9110003
1.1948212 -1.1642501 2.9060001
1.1999165 -1.1642501 2.9060001
1.194645 -1.1542342 2.881
1.1996964 -1.1542342 2.881
1.2009842 -1.1506284 2.8720002
1.1955217 -1.1406126 2.8470001
1.2043085 -1.1442183 2.8560002
1.209316 -1.1442183 2.8560002
1.2138984 -1.1438177 2.855
1.2189041 -1.1438177 2.855
1.2243387 -1.1442183 2.8560002
1.2293462 -1.1442183 2.8560002
1.2235488 -1.1342024 2.8310001
1.2315501 -1.1370069 2.8380001
1.2265049 -1.1277922 2.8150001
1.2314405 -1.1277922 2.8150001
1.2267135 -1.1189783 2.7930002
1.2285239 -1.1161737 2.786
1.2382785 -1.1205808 2.7970002
1.2422936 -1.1197795 2.7950001
1.2293453 -1.103754 2.7550001
1.2328318 -1.1025521 2.7520001
1.2399056 -1.1045552 2.7570002
1.2375158 -1.0981451 2.7410002
1.2396023 -1.0957413 2.7350001
1.2457626 -1.0969431 2.7380002
1.2505633 -1.0969431 2.7380002
1.2516959 -1.0937381 2.73
1.246357 -1.0849241 2.7080002
1.2529531 -1.0865266 2.7120001
1.2744033 -1.1009495 2.7480001
1.2787559 -1.1005489 2.7470002
1.2644145 -1.0841228 2.7060001
1.2700971 -1.0849241 2.7080002
1.2748451 -1.0849241 2.7080002
1.26589 -1.0733056 2.6790001
1.2658445 -1.0692992 2.6690001
1.270524 -1.0692992 2.6690001
1.2689925 -1.064091 2.6560001
1.2746085 -1.0648923 2.6580002
1.2686805 -1.0560782 2.6360002
1.2612262 -1.0460624 2.6110001
1.256593 -1.0384502 2.592
1.2625972 -1.0396521 2.595
1.2671472 -1.0396521 2.595
1.271207 -1.0392516 2.5940001
1.2688698 -1.0336426 2.5800002
1.2738869 -1.0340432 2.5810001
1.2898046 -1.0432578 2.6040001
0.61649126 -1.2692468 3.1820002
0.61894244 -1.2628646 3.1660001
0.62587422 -1.2656568 3.1730001
0.63283062 -1.2684489 3.1800001
0.64242131 -1.2764267 3.2
0.65127218 -1.2828088 3.2160001
0.65650237 -1.282011 3.2140002
0.66254961 -1.2828088 3.2160001
0.66631836 -1.2792188 3.2070003
0.67173183 -1.2788199 3.2060001
0.67629659 -1.2768255 3.2010002
0.68148297 -1.2760278 3.1990001
0.67978925 -1.2624657 3.1650002
0.68360627 -1.2592747 3.1570001
0.70027429 -1.2796177 3.2080002
0.7074393 -1.2824099 3.2150002
0.71329808 -1.2828088 3.2160001
0.71670127 -1.2788199 3.2060001
0.72299838 -1.2800167 3.2090001
0.72817075 -1.2792188 3.2070003
0.74088675 -1.2915843 3.2380002
0.74656409 -1.2915843 3.2380002
0.74341333 -1.2764267 3.2
0.74972618 -1.2776233 3.2030001
0.76194519 -1.288792 3.2310002
0.76618475 -1.2863988 3.2250001
0.77279657 -1.2879943 3.2290001
0.7791813 -1.2891909 3.2320001
0.78509092 -1.2895898 3.233
0.79149324 -1.2907865 3.2360001
0.80332559 -1.3007586 3.2610002
0.80284083 -1.2907865 3.2360001
0.8085146 -1.2907865 3.2360001
0.81066591 -1.2852021 3.2220001
0.81631517 -1.2852021 3.2220001
0.82477063 -1.2895898 3.233
0.83223718 -1.292382 3.2400002
0.83791798 -1.292382 3.2400002
0.84359878 -1.292382 3.2400002
0.85688114 -1.3039496 3.2690001
0.86234891 -1.3035507 3.2680001
0.86887574 -1.3047473 3.2710001
0.8746109 -1.3047473 3.2710001
0.88034606 -1.3047473 3.2710001
0.88716477 -1.306343 3.2750001
0.88963521 -1.3015563 3.2630002
0.89069158 -1.2947752 3.2460001
0.89748752 -1.2963709 3.2500002
0.90429741 -1.2979664 3.2540002
0.9074859 -1.2943764 3.2450001
0.91598952 -1.2983652 3.2550001
0.93075788 -1.3111295 3.2870002
0.95646524 -1.3390514 3.3570001
0.95117104 -1.3234949 3.3180001
0.94747066 -1.3103317 3.2850001
0.9523598 -1.3091351 3.2820001
0.95840621 -1.309534 3.2830002
0.9653371 -1.3111295 3.2870002
0.97080487 -1.3107306 3.2860003
0.98756236 -1.3254893 3.3230002
0.99159503 -1.323096 3.3170002
0.99199831 -1.3159161 3.2990003
0.99566537 -1.3131239 3.2920001
0.99930793 -1.3103317 3.2850001
1.0154701 -1.3238938 3.3190002
1.0212895 -1.3238938 3.3190002
1.0243236 -1.3203038 3.3100002
1.0316832 -1.3222983 3.3150001
1.0359308 -1.3203038 3.3100002
1.0316631 -1.3075396 3.2780001
1.0361446 -1.305944 3.2740002
1.0297923 -1.2907865 3.2360001
1.0364261 -1.2919831 3.2390001
1.0569049 -1.3103317 3.2850001
1.0613707 -1.3087362 3.2810001
1.065172 -1.306343 3.2750001
1.0676441 -1.3023541 3.2650001
1.0736974 -1.302753 3.2660003
1.0771104 -1.2999607 3.2590001
1.0824922 -1.2995619 3.2580001
1.0825264 -1.2927809 3.2410002
1.0898877 -1.2947752 3.2460001
1.1013169 -1.3015563 3.2630002
1.1100914 -1.3051462 3.2720001
1.1103719 -1.2987641 3.256
1.1006559 -1.2808144 3.2110002
1.1059413 -1.2804155 3.21
1.1174563 -1.2871965 3.2270002
1.1255506 -1.2899886 3.2340002
1.1312208 -1.2899886 3.2340002
1.1333756 -1.2859999 3.2240002
1.1376152 -1.2844043 3.2200003
1.1301241 -1.2696457 3.1830001
1.1349914 -1.2688478 3.1810002
1.1402102 -1.2684489 3.1800001
1.1414621 -1.2636623 3.1680002
1.1318099 -1.2469093 3.1260002
1.1216468 -1.2297573 3.0830002
1.1270523 -1.2297573 3.0830002
1.1210709 -1.217392 3.052
1.1326963 -1.2241729 3.0690002
1.1447521 -1.2313528 3.0870001
1.1501647 -1.2313528 3.0870001
1.1638126 -1.2401283 3.1090002
1.1583571 -1.2285607 3.0800002
1.1679138 -1.2329484 3.0910001
1.1771293 -1.2369372 3.1010001
1.1718886 -1.2257684 3.0730002
1.1669327 -1.2149986 3.0460002
1.1634218 -1.2058243 3.0230002
1.1675622 -1.2046276 3.0200002
1.1561576 -1.1874757 2.9770002
1.1531849 -1.1790991 2.9560001
1.1583678 -1.1790991 2.9560001
1.1635506 -1.1790991 2.9560001
1.171501 -1.1818913 2.9630001
1.1675622 -1.172717 2.9400001
1.1779025 -1.1779025 2.9530001
1.1830801 -1.1779025 2.9530001
1.1926839 -1.1822902 2.9640002
1.2003057 -1.1846834 2.97
1.2030777 -1.1822902 2.9640002
1.2082746 -1.1822902 2.9640002
1.2032363 -1.1723181 2.9390001
1.1956435 -1.1599528 2.9080002
1.2011552 -1.1603516 2.9090002
1.194645 -1.1491829 2.881
1.1996964 -1.1491829 2.881
1.2047478 -1.1491829 2.881
1.199721 -1.1396097 2.8570001
1.2043085 -1.1392108 2.8560002
1.2088926 -1.1388119 2.855
1.2143236 -1.1392108 2.8560002
1.2193311 -1.1392108 2.8560002
1.2243387 -1.1392108 2.8560002
1.2194459 -1.1300365 2.8330002
1.2140404 -1.1204633 2.809
1.2220032 -1.1232555 2.8160002
1.2273762 -1.1236544 2.8170002
1.2323154 -1.1236544 2.8170002
1.2271527 -1.11448 2.7940001
1.2302877 -1.1128845 2.7900002
1.2396066 -1.1168734 2.8000002
1.2409602 -1.1136823 2.7920001
1.2458556 -1.1136823 2.7920001
1.2404474 -1.1045079 2.7690001
1.2448527 -1.104109 2.7680001
1.2402247 -1.0957325 2.7470002
1.2386959 -1.0901481 2.733
1.2443976 -1.090946 2.7350001
1.2496498 -1.0913448 2.7360001
1.2516959 -1.0889515 2.73
1.246357 -1.0801761 2.7080002
1.251567 -1.080575 2.7090001
1.2688383 -1.0913448 2.7360001
1.2727044 -1.0905471 2.7340002
1.2644145 -1.0793782 2.7060001
1.2700971 -1.0801761 2.7080002
1.2739036 -1.0793782 2.7060001
1.2682526 -1.0706029 2.684
1.2639474 -1.063024 2.6650002
1.2676679 -1.0622263 2.6630001
1.2594368 -1.0514565 2.6360002
1.2717313 -1.0578386 2.6520002
1.277825 -1.0590353 2.6550002
1.2626753 -1.042681 2.6140001
1.2556233 -1.0331079 2.5900002
1.2611376 -1.0339056 2.592
1.2676355 -1.0355011 2.5960002
1.271697 -1.0351022 2.595
1.2772306 -1.0359 2.5970001
1.2724062 -1.0283213 2.5780001
1.2784123 -1.0295179 2.5810001
0.61842871 -1.2676389 3.1920002
0.61757398 -1.2545336 3.1590002
0.62607151 -1.2604907 3.1740003
0.63283062 -1.2628734 3.1800001
0.64161831 -1.2692275 3.1960001
0.65127218 -1.2771701 3.2160001
0.6569109 -1.2771701 3.2160001
0.66254961 -1.2771701 3.2160001
0.66631836 -1.2735959 3.2070003
0.67173183 -1.2731987 3.2060001
0.67629659 -1.2712132 3.2010002
0.68148297 -1.2704189 3.1990001
0.67978925 -1.2569164 3.1650002
0.68360627 -1.2537394 3.1570001
0.70027429 -1.273993 3.2080002
0.7074393 -1.276773 3.2150002
0.71329808 -1.2771701 3.2160001
0.71670127 -1.2731987 3.2060001
0.72254777 -1.2735959 3.2070003
0.72794366 -1.2731987 3.2060001
0.7397427 -1.2839212 3.233
0.74195278 -1.2779644 3.2180002
0.74527186 -1.273993 3.2080002
0.75089657 -1.273993 3.2080002
0.75628543 -1.2735959 3.2070003
0.76119566 -1.2724046 3.2040002
0.77064258 -1.2787586 3.2200003
0.77146667 -1.270816 3.2
0.77756298 -1.2716103 3.2020001
0.79858637 -1.2966294 3.2650001
0.80578905 -1.2990122 3.2710001
0.80383319 -1.2867012 3.2400002
0.80951399 -1.2867012 3.2400002
0.81418836 -1.2851126 3.2360001
0.81910211 -1.2839212 3.233
0.82757682 -1.2882897 3.2440002
0.83326465 -1.2882897 3.2440002
0.83791798 -1.2867012 3.2400002
0.84359878 -1.2867012 3.2400002
0.85661906 -1.2978208 3.2680001
0.86314058 -1.2990122 3.2710001
0.86807883 -1.2978208 3.2680001
0.8746109 -1.2990122 3.2710001
0.88034606 -1.2990122 3.2710001
0.89149898 -1.3069549 3.2910001
0.89726919 -1.3069549 3.2910001
0.8978259 -1.2994094 3.2720001
0.90521967 -1.3017921 3.2780001
0.90596485 -1.2946438 3.2600002
0.91028243 -1.2926581 3.2550001
0.9140197 -1.2898782 3.2480001
0.92622727 -1.2990122 3.2710001
0.95646524 -1.3331654 3.3570001
0.95203108 -1.3188688 3.3210001
0.9457401 -1.3021892 3.279
0.94974822 -1.2998065 3.2730002
0.9604497 -1.3065577 3.2900002
0.96621817 -1.3065577 3.2900002
0.97523642 -1.3109261 3.3010001
0.98756236 -1.3196629 3.3230002
0.98860562 -1.313309 3.3070002
0.99199831 -1.3101319 3.2990003
0.99687517 -1.3089405 3.2960002
1.0017415 -1.307749 3.2930002
1.016082 -1.3188688 3.3210001
1.0212895 -1.3180745 3.3190002
1.0274183 -1.3184716 3.3200002
1.0347954 -1.3204572 3.325
1.0374955 -1.316486 3.3150001
1.035125 -1.3061606 3.2890003
1.0396259 -1.304572 3.2850001
1.0313834 -1.2870983 3.2410002
1.037066 -1.2870983 3.2410002
1.0569049 -1.304572 3.2850001
1.0626646 -1.304572 3.2850001
1.065172 -1.3006008 3.2750001
1.079416 -1.3109261 3.3010001
1.0868475 -1.3129117 3.3060002
1.0728139 -1.289084 3.2460001
1.0781729 -1.2886869 3.2450001
1.0808563 -1.2851126 3.2360001
1.0902236 -1.289481 3.2470002
1.1016544 -1.2962323 3.2640002
1.1100914 -1.2994094 3.2720001
1.1001413 -1.2811414 3.2260001
1.1027125 -1.2775671 3.2170002
1.1059413 -1.2747873 3.21
1.121958 -1.2867012 3.2400002
1.1276388 -1.2867012 3.2400002
1.1312208 -1.2843184 3.2340002
1.1333756 -1.2803471 3.2240002
1.1351422 -1.2759787 3.2130001
1.1397105 -1.2747873 3.21
1.1346346 -1.2628734 3.1800001
1.1391345 -1.261682 3.177
1.1403811 -1.2569164 3.1650002
1.1365168 -1.2465911 3.1390002
1.1372908 -1.2414284 3.1260002
1.1321703 -1.2299116 3.0970001
1.1309885 -1.2227633 3.0790002
1.1264219 -1.2120408 3.052
1.1425272 -1.2235575 3.0810001
1.1501647 -1.2259403 3.0870001
1.1499622 -1.2199833 3.072
1.1579812 -1.2227633 3.0790002
1.1682916 -1.2279259 3.0920002
1.1665006 -1.2203804 3.0730002
1.1718886 -1.2203804 3.0730002
1.1565889 -1.1989355 3.0190001
1.1649611 -1.2021126 3.0270002
1.1675622 -1.1993326 3.0200002
1.1549926 -1.1810646 2.9740002
1.1535749 -1.1743134 2.9570003
1.1587596 -1.1743134 2.9570003
1.1635506 -1.1739162 2.9560001
1.1695242 -1.1747105 2.9580002
1.1647823 -1.1647823 2.9330001
1.1779025 -1.1727248 2.9530001
1.1830801 -1.1727248 2.9530001
1.1926839 -1.1770933 2.9640002
1.1978809 -1.1770933 2.9640002
1.2055131 -1.1794761 2.97
1.2123511 -1.1810646 2.9740002
1.204874 -1.1687536 2.9430001
1.2075671 -1.1663707 2.937
1.2044585 -1.1584282 2.9170001
1.1992064 -1.1485 2.8920002
1.1996964 -1.1441315 2.881
1.2047478 -1.1441315 2.881
1.199721 -1.1346004 2.8570001
1.2043085 -1.1342033 2.8560002
1.2088926 -1.1338061 2.855
1.2143236 -1.1342033 2.8560002
1.2090846 -1.1246722 2.832
1.2144787 -1.1250693 2.8330002
1.2194459 -1.1250693 2.8330002
1.2140404 -1.1155381 2.809
1.2220032 -1.1183181 2.8160002
1.2273762 -1.1187152 2.8170002
1.2323154 -1.1187152 2.8170002
1.2271527 -1.1095812 2.7940001
1.2302877 -1.1079926 2.7900002
1.2400494 -1.1123611 2.8010001
1.2422936 -1.1099783 2.7950001
1.2471942 -1.1099783 2.7950001
1.2426872 -1.1016386 2.7740002
1.2363077 -1.0917103 2.7490001
1.2402247 -1.0909162 2.7470002
1.2377893 -1.0845621 2.7310002
1.2434877 -1.0853562 2.733
1.2400582 -1.078208 2.7150002
1.2439015 -1.0774137 2.7130001
1.2472775 -1.0762223 2.71
1.2520291 -1.0762223 2.71
1.2632731 -1.0817821 2.7240002
1.2671182 -1.0809878 2.7220001
1.2746943 -1.0833707 2.7280002
1.2691591 -1.0746337 2.7060001
1.2696667 -1.0710596 2.697
1.2611648 -1.05994 2.6690001
1.266793 -1.0607343 2.6710002
1.2724282 -1.0615284 2.6730001
1.2642146 -1.0508059 2.6460001
1.2760471 -1.0567629 2.661
1.2807127 -1.0567629 2.661
1.2742683 -1.0476289 2.638
1.2619257 -1.0337294 2.6030002
1.2621107 -1.0301552 2.5940001
1.2691003 -1.0321409 2.5990002
1.2741473 -1.0325379 2.6000001
1.278706 -1.0325379 2.6000001
1.2748741 -1.0257868 2.5830002
1.2798983 -1.026184 2.5840001
0.61920369 -1.2636238 3.1960001
0.62167943 -1.2572978 3.1800001
0.62587422 -1.2545302 3.1730001
0.63283062 -1.2572978 3.1800001
0.63961071 -1.25967 3.1860001
0.65127218 -1.2715313 3.2160001
0.6569109 -1.2715313 3.2160001
0.66316766 -1.2727175 3.2190001
0.66424066 -1.2640193 3.1970003
0.66879845 -1.2620423 3.1920002
0.67439514 -1.2620423 3.1920002
0.68212205 -1.2659961 3.2020001
0.68881017 -1.2679729 3.2070003
0.6914016 -1.2624377 3.1930001
0.69918287 -1.2663914 3.2030001
0.70479882 -1.2663914 3.2030001
0.71108013 -1.2675775 3.2060001
0.72273713 -1.2782527 3.233
0.72705388 -1.2758805 3.2270002
0.73271185 -1.2758805 3.2270002
0.7385987 -1.2762759 3.2280002
0.74195278 -1.2723221 3.2180002
0.74527186 -1.2683684 3.2080002
0.75089657 -1.2683684 3.2080002
0.75534213 -1.2663914 3.2030001
0.75977015 -1.2644145 3.1980002
0.76657397 -1.2663914 3.2030001
0.77291316 -1.2675775 3.2060001
0.78169125 -1.2727175 3.2190001
0.7993201 -1.2920909 3.2680001
0.80529636 -1.2924863 3.2690001
0.8122685 -1.2944632 3.2740002
0.81026357 -1.2822065 3.2430003
0.81418836 -1.2794389 3.2360001
0.81960881 -1.2790436 3.2350001
0.82732171 -1.2822065 3.2430003
0.83377838 -1.2833927 3.2460001
0.83455598 -1.2758805 3.2270002
0.84203655 -1.2786481 3.2340002
0.85661906 -1.2920909 3.2680001
0.86234891 -1.2920909 3.2680001
0.86807883 -1.2920909 3.2680001
0.8820976 -1.3043476 3.2990003
0.88788188 -1.3043476 3.2990003
0.88662297 -1.2940679 3.2730002
0.89236164 -1.2940679 3.2730002
0.89974666 -1.2964401 3.279
0.90715277 -1.2988124 3.2850001
0.91457987 -1.3011847 3.2910001
0.91923147 -1.2996031 3.2870002
0.92499465 -1.2996031 3.2870002
0.93132418 -1.3003938 3.2890003
0.95589542 -1.3264887 3.3550003
0.95231771 -1.3134413 3.3220003
0.9555465 -1.3098829 3.3130002
0.96135527 -1.3098829 3.3130002
0.98935074 -1.3399315 3.3890002
0.96621817 -1.3007892 3.2900002
0.97228205 -1.3011847 3.2910001
0.98845392 -1.3150228 3.3260002
0.98950243 -1.3086967 3.3100002
0.9910962 -1.3031615 3.2960002
0.99475807 -1.3003938 3.2890003
1.0011332 -1.3011847 3.2910001
1.0072093 -1.30158 3.2920001
1.0135968 -1.3023708 3.2940001
1.0243236 -1.3086967 3.3100002
1.0285711 -1.3067199 3.3050001
1.0378085 -1.311069 3.3160002
1.0451962 -1.3130459 3.3210001
1.0513355 -1.3134413 3.3220003
1.0444309 -1.2976263 3.2820001
1.0501853 -1.2976263 3.2820001
1.0569049 -1.2988124 3.2850001
1.0626646 -1.2988124 3.2850001
1.065172 -1.2948586 3.2750001
1.079416 -1.3051383 3.3010001
1.0868475 -1.3071152 3.3060002
1.0830594 -1.2956493 3.2770002
1.0798341 -1.2849742 3.2500002
1.0855325 -1.2849742 3.2500002
1.0878732 -1.2810204 3.2400002
1.0989542 -1.2873464 3.256
1.1087344 -1.2920909 3.2680001
1.1035515 -1.2794389 3.2360001
1.1075114 -1.277462 3.2310002
1.1107647 -1.2746943 3.2240002
1.1281911 -1.2881372 3.2580001
1.1290309 -1.282602 3.2440002
1.1322702 -1.2798343 3.2370002
1.1333756 -1.2746943 3.2240002
1.1340823 -1.2691591 3.21
1.1400656 -1.2695545 3.2110002
1.1349914 -1.2576932 3.1810002
1.1391345 -1.2561116 3.177
1.1393002 -1.250181 3.1620002
1.1357926 -1.2402966 3.1370001
1.1394738 -1.2383198 3.1320002
1.1343637 -1.2268538 3.1030002
1.1331924 -1.2197371 3.085
1.1264219 -1.2066896 3.052
1.1369648 -1.2122248 3.0660002
1.144576 -1.2145971 3.072
1.1495879 -1.2142017 3.0710001
1.1549724 -1.2142017 3.0710001
1.1626239 -1.216574 3.0770001
1.1573902 -1.2055035 3.0490003
1.1627362 -1.2055035 3.0490003
1.1554396 -1.192456 3.016
1.1622671 -1.1940376 3.0200002
1.1594434 -1.1857346 2.9990001
1.1538274 -1.174664 2.9710002
1.1535749 -1.1691288 2.9570003
1.1587596 -1.1691288 2.9570003
1.1627634 -1.1679426 2.9540002
1.1675473 -1.1675473 2.9530001
1.1623995 -1.1572675 2.927
1.1767058 -1.1663612 2.95
1.1818782 -1.1663612 2.95
1.190672 -1.1699195 2.9590001
1.1970725 -1.1711056 2.9620001
1.2030777 -1.1718965 2.9640002
1.2082746 -1.1718965 2.9640002
1.2024176 -1.1612213 2.937
1.1948212 -1.1489646 2.9060001
1.2044585 -1.1533138 2.9170001
1.1992064 -1.1434293 2.8920002
1.2021949 -1.1414524 2.8870001
1.2060022 -1.1402663 2.8840001
1.199721 -1.1295911 2.8570001
1.2034652 -1.128405 2.8540001
1.2076224 -1.1276143 2.8520002
1.2028437 -1.1185206 2.8290002
1.2078038 -1.1185206 2.8290002
1.212764 -1.1185206 2.8290002
1.2190155 -1.1197067 2.832
1.2136083 -1.1102177 2.8080001
1.2220032 -1.1133807 2.8160002
1.2273762 -1.1137761 2.8170002
1.2353777 -1.1165437 2.8240001
1.2293488 -1.1066593 2.799
1.2338154 -1.1062639 2.7980001
1.2413775 -1.1086361 2.8040001
1.2449604 -1.10745 2.8010001
1.2498715 -1.10745 2.8010001
1.2440312 -1.0979609 2.7770002
1.2372072 -1.0876812 2.7510002
1.2411277 -1.0868905 2.7490001
1.2364296 -1.0785875 2.7280002
1.2407577 -1.0781921 2.7270002
1.236861 -1.07068 2.7080002
1.2429844 -1.0718662 2.7110002
1.246357 -1.07068 2.7080002
1.2520291 -1.0714707 2.71
1.2642007 -1.0777968 2.7260001
1.2745664 -1.0825413 2.7380002
1.2723581 -1.0766107 2.723
1.2757254 -1.0754246 2.72
1.2757866 -1.0714707 2.71
1.2767581 -1.0683078 2.7020001
1.2715358 -1.0600048 2.6810002
1.2776645 -1.061191 2.684
1.265648 -1.0473528 2.6490002
1.2760471 -1.0520973 2.661
1.2807127 -1.0520973 2.661
1.2742683 -1.0430037 2.638
1.2716217 -1.037073 2.6230001
1.2621107 -1.0256071 2.5940001
1.2691003 -1.027584 2.5990002
1.2741473 -1.0279794 2.6000001
1.278706 -1.0279794 2.6000001
1.2758613 -1.0220487 2.585
1.2798983 -1.0216533 2.5840001
0.61804122 -1.2556584 3.1900001
0.62226588 -1.2529031 3.1830001
1.1354604 -1.222594 3.1060002
1.1398042 -1.2214133 3.1030002
1.1374943 -1.2131472 3.0820003
1.1339982 -1.2037002 3.0580001
1.1382421 -1.2025193 3.0550001
1.1428498 -1.201732 3.0530002
1.1549724 -1.2088172 3.0710001
1.1603569 -1.2088172 3.0710001
1.1551126 -1.1977957 3.0430002
1.1604481 -1.1977957 3.0430002
1.1554396 -1.187168 3.016
1.1622671 -1.1887425 3.0200002
1.1551907 -1.1761465 2.9880002
1.1503322 -1.1659123 2.9620001
1.1535749 -1.1639442 2.9570003
1.1587596 -1.1639442 2.9570003
1.1635506 -1.1635506 2.9560001
1.1671519 -1.1619761 2.9520001
1.1623995 -1.1521355 2.927
1.1759081 -1.1604016 2.9480002
1.1810769 -1.1604016 2.9480002
1.1878552 -1.1619761 2.9520001
1.1942436 -1.163157 2.9550002
1.2018601 -1.1655186 2.9610002
1.2070516 -1.1655186 2.9610002
1.1999612 -1.15371 2.9310002
1.1948212 -1.1438694 2.9060001
1.2044585 -1.1481992 2.9170001
1.1992064 -1.1383587 2.8920002
1.2038605 -1.1379651 2.891
1.1959662 -1.1257627 2.8600001
1.2009808 -1.1257627 2.8600001
1.2047303 -1.1245818 2.8570001
1.2088926 -1.1237946 2.855
1.2041192 -1.1147413 2.832
1.2086577 -1.1143477 2.8310001
1.212764 -1.1135604 2.8290002
1.218585 -1.1143477 2.8310001
1.2136083 -1.1052943 2.8080001
1.2220032 -1.1084433 2.8160002
1.2273762 -1.1088369 2.8170002
1.2353777 -1.1115923 2.8240001
1.2302272 -1.1025389 2.8010001
1.2338154 -1.1013581 2.7980001
1.2413775 -1.1037198 2.8040001
1.2449604 -1.1025389 2.8010001
1.2498715 -1.1025389 2.8010001
1.2440312 -1.093092 2.7770002
1.2480007 -1.0923047 2.7750001
1.2519633 -1.0915174 2.7730002
1.2464008 -1.0824642 2.7500002
1.2412127 -1.0738045 2.7280002
1.2473661 -1.0749853 2.7310002
1.2521544 -1.0749853 2.7310002
1.2454365 -1.0651448 2.7060001
1.250181 -1.0651448 2.7060001
1.2739396 -1.0812833 2.7470002
1.280618 -1.0828577 2.7510002
1.2760961 -1.0749853 2.7310002
1.2808845 -1.0749853 2.7310002
1.2757866 -1.0667192 2.71
1.2805382 -1.0667192 2.71
1.2748556 -1.0580595 2.6880002
1.2795687 -1.0580595 2.6880002
1.2799815 -1.0545169 2.6790001
1.2760471 -1.0474317 2.661
1.2797501 -1.0466444 2.6590002
1.2834461 -1.0458572 2.6570001
1.2662889 -1.0281441 2.6120002
1.2616241 -1.0206653 2.5930002
1.2661705 -1.0206653 2.5930002
1.2707169 -1.0206653 2.5930002
1.2752633 -1.0206653 2.5930002
1.2812904 -1.0218462 2.5960002
1.2769264 -1.014761 2.5780001
0.61726624 -1.2484978 3.1860001
0.62226588 -1.2473222 3.1830001
0.62784672 -1.2473222 3.1830001
0.63342762 -1.2473222 3.1830001
0.64503115 -1.2590783 3.2130001
0.65815747 -1.2735775 3.2500002
0.66324306 -1.2724019 3.2470002
0.66254961 -1.2602539 3.2160001
0.66340959 -1.2512408 3.1930001
0.67592227 -1.2641726 3.2260001
0.68178982 -1.2645645 3.2270002
0.69043022 -1.2700506 3.2410002
0.6894545 -1.2579027 3.21
0.69638193 -1.2602539 3.2160001
0.70878762 -1.2724019 3.2470002
0.71206021 -1.2680913 3.2360001
0.72483152 -1.2806312 3.2680001
0.73056138 -1.2806312 3.2680001
0.72998279 -1.2696588 3.2400002
0.73407418 -1.2669157 3.233
0.73997152 -1.2673075 3.2340002
0.74471956 -1.26574 3.2300003
0.74945354 -1.2641726 3.2260001
0.75347131 -1.2614295 3.2190001
0.75840783 -1.2602539 3.2160001
0.76048291 -1.2543758 3.2010002
0.78284842 -1.2818067 3.2710001
0.78858358 -1.2818067 3.2710001
0.79431874 -1.2818067 3.2710001
0.80005389 -1.2818067 3.2710001
0.80578905 -1.2818067 3.2710001
0.8122685 -1.2829823 3.2740002
0.81975782 -1.2857255 3.2810001
0.8255105 -1.2857255 3.2810001
0.83354342 -1.2892523 3.2900002
0.83829147 -1.2876848 3.2860003
0.84019995 -1.2818067 3.2710001
0.84515923 -1.2806312 3.2680001
0.84984767 -1.2790637 3.2640002
0.85661906 -1.2806312 3.2680001
0.86261284 -1.281023 3.2690001
0.86754757 -1.2798474 3.2660003
0.88263237 -1.2935629 3.3010001
0.88895839 -1.2943466 3.3030002
0.89095718 -1.2888604 3.2890003
0.89563334 -1.287293 3.2850001
0.90523458 -1.2927791 3.2990003
0.9101904 -1.2916036 3.2960002
0.91930419 -1.2963059 3.3080001
0.92762119 -1.2998328 3.3170002
0.93062288 -1.2959141 3.3070002
0.94661504 -1.3100214 3.3430002
0.96216357 -1.3233449 3.3770001
0.96579123 -1.32021 3.3690002
0.9731403 -1.3221694 3.3740001
0.97905606 -1.3221694 3.3740001
0.98322022 -1.3198181 3.3680003
0.98677599 -1.3166832 3.3600001
0.97966796 -1.2994409 3.3160002
0.96883941 -1.2774962 3.2600002
0.97575104 -1.2790637 3.2640002
0.97636205 -1.2724019 3.2470002
0.98205513 -1.2724019 3.2470002
0.98987764 -1.2751449 3.2540002
1.016082 -1.3014003 3.3210001
1.0222126 -1.3017921 3.3220003
1.0267993 -1.3002247 3.3180001
1.0338618 -1.3017921 3.3220003
1.0421901 -1.3049271 3.3300002
1.0505465 -1.3080621 3.3380001
1.0560826 -1.3076702 3.3370001
1.0593877 -1.3045353 3.3290002
1.054985 -1.2919954 3.2970002
1.0569049 -1.287293 3.2850001
1.0597532 -1.2837662 3.2760003
1.0677738 -1.2865092 3.2830002
1.0745111 -1.2876848 3.2860003
1.0786288 -1.2857255 3.2810001
1.0741358 -1.2735775 3.2500002
1.0798341 -1.2735775 3.2500002
1.0711701 -1.2567271 3.2070003
1.0801506 -1.2606457 3.2170002
1.0857911 -1.2606457 3.2170002
1.101949 -1.2727938 3.2480001
1.1073028 -1.2724019 3.2470002
1.1023698 -1.2602539 3.2160001
1.1080085 -1.2602539 3.2160001
1.1368482 -1.2865092 3.2830002
1.129727 -1.27201 3.2460001
1.13262 -1.268875 3.2380002
1.1368911 -1.2673075 3.2340002
1.1354954 -1.2594702 3.2140002
1.1393554 -1.2575108 3.2090001
1.125001 -1.2355661 3.1530001
1.1319634 -1.2371336 3.1570001
1.1374986 -1.2371336 3.1570001
1.1386892 -1.2324312 3.1450002
1.1442034 -1.2324312 3.1450002
1.1391162 -1.221067 3.1160002
1.1431102 -1.2194995 3.1120002
1.140816 -1.2112702 3.0910001
1.1328857 -1.1971629 3.0550001
1.1371243 -1.1959872 3.052
1.1465932 -1.2002978 3.0630002
1.1504593 -1.1987303 3.0590003
1.1592233 -1.2022572 3.0680001
1.1646025 -1.2022572 3.0680001
1.1562532 -1.1881498 3.0320001
1.1657834 -1.1924604 3.0430002
1.1607277 -1.1818799 3.016
1.1575103 -1.1732588 2.9940002
1.1526624 -1.1630702 2.9680002
1.1535749 -1.1587596 2.9570003
1.1587596 -1.1587596 2.9570003
1.165125 -1.1599352 2.96
1.1742687 -1.1638539 2.97
1.1703421 -1.1548408 2.947
1.1826891 -1.1618946 2.9650002
1.1854839 -1.1595433 2.9590001
1.1874529 -1.1564083 2.9510002
1.1934353 -1.1571921 2.9530001
1.1994246 -1.1579758 2.9550002
1.2046057 -1.1579758 2.9550002
1.1999612 -1.148571 2.9310002
1.1948212 -1.1387742 2.9060001
1.2044585 -1.1430848 2.9170001
1.1992064 -1.133288 2.8920002
1.2038605 -1.1328962 2.891
1.1959662 -1.1207482 2.8600001
1.2009808 -1.1207482 2.8600001
1.2047303 -1.1195726 2.8570001
1.2088926 -1.1187888 2.855
1.2138984 -1.1187888 2.855
1.2240274 -1.1234913 2.8670001
1.2281969 -1.1227075 2.8650002
1.2259026 -1.1160457 2.848
1.2308961 -1.1160457 2.848
1.2246069 -1.1058571 2.822
1.2282476 -1.1046815 2.8190002
1.2244412 -1.0968441 2.799
1.2315449 -1.0988035 2.8040001
1.2373431 -1.0995872 2.8060002
1.2435911 -1.1007628 2.809
1.2351822 -1.0890068 2.779
1.2400546 -1.0890068 2.779
1.2444792 -1.0886148 2.7780001
1.2471013 -1.0866555 2.7730002
1.2510604 -1.0858718 2.7710001
1.2368828 -1.0694132 2.7290001
1.2412127 -1.0690213 2.7280002
1.2478228 -1.0705888 2.7320001
1.2526128 -1.0705888 2.7320001
1.2555619 -1.0690213 2.7280002
1.2603451 -1.0690213 2.7280002
1.2748671 -1.0772506 2.7490001
1.2820145 -1.0792099 2.7540002
1.2868432 -1.0792099 2.7540002
1.2916719 -1.0792099 2.7540002
1.2757866 -1.0619677 2.71
1.2805382 -1.0619677 2.71
1.2748556 -1.0533465 2.6880002
1.2795687 -1.0533465 2.6880002
1.2799815 -1.0498197 2.6790001
1.2702926 -1.0380636 2.6490002
1.2787875 -1.0411986 2.6570001
1.2834461 -1.0411986 2.6570001
1.2764696 -1.0317937 2.6330001
1.2616241 -1.0161189 2.5930002
1.2661705 -1.0161189 2.5930002
1.2707169 -1.0161189 2.5930002
1.2752633 -1.0161189 2.5930002
1.2798097 -1.0161189 2.5930002
1.2749451 -1.0086734 2.5740001
1.0831567 -1.2717804 3.2600002
1.0855325 -1.2678791 3.2500002
1.0929097 -1.2698298 3.2550001
1.0938915 -1.2643681 3.2410002
1.1066988 -1.2725606 3.2620001
1.1137822 -1.274121 3.2660003
1.1153953 -1.2694396 3.2540002
1.1186889 -1.2667089 3.2470002
1.1306151 -1.2737309 3.2650001
1.1363397 -1.2737309 3.2650001
1.1259741 -1.2557856 3.2190001
1.1305634 -1.2546152 3.2160001
1.1362021 -1.2546152 3.2160001
1.1418408 -1.2546152 3.2160001
1.1431979 -1.2499338 3.2040002
1.1437957 -1.2444721 3.1900001
1.1331749 -1.2269169 3.1450002
1.1386892 -1.2269169 3.1450002
1.1336527 -1.2156035 3.1160002
1.1391162 -1.2156035 3.1160002
1.1445795 -1.2156035 3.1160002
1.1441376 -1.2093617 3.1000001
1.1369648 -1.1960977 3.0660002
1.1393598 -1.1929767 3.0580001
1.1394808 -1.1875151 3.0440001
1.1549724 -1.1980482 3.0710001
1.1603569 -1.1980482 3.0710001
1.1657413 -1.1980482 3.0710001
1.1604481 -1.187125 3.0430002
1.1657834 -1.187125 3.0430002
1.1607277 -1.1765919 3.016
1.164856 -1.1754215 3.0130002
1.1580994 -1.1633279 2.9820001
1.1535749 -1.1535749 2.9570003
1.1587596 -1.1535749 2.9570003
1.1659123 -1.1555256 2.9620001
1.1754549 -1.1598169 2.973
1.1719307 -1.1512343 2.9510002
1.1846834 -1.1586465 2.97
1.1874871 -1.1563058 2.9640002
1.1882577 -1.1520145 2.9530001
1.1934353 -1.1520145 2.9530001
1.2006423 -1.1539651 2.9580002
1.2058287 -1.1539651 2.9580002
1.1999612 -1.1434319 2.9310002
1.1948212 -1.133679 2.9060001
1.2036326 -1.1371901 2.9150002
1.1987917 -1.1278273 2.891
1.2038605 -1.1278273 2.891
1.1984752 -1.1180744 2.8660002
1.2035003 -1.1180744 2.8660002
1.2043085 -1.1141732 2.8560002
1.2084693 -1.1133929 2.8540001
1.2109221 -1.1110523 2.848
1.2171965 -1.1122226 2.8510001
1.2209091 -1.1110523 2.848
1.2280549 -1.1130029 2.8530002
1.2330571 -1.1130029 2.8530002
1.2228711 -1.0993488 2.8180001
1.2273762 -1.0989586 2.8170002
1.2244412 -1.0919366 2.799
1.2306664 -1.0931069 2.802
1.2373431 -1.0946673 2.8060002
1.2475755 -1.0993488 2.8180001
1.2356266 -1.0845243 2.7800002
1.2405008 -1.0845243 2.7800002
1.2453752 -1.0845243 2.7800002
1.2480007 -1.0825738 2.7750001
1.2524147 -1.0821836 2.7740002
1.2377893 -1.0654086 2.7310002
1.2421227 -1.0650185 2.73
1.2587847 -1.0751616 2.756
1.2636168 -1.0751616 2.756
1.259244 -1.0673592 2.7360001
1.2640411 -1.0673592 2.7360001
1.2776496 -1.0747714 2.7550001
1.283411 -1.0755516 2.7570002
1.2868432 -1.0743814 2.7540002
1.2883887 -1.0716505 2.7470002
1.2932051 -1.0716505 2.7470002
1.2885711 -1.0638481 2.7270002
1.2852898 -1.0572162 2.71
1.2795687 -1.0486336 2.6880002
1.2704259 -1.0373203 2.6590002
1.2654972 -1.0295179 2.6390002
1.2749372 -1.033419 2.6490002
1.2795818 -1.033419 2.6490002
1.2784088 -1.0287377 2.6370001
1.2728148 -1.0205452 2.6160002
1.2671472 -1.0123527 2.595
1.271697 -1.0123527 2.595
1.2796897 -1.0150836 2.6020002
1.2842518 -1.0150836 2.6020002
1.279403 -1.0076714 2.5830002
0.61610377 -1.2349954 3.1800001
0.62226588 -1.2361605 3.1830001
0.62843847 -1.2373255 3.1860001
0.63402462 -1.2373255 3.1860001
0.63820547 -1.234607 3.1790001
0.65187967 -1.2501416 3.2190001
0.66222173 -1.259074 3.2420001
0.66048944 -1.2450929 3.2060001
0.65966976 -1.2330536 3.1750002
0.67194134 -1.2454813 3.2070003
0.67355001 -1.2381023 3.1880002
0.68403935 -1.2470347 3.2110002
0.69503886 -1.2567438 3.2360001
0.70071262 -1.2567438 3.2360001
0.71097052 -1.2648994 3.2570002
0.7175613 -1.2664528 3.2610002
0.72549689 -1.2703365 3.2710001
0.73123205 -1.2703365 3.2710001
0.72975749 -1.2579088 3.2390001
0.73611772 -1.259074 3.2420001
0.7397427 -1.2555786 3.233
0.74541128 -1.2555786 3.233
0.7510798 -1.2555786 3.233
0.75745052 -1.2567438 3.2360001
0.76878405 -1.2660644 3.2600002
0.77711326 -1.2703365 3.2710001
0.78284842 -1.2703365 3.2710001
0.78858358 -1.2703365 3.2710001
0.79431874 -1.2703365 3.2710001
0.80005389 -1.2703365 3.2710001
0.80677444 -1.2718899 3.2750001
0.8127647 -1.2722783 3.2760003
0.81850857 -1.2722783 3.2760003
0.82425249 -1.2722783 3.2760003
0.83126324 -1.2742201 3.2810001
0.8393119 -1.2777153 3.2900002
0.84456664 -1.2769387 3.2880001
0.84955573 -1.2757735 3.2850001
0.85088915 -1.2691714 3.2680001
0.85740542 -1.2703365 3.2710001
0.86314058 -1.2703365 3.2710001
0.86834449 -1.2695597 3.2690001
0.88316715 -1.2827641 3.3030002
0.88895839 -1.2827641 3.3030002
0.89474964 -1.2827641 3.3030002
0.90054095 -1.2827641 3.3030002
0.89892346 -1.2722783 3.2760003
0.90356278 -1.2707248 3.2720001
0.92208326 -1.2885895 3.3180001
0.92790079 -1.2885895 3.3180001
0.93287414 -1.2874244 3.3150001
0.94151807 -1.291308 3.325
0.95276135 -1.298687 3.3440001
0.96378452 -1.3056775 3.3620002
0.9731403 -1.3103379 3.3740001
0.96948022 -1.2975218 3.3410001
0.96979147 -1.290143 3.3220003
0.97121078 -1.2843175 3.3070002
0.98025888 -1.2885895 3.3180001
0.98072702 -1.281599 3.3000002
0.98412144 -1.2784921 3.2920001
0.9910962 -1.2800455 3.2960002
0.99566537 -1.2784921 3.2920001
1.0005248 -1.2773269 3.2890003
1.0194476 -1.2940266 3.3320003
1.0108273 -1.2757735 3.2850001
1.0153491 -1.2742201 3.2810001
1.0248364 -1.2788805 3.2930002
1.0443809 -1.2959684 3.3370001
1.0376428 -1.2804339 3.2970002
1.0434235 -1.2804339 3.2970002
1.0584329 -1.2916964 3.3260002
1.0546651 -1.2800455 3.2960002
1.061731 -1.281599 3.3000002
1.0678405 -1.2819873 3.3010001
1.0736282 -1.2819873 3.3010001
1.0699331 -1.2707248 3.2720001
1.0776424 -1.273055 3.2780001
1.0787629 -1.2676179 3.2640002
1.0858148 -1.2691714 3.2680001
1.0858665 -1.2625692 3.2510002
1.0932454 -1.264511 3.256
1.0949041 -1.2598506 3.2440002
1.1073773 -1.2676179 3.2640002
1.1158284 -1.2707248 3.2720001
1.1191658 -1.2680063 3.2650001
1.1204115 -1.2629576 3.2520001
1.1344242 -1.2722783 3.2760003
1.1401681 -1.2722783 3.2760003
1.1385665 -1.2641226 3.2550001
1.1323211 -1.2509183 3.2210002
1.1393818 -1.2524717 3.2250001
1.1461014 -1.2536368 3.2280002
1.1474795 -1.2489765 3.2160001
1.1405687 -1.2353837 3.1810002
1.1331749 -1.2214026 3.1450002
1.1386892 -1.2214026 3.1450002
1.1336527 -1.2101401 3.1160002
1.1391162 -1.2101401 3.1160002
1.1445795 -1.2101401 3.1160002
1.1515192 -1.2116936 3.1200001
1.1447521 -1.1988776 3.0870001
1.1501647 -1.1988776 3.0870001
1.1495879 -1.1926638 3.0710001
1.1572289 -1.194994 3.0770001
1.1626239 -1.194994 3.0770001
1.1680189 -1.194994 3.0770001
1.1615921 -1.1829547 3.0460002
1.1657834 -1.1817896 3.0430002
1.1711189 -1.1817896 3.0430002
1.164856 -1.1701387 3.0130002
1.1588762 -1.1588762 2.9840002
1.1535749 -1.1483904 2.9570003
1.1587596 -1.1483904 2.9570003
1.1659123 -1.1503322 2.9620001
1.174664 -1.1538274 2.9710002
1.1798732 -1.1538274 2.9710002
1.1723181 -1.1413999 2.9390001
1.1774712 -1.1413999 2.9390001
1.1882577 -1.1468369 2.9530001
1.1934353 -1.1468369 2.9530001
1.1994246 -1.1476136 2.9550002
1.2046057 -1.1476136 2.9550002
1.2085587 -1.1464486 2.9520001
1.2104452 -1.1433417 2.9440002
1.2036326 -1.1320791 2.9150002
1.1987917 -1.1227584 2.891
1.2038605 -1.1227584 2.891
1.1984752 -1.1130493 2.8660002
1.2035003 -1.1130493 2.8660002
1.1967183 -1.1021751 2.8380001
1.1991538 -1.0998449 2.832
1.2100718 -1.1052821 2.8460002
1.2159156 -1.1060587 2.848
1.227194 -1.1072239 2.8510001
1.2321926 -1.1072239 2.8510001
1.2241729 -1.0955729 2.8210001
1.2751274 -1.0105214 2.6020002
1.286575 -1.0159584 2.6160002
0.61920369 -1.2356056 3.1960001
0.62558931 -1.237152 3.2
0.63336974 -1.2414047 3.2110002
0.63800466 -1.2394717 3.2060001
0.64242131 -1.237152 3.2
0.64803201 -1.237152 3.2
0.65445971 -1.2386985 3.2040002
0.65925336 -1.237152 3.2
0.66382515 -1.2352189 3.1950002
0.66942704 -1.2352189 3.1950002
0.67418385 -1.2336725 3.1910002
0.68340021 -1.2402449 3.2080002
0.69396496 -1.2491369 3.2310002
0.70114571 -1.2518432 3.2380002
0.71031564 -1.258029 3.2540002
0.716021 -1.258029 3.2540002
0.72549689 -1.2646013 3.2710001
0.73123205 -1.2646013 3.2710001
0.72930688 -1.2514566 3.2370002
0.73520947 -1.2518432 3.2380002
0.7397427 -1.2499101 3.233
0.74541128 -1.2499101 3.233
0.75084746 -1.2495235 3.2320001
0.76540887 -1.2642146 3.2700002
0.76288849 -1.2506833 3.2350001
0.76974839 -1.2526164 3.2400002
0.78284842 -1.2646013 3.2710001
0.78858358 -1.2646013 3.2710001
0.79431874 -1.2646013 3.2710001
0.80078763 -1.2657611 3.2740002
0.80702078 -1.2665343 3.2760003
0.8127647 -1.2665343 3.2760003
0.81850857 -1.2665343 3.2760003
0.82425249 -1.2665343 3.2760003
0.83126324 -1.2684674 3.2810001
0.83701593 -1.2684674 3.2810001
0.83917248 -1.2630548 3.2670002
0.84360754 -1.2611219 3.2620001
0.85167027 -1.2646013 3.2710001
0.85740542 -1.2646013 3.2710001
0.86314058 -1.2646013 3.2710001
0.86834449 -1.263828 3.2690001
0.88316715 -1.2769728 3.3030002
0.88895839 -1.2769728 3.3030002
0.89474964 -1.2769728 3.3030002
0.89181632 -1.2646013 3.2710001
0.89892346 -1.2665343 3.2760003
0.90356278 -1.2649879 3.2720001
0.91291243 -1.2700138 3.2850001
0.91867214 -1.2700138 3.2850001
0.92612028 -1.2723335 3.2910001
0.92537779 -1.2634414 3.2680001
0.94820267 -1.286638 3.3280001
0.96263784 -1.2982364 3.3580003
0.97198665 -1.3028756 3.3700001
0.96948022 -1.291664 3.3410001
0.9753381 -1.291664 3.3410001
0.97121078 -1.2785193 3.3070002
0.9814406 -1.2843184 3.3220003
0.97508037 -1.2684674 3.2810001
0.98382252 -1.2723335 3.2910001
0.98297739 -1.263828 3.2690001
0.98991883 -1.2653745 3.2730002
0.99535328 -1.2649879 3.2720001
1.0023141 -1.2665343 3.2760003
1.0068271 -1.2649879 3.2720001
1.0128735 -1.2653745 3.2730002
1.0211018 -1.2684674 3.2810001
1.0412512 -1.2862514 3.3270001
1.0455109 -1.2843184 3.3220003
1.0472213 -1.2792925 3.3090003
1.0507954 -1.2765862 3.302
1.0572249 -1.2773595 3.3040001
1.0633397 -1.2777461 3.3050001
1.0691345 -1.2777461 3.3050001
1.0749292 -1.2777461 3.3050001
1.0728761 -1.2684674 3.2810001
1.0792862 -1.2692406 3.2830002
1.0774409 -1.2603486 3.2600002
1.0858148 -1.2634414 3.2680001
1.0821924 -1.2526164 3.2400002
1.0882089 -1.253003 3.2410002
1.0915289 -1.2502967 3.2340002
1.1026275 -1.2564825 3.2500002
1.1120771 -1.2607352 3.2610002
1.1191658 -1.2622817 3.2650001
1.120756 -1.2576423 3.2530003
1.1344242 -1.2665343 3.2760003
1.1401681 -1.2665343 3.2760003
1.1389163 -1.2588022 3.256
1.1326727 -1.2456574 3.2220001
1.1411482 -1.2487503 3.2300003
1.1475216 -1.2495235 3.2320001
1.1499771 -1.246044 3.223
1.1506083 -1.2406315 3.2090001
1.1457858 -1.2294198 3.1800001
1.1502752 -1.2282599 3.177
1.1347442 -1.2058365 3.1190002
1.143503 -1.209316 3.1280003
1.1489874 -1.209316 3.1280003
1.1515192 -1.2062232 3.1200001
1.1447521 -1.1934651 3.0870001
1.1501647 -1.1934651 3.0870001
1.1495879 -1.1872793 3.0710001
1.1583571 -1.1907588 3.0800002
1.1637574 -1.1907588 3.0800002
1.1680189 -1.1895989 3.0770001
1.1615921 -1.1776141 3.0460002
1.1657834 -1.1764542 3.0430002
1.1711189 -1.1764542 3.0430002
1.164856 -1.164856 3.0130002
1.1588762 -1.1536442 2.9840002
1.1547453 -1.1443655 2.96
1.1599352 -1.1443655 2.96
1.1659123 -1.1451389 2.9620001
1.174664 -1.1486183 2.9710002
1.1798732 -1.1486183 2.9710002
1.1826891 -1.1462986 2.9650002
1.1878877 -1.1462986 2.9650002
1.1858433 -1.1393397 2.947
1.1910104 -1.1393397 2.947
1.1986128 -1.1416594 2.9530001
1.2037904 -1.1416594 2.9530001
1.1979141 -1.1312208 2.9260001
1.1997552 -1.1281279 2.9180002
1.1937228 -1.1176895 2.891
1.1987917 -1.1176895 2.891
1.2038605 -1.1176895 2.891
1.1984752 -1.1080242 2.8660002
1.2035003 -1.1080242 2.8660002
1.1941884 -1.0948795 2.832
1.1991538 -1.0948795 2.832
1.2028437 -1.0937197 2.8290002
1.2107924 -1.096426 2.8360002
1.2166222 -1.0971992 2.8380001
1.2280549 -1.1029984 2.8530002
1.2334893 -1.103385 2.8540001
1.2315501 -1.0971992 2.8380001
1.2282476 -1.0898535 2.8190002
1.235815 -1.0921732 2.825
1.2407682 -1.0921732 2.825
1.2351383 -1.0828946 2.8010001
1.2435911 -1.0859874 2.809
1.2334043 -1.0728427 2.7750001
1.238716 -1.0732293 2.776
1.2440312 -1.0736159 2.7770002
1.2367575 -1.0631775 2.7500002
1.2393217 -1.0612445 2.7450001
1.2400556 -1.057765 2.7360001
1.2448527 -1.057765 2.7360001
1.2569577 -1.0639507 2.7520001
1.2617828 -1.0639507 2.7520001
1.266608 -1.0639507 2.7520001
1.2714331 -1.0639507 2.7520001
1.2753308 -1.0631775 2.7500002
1.2708423 -1.0554453 2.73
1.2751616 -1.0550587 2.7290001
1.2719731 -1.0484864 2.7120001
1.2748451 -1.0469398 2.7080002
1.2786481 -1.0461667 2.7060001
1.2729585 -1.0376612 2.684
1.2776645 -1.0376612 2.684
1.2795037 -1.0353416 2.6780002
1.2741289 -1.0272228 2.6570001
1.2783062 -1.0268362 2.6560001
1.2733022 -1.019104 2.6360002
1.2784088 -1.0194906 2.6370001
1.2835189 -1.0198772 2.638
1.2871675 -1.019104 2.6360002
1.2878689 -1.0160111 2.628
1.286575 -1.0113717 2.6160002
1.2812904 -1.0036396 2.5960002
1.2843561 -1.0024797 2.5930002
1.1547453 -1.1391758 2.96
1.1599352 -1.1391758 2.96
1.1757529 -1.1495669 2.9870002
1.1821762 -1.1507214 2.9900002
1.1874187 -1.1507214 2.9900002
1.1755092 -1.1341726 2.947
1.1806762 -1.1341726 2.947
1.1826242 -1.1310937 2.9390001
1.1877773 -1.1310937 2.9390001
1.1973952 -1.1353271 2.95
1.2025675 -1.1353271 2.95
1.1958672 -1.1241664 2.9210002
1.2051002 -1.1280149 2.9310002
1.1999165 -1.1183934 2.9060001
1.195889 -1.1099266 2.8840001
1.1996964 -1.108772 2.881
1.1938753 -1.0987657 2.855
1.1980413 -1.0979961 2.8530002
1.1941884 -1.0899141 2.832
1.1991538 -1.0899141 2.832
1.2066703 -1.0922232 2.8380001
1.2125001 -1.0929929 2.8400002
1.2157649 -1.0914536 2.8360002
1.227194 -1.0972264 2.8510001
1.2356503 -1.1003052 2.8590002
1.2337198 -1.0941474 2.8430002
1.2317333 -1.0879898 2.8270001
1.235815 -1.0872201 2.825
1.2297879 -1.0775987 2.8000002
1.227201 -1.0710561 2.7830002
1.2267679 -1.0664378 2.7710001
1.229404 -1.0645136 2.766
1.2342538 -1.0645136 2.766
1.2341757 -1.0602801 2.7550001
1.2394558 -1.060665 2.756
1.2438365 -1.0602801 2.7550001
1.2441347 -1.0564315 2.7450001
1.2489475 -1.0564315 2.7450001
1.2569577 -1.0591255 2.7520001
1.2617828 -1.0591255 2.7520001
1.266608 -1.0591255 2.7520001
1.2737432 -1.0610498 2.7570002
1.2646644 -1.0495042 2.7270002
1.2703768 -1.0502739 2.7290001
1.2788998 -1.0533527 2.7370002
1.2780704 -1.0487344 2.7250001
1.2729621 -1.0406524 2.7040002
1.2687252 -1.0333401 2.6850002
1.2781756 -1.0371888 2.6950002
1.2829008 -1.0371888 2.6950002
1.2795037 -1.0306462 2.6780002
1.2841992 -1.0306462 2.6780002
1.2787875 -1.0225642 2.6570001
1.2834461 -1.0225642 2.6570001
1.2784088 -1.0148671 2.6370001
1.2927634 -1.0225642 2.6570001
1.2871675 -1.0144821 2.6360002
1.2868888 -1.0106336 2.6260002
1.2875586 -1.0075548 2.618
1.2822776 -0.9998576 2.598
1.2868327 -0.9998576 2.598
0.61939746 -1.2247814 3.1970003
0.62539381 -1.2255476 3.1990001
0.63080549 -1.2251644 3.1980002
0.63641268 -1.2251644 3.1980002
0.64121681 -1.2236321 3.1940002
0.64742446 -1.2247814 3.1970003
0.65384692 -1.2263137 3.2010002
0.65966535 -1.2266968 3.2020001
0.66569507 -1.2274631 3.2040002
0.66942704 -1.2240151 3.1950002
0.66869062 -1.212522 3.1650002
0.67977875 -1.2224827 3.1910002
0.69375014 -1.2374238 3.2300003
0.69941342 -1.2374238 3.2300003
0.70573157 -1.2385731 3.233
0.71140009 -1.2385731 3.233
0.72505331 -1.2523648 3.2690001
0.73078495 -1.2523648 3.2690001
0.73336232 -1.2470013 3.2550001
0.74134004 -1.2508323 3.2650001
0.74729347 -1.2512155 3.2660003
0.75209761 -1.249683 3.2620001
0.75781697 -1.249683 3.2620001
0.7644726 -1.2512155 3.2660003
0.7711423 -1.2527479 3.2700002
0.77711326 -1.253131 3.2710001
0.78284842 -1.253131 3.2710001
0.78858358 -1.253131 3.2710001
0.79431874 -1.253131 3.2710001
0.80127686 -1.2550465 3.2760003
0.80702078 -1.2550465 3.2760003
0.81499755 -1.2584945 3.2850001
0.81850857 -1.2550465 3.2760003
0.82425249 -1.2550465 3.2760003
0.82999641 -1.2550465 3.2760003
0.83574033 -1.2550465 3.2760003
0.84097058 -1.2542803 3.2740002
0.84334892 -1.2493 3.2610002
0.85167027 -1.253131 3.2710001
0.85740542 -1.253131 3.2710001
0.86314058 -1.253131 3.2710001
0.8773759 -1.2653903 3.3030002
0.88316715 -1.2653903 3.3030002
0.88895839 -1.2653903 3.3030002
0.89502054 -1.2657734 3.3040001
0.90054095 -1.2653903 3.3030002
0.90633219 -1.2653903 3.3030002
0.91101885 -1.2638578 3.2990003
0.92986453 -1.2818637 3.3460002
0.91867214 -1.2584945 3.2850001
0.92443186 -1.2584945 3.2850001
0.93132418 -1.2600268 3.2890003
0.93310207 -1.2546635 3.2750001
0.95862448 -1.2810975 3.3440001
0.96448761 -1.2810975 3.3440001
0.95990443 -1.2673059 3.3080001
0.96570444 -1.2673059 3.3080001
0.98119599 -1.2799482 3.3410001
0.97730446 -1.2673059 3.3080001
0.97567475 -1.2577282 3.2830002
0.98681194 -1.2646241 3.3010001
0.98778856 -1.2584945 3.2850001
0.99354821 -1.2584945 3.2850001
0.9956575 -1.2538972 3.2730002
1.0020081 -1.2546635 3.2750001
1.0108273 -1.2584945 3.2850001
1.0147302 -1.2561958 3.279
1.0223467 -1.2584945 3.2850001
1.0346788 -1.2665396 3.3060002
1.0612471 -1.2918245 3.3720002
1.0614628 -1.2849286 3.3540001
1.0555689 -1.2707537 3.3170002
1.0569049 -1.2653903 3.3030002
1.0581919 -1.2600268 3.2890003
1.0591062 -1.2542803 3.2740002
1.0606185 -1.2493 3.2610002
1.0591422 -1.2408717 3.2390001
1.0444387 -1.2171193 3.177
1.0572802 -1.2255476 3.1990001
1.0725245 -1.2366575 3.2280002
1.0828605 -1.242021 3.2420001
1.0902236 -1.2439365 3.2470002
1.094229 -1.242021 3.2420001
1.0968599 -1.2385731 3.233
1.1042335 -1.2404885 3.2380002
1.111282 -1.242021 3.2420001
1.1214452 -1.2470013 3.2550001
1.1271522 -1.2470013 3.2550001
1.1387759 -1.2535141 3.2720001
1.1469615 -1.2561958 3.279
1.1400551 -1.2424041 3.2430003
1.1422081 -1.2385731 3.233
1.1475216 -1.2381899 3.2320001
1.1514044 -1.2362745 3.2270002
1.1556281 -1.234742 3.223
1.1508301 -1.2236321 3.1940002
1.1560682 -1.223249 3.1930001
1.1492969 -1.2102234 3.1590002
1.1427718 -1.1975811 3.1260002
1.1478854 -1.1971979 3.1250002
1.1533645 -1.1971979 3.1250002
1.1595854 -1.1979641 3.1270001
1.1661859 -1.1991134 3.1300001
1.1705507 -1.1979641 3.1270001
1.1771617 -1.1991134 3.1300001
1.1716921 -1.1880034 3.1010001
1.1668801 -1.1776596 3.0740001
1.1711259 -1.1765103 3.0710001
1.1711189 -1.1657834 3.0430002
0.6178475 -1.2161251 3.1890001
0.62422085 -1.2176505 3.1930001
0.62981927 -1.2176505 3.1930001
0.63541764 -1.2176505 3.1930001
0.64101601 -1.2176505 3.1930001
0.64661443 -1.2176505 3.1930001
0.6522128 -1.2176505 3.1930001
0.66131347 -1.2241335 3.21
0.6669417 -1.2241335 3.21
0.67173183 -1.2226081 3.2060001
0.67566276 -1.2195573 3.1980002
0.68233508 -1.221464 3.2030001
0.69117278 -1.2271843 3.2180002
0.69681501 -1.2271843 3.2180002
0.70573157 -1.2329046 3.233
0.71140009 -1.2329046 3.233
0.71706861 -1.2329046 3.233
0.72653747 -1.2393875 3.2500002
0.73223585 -1.2393875 3.2500002
0.74156708 -1.2454891 3.2660003
0.74797988 -1.2466332 3.2690001
0.75301987 -1.2454891 3.2660003
0.75944316 -1.2466332 3.2690001
0.76517481 -1.2466332 3.2690001
0.76406759 -1.235574 3.2400002
0.76974839 -1.235574 3.2400002
0.77542919 -1.235574 3.2400002
0.78110999 -1.235574 3.2400002
0.78679079 -1.235574 3.2400002
0.80127686 -1.2493026 3.2760003
0.80702078 -1.2493026 3.2760003
0.8127647 -1.2493026 3.2760003
0.81850857 -1.2493026 3.2760003
0.82425249 -1.2493026 3.2760003
0.82999641 -1.2493026 3.2760003
0.83574033 -1.2493026 3.2760003
0.84122741 -1.2489213 3.2750001
0.84619373 -1.2477772 3.2720001
0.85219103 -1.2481586 3.2730002
0.85792965 -1.2481586 3.2730002
0.86314058 -1.2473959 3.2710001
0.86887574 -1.2473959 3.2710001
0.8746109 -1.2473959 3.2710001
0.88034606 -1.2473959 3.2710001
0.89474964 -1.2595991 3.3030002
0.90054095 -1.2595991 3.3030002
0.90633219 -1.2595991 3.3030002
0.9201318 -1.2706581 3.3320003
0.92875296 -1.2744716 3.3420002
0.92566359 -1.2622685 3.3100002
