# .PCD v0.7 - Point Cloud Data file format
VERSION 0.7
FIELDS x y z
SIZE 4 4 4
TYPE F F F
COUNT 1 1 1
WIDTH 1408
HEIGHT 1
VIEWPOINT 0 0 0 1 0 0 0
POINTS 1408
DATA ascii
0.43362036 -0.013830293 0.92800003
0.43571648 -0.013845197 0.92900002
0.43640378 -0.01381539 0.92700005
0.43802914 -0.01381539 0.92700005
0.43965447 -0.01381539 0.92700005
0.4412798 -0.01381539 0.92700005
0.44290516 -0.01381539 0.92700005
0.44357142 -0.013785583 0.92500007
0.44519326 -0.013785583 0.92500007
0.44633204 -0.01377068 0.92400002
0.44795212 -0.01377068 0.92400002
0.44908565 -0.013755777 0.92300004
0.45216888 -0.013800487 0.92600006
0.45379248 -0.013800487 0.92600006
0.45590788 -0.01381539 0.92700005
0.45802677 -0.013830293 0.92800003
0.42512986 -0.01247935 0.94900006
0.42634404 -0.0124662 0.94800007
0.42710322 -0.0124399 0.94600004
0.42876187 -0.0124399 0.94600004
0.43042055 -0.0124399 0.94600004
0.43070897 -0.01240045 0.94300002
0.43052837 -0.01234785 0.93900007
0.43217474 -0.01234785 0.93900007
0.43243513 -0.0123084 0.93600005
0.43407625 -0.0123084 0.93600005
0.43338981 -0.01224265 0.93100005
0.43362036 -0.0122032 0.92800003
0.43571648 -0.01221635 0.92900002
0.43734533 -0.01221635 0.92900002
0.43850166 -0.0122032 0.92800003
0.44012874 -0.0122032 0.92800003
0.4412798 -0.01219005 0.92700005
0.44290516 -0.01219005 0.92700005
0.44405094 -0.0121769 0.92600006
0.44567454 -0.0121769 0.92600006
0.44633204 -0.0121506 0.92400002
0.44795212 -0.0121506 0.92400002
0.44957221 -0.0121506 0.92400002
0.45265719 -0.01219005 0.92700005
0.45477259 -0.0122032 0.92800003
0.45689148 -0.01221635 0.92900002
0.45802677 -0.0122032 0.92800003
0.42512986 -0.010815437 0.94900006
0.42634404 -0.01080404 0.94800007
0.4280062 -0.01080404 0.94800007
0.42876187 -0.010781246 0.94600004
0.43042055 -0.010781246 0.94600004
0.43070897 -0.010747056 0.94300002
0.43052837 -0.01070147 0.93900007
0.43217474 -0.01070147 0.93900007
0.43243513 -0.01066728 0.93600005
0.43454 -0.010678677 0.93700004
0.43338981 -0.010610296 0.93100005
0.43362036 -0.010576107 0.92800003
0.43571648 -0.010587503 0.92900002
0.43734533 -0.010587503 0.92900002
0.43897417 -0.010587503 0.92900002
0.44060302 -0.010587503 0.92900002
0.4412798 -0.01056471 0.92700005
0.44290516 -0.01056471 0.92700005
0.44501004 -0.010576107 0.92800003
0.44663712 -0.010576107 0.92800003
0.44729811 -0.010553313 0.92600006
0.4494065 -0.01056471 0.92700005
0.45151839 -0.010576107 0.92800003
0.4531455 -0.010576107 0.92800003
0.45477259 -0.010576107 0.92800003
0.45639968 -0.010576107 0.92800003
0.45802677 -0.010576107 0.92800003
0.42512986 -0.009151523 0.94900006
0.42634404 -0.0091418801 0.94800007
0.4280062 -0.0091418801 0.94800007
0.42966837 -0.0091418801 0.94800007
0.43042055 -0.0091225933 0.94600004
0.4320792 -0.0091225933 0.94600004
0.43236235 -0.0090936637 0.94300002
0.43263501 -0.0090647331 0.94000006
0.43289712 -0.0090358034 0.93700004
0.43454 -0.0090358034 0.93700004
0.43385532 -0.0089875869 0.93200004
0.43408763 -0.0089586563 0.92900002
0.43618551 -0.0089683002 0.93000007
0.43781608 -0.0089683002 0.93000007
0.43944669 -0.0089683002 0.93000007
0.44155157 -0.0089779431 0.93100005
0.4427079 -0.0089683002 0.93000007
0.4443385 -0.0089683002 0.93000007
0.44548956 -0.0089586563 0.92900002
0.4471184 -0.0089586563 0.92900002
0.44826421 -0.0089490134 0.92800003
0.45037609 -0.0089586563 0.92900002
0.45103183 -0.0089393696 0.92700005
0.4531455 -0.0089490134 0.92800003
0.45477259 -0.0089490134 0.92800003
0.45639968 -0.0089490134 0.92800003
0.45802677 -0.0089490134 0.92800003
0.42512986 -0.00748761 0.94900006
0.42634404 -0.0074797198 0.94800007
0.4280062 -0.0074797198 0.94800007
0.42966837 -0.0074797198 0.94800007
0.43042055 -0.00746394 0.94600004
0.4320792 -0.00746394 0.94600004
0.43236235 -0.0074402699 0.94300002
0.43263501 -0.0074165999 0.94000006
0.43289712 -0.0073929299 0.93700004
0.4322212 -0.00735348 0.93200004
0.43385532 -0.00735348 0.93200004
0.43408763 -0.0073298099 0.92900002
0.43618551 -0.0073377001 0.93000007
0.43781608 -0.0073377001 0.93000007
0.43944669 -0.0073377001 0.93000007
0.44107729 -0.0073377001 0.93000007
0.4427079 -0.0073377001 0.93000007
0.4443385 -0.0073377001 0.93000007
0.4459691 -0.0073377001 0.93000007
0.44759971 -0.0073377001 0.93000007
0.44874725 -0.0073298099 0.92900002
0.45037609 -0.0073298099 0.92900002
0.45151839 -0.0073219198 0.92800003
0.4531455 -0.0073219198 0.92800003
0.45526263 -0.0073298099 0.92900002
0.45639968 -0.0073219198 0.92800003
0.45753321 -0.0073140301 0.92700005
0.42569706 -0.0058543799 0.95400006
0.42468187 -0.00581756 0.94800007
0.42634404 -0.00581756 0.94800007
0.4280062 -0.00581756 0.94800007
0.42966837 -0.00581756 0.94800007
0.43133053 -0.00581756 0.94800007
0.4320792 -0.0058052866 0.94600004
0.43236235 -0.0057868767 0.94300002
0.43263501 -0.0057684667 0.94000006
0.43382114 -0.0057623298 0.93900007
0.4322212 -0.0057193735 0.93200004
0.43338981 -0.0057132365 0.93100005
0.43408763 -0.0057009631 0.92900002
0.43618551 -0.0057071 0.93000007
0.43734533 -0.0057009631 0.92900002
0.43991923 -0.0057132365 0.93100005
0.44107729 -0.0057071 0.93000007
0.44223186 -0.0057009631 0.92900002
0.4443385 -0.0057071 0.93000007
0.4459691 -0.0057071 0.93000007
0.4471184 -0.0057009631 0.92900002
0.44826421 -0.0056948266 0.92800003
0.4494065 -0.0056886901 0.92700005
0.45103183 -0.0056886901 0.92700005
0.4531455 -0.0056948266 0.92800003
0.45624274 -0.0057132365 0.93100005
0.4578751 -0.0057132365 0.93100005
0.45950747 -0.0057132365 0.93100005
0.42569706 -0.0041816998 0.95400006
0.42468187 -0.0041553997 0.94800007
0.42634404 -0.0041553997 0.94800007
0.4280062 -0.0041553997 0.94800007
0.42966837 -0.0041553997 0.94800007
0.43133053 -0.0041553997 0.94800007
0.4320792 -0.0041466332 0.94600004
0.43236235 -0.0041334834 0.94300002
0.43217474 -0.0041159499 0.93900007
0.43289712 -0.0041071833 0.93700004
0.4322212 -0.0040852665 0.93200004
0.43385532 -0.0040852665 0.93200004
0.43408763 -0.0040721167 0.92900002
0.43571648 -0.0040721167 0.92900002
0.43734533 -0.0040721167 0.92900002
0.43991923 -0.0040808832 0.93100005
0.44012874 -0.0040677334 0.92800003
0.44080377 -0.0040589664 0.92600006
0.44290516 -0.0040633501 0.92700005
0.44501004 -0.0040677334 0.92800003
0.44663712 -0.0040677334 0.92800003
0.44778118 -0.0040633501 0.92700005
0.44892171 -0.0040589664 0.92600006
0.45151839 -0.0040677334 0.92800003
0.45461041 -0.0040808832 0.93100005
0.45673281 -0.0040852665 0.93200004
0.45836693 -0.0040852665 0.93200004
0.45950747 -0.0040808832 0.93100005
0.42569706 -0.00250902 0.95400006
0.42602581 -0.0025011299 0.95100003
0.42634404 -0.0024932399 0.94800007
0.42845768 -0.00249587 0.94900006
0.4301216 -0.00249587 0.94900006
0.43042055 -0.0024879801 0.94600004
0.4320792 -0.0024879801 0.94600004
0.43236235 -0.0024800899 0.94300002
0.43217474 -0.0024695699 0.93900007
0.43289712 -0.00246431 0.93700004
0.4322212 -0.00245116 0.93200004
0.43385532 -0.00245116 0.93200004
0.43548942 -0.00245116 0.93200004
0.43712354 -0.00245116 0.93200004
0.43734533 -0.0024432701 0.92900002
0.43944669 -0.0024458999 0.93000007
0.44107729 -0.0024458999 0.93000007
0.44175583 -0.00244064 0.92800003
0.44290516 -0.0024380099 0.92700005
0.44453049 -0.0024380099 0.92700005
0.44615582 -0.0024380099 0.92700005
0.44778118 -0.0024380099 0.92700005
0.44892171 -0.0024353799 0.92600006
0.45297804 -0.0024485299 0.93100005
0.45461041 -0.0024485299 0.93100005
0.45820299 -0.0024590499 0.93500006
0.45885873 -0.00245379 0.93300003
0.45950747 -0.0024485299 0.93100005
0.42525083 -0.00083546335 0.95300007
0.42557782 -0.00083283335 0.95000005
0.4272435 -0.00083283335 0.95000005
0.42845768 -0.00083195668 0.94900006
0.4301216 -0.00083195668 0.94900006
0.43042055 -0.00082932669 0.94600004
0.4320792 -0.00082932669 0.94600004
0.43236235 -0.00082669663 0.94300002
0.43217474 -0.00082318997 0.93900007
0.43289712 -0.00082143664 0.93700004
0.4322212 -0.00081705331 0.93200004
0.43385532 -0.00081705331 0.93200004
0.43548942 -0.00081705331 0.93200004
0.43759254 -0.00081792998 0.93300003
0.43781608 -0.00081529998 0.93000007
0.43944669 -0.00081529998 0.93000007
0.44107729 -0.00081529998 0.93000007
0.44175583 -0.00081354665 0.92800003
0.44290516 -0.00081266998 0.92700005
0.44453049 -0.00081266998 0.92700005
0.44615582 -0.00081266998 0.92700005
0.44778118 -0.00081266998 0.92700005
0.44892171 -0.00081179332 0.92600006
0.45297804 -0.00081617665 0.93100005
0.45461041 -0.00081617665 0.93100005
0.45722288 -0.00081792998 0.93300003
0.45935053 -0.00081880664 0.93400002
0.46049458 -0.00081792998 0.93300003
0.42313543 0.00083458668 0.95200002
0.42346594 0.00083195668 0.94900006
0.42557782 0.00083283335 0.95000005
0.4272435 0.00083283335 0.95000005
0.42890915 0.00083283335 0.95000005
0.43057483 0.00083283335 0.95000005
0.43042055 0.00082932669 0.94600004
0.43070897 0.00082669663 0.94300002
0.43098685 0.00082406664 0.94000006
0.43217474 0.00082318997 0.93900007
0.43289712 0.00082143664 0.93700004
0.4322212 0.00081705331 0.93200004
0.43385532 0.00081705331 0.93200004
0.43548942 0.00081705331 0.93200004
0.43759254 0.00081792998 0.93300003
0.43781608 0.00081529998 0.93000007
0.43991923 0.00081617665 0.93100005
0.44107729 0.00081529998 0.93000007
0.44223186 0.00081442331 0.92900002
0.44242737 0.00081179332 0.92600006
0.4459691 0.00081529998 0.93000007
0.44615582 0.00081266998 0.92700005
0.44778118 0.00081266998 0.92700005
0.45037609 0.00081442331 0.92900002
0.45297804 0.00081617665 0.93100005
0.45461041 0.00081617665 0.93100005
0.45722288 0.00081792998 0.93300003
0.45984235 0.00081968331 0.93500006
0.46148172 0.00081968331 0.93500006
0.42180201 0.00249587 0.94900006
0.42391217 0.0024985 0.95000005
0.42557782 0.0024985 0.95000005
0.4272435 0.0024985 0.95000005
0.42890915 0.0024985 0.95000005
0.42966837 0.0024932399 0.94800007
0.43042055 0.0024879801 0.94600004
0.43070897 0.0024800899 0.94300002
0.43052837 0.0024695699 0.93900007
0.43217474 0.0024695699 0.93900007
0.43289712 0.00246431 0.93700004
0.4322212 0.00245116 0.93200004
0.43385532 0.00245116 0.93200004
0.43548942 0.00245116 0.93200004
0.43712354 0.00245116 0.93200004
0.43734533 0.0024432701 0.92900002
0.43897417 0.0024432701 0.92900002
0.44012874 0.00244064 0.92800003
0.44175583 0.00244064 0.92800003
0.4443385 0.0024458999 0.93000007
0.4459691 0.0024458999 0.93000007
0.44759971 0.0024458999 0.93000007
0.44923028 0.0024458999 0.93000007
0.45037609 0.0024432701 0.92900002
0.45297804 0.0024485299 0.93100005
0.45461041 0.0024485299 0.93100005
0.45673281 0.00245116 0.93200004
0.45836693 0.00245116 0.93200004
0.46000102 0.00245116 0.93200004
0.42180201 0.0041597835 0.94900006
0.42346594 0.0041597835 0.94900006
0.42557782 0.0041641667 0.95000005
0.4272435 0.0041641667 0.95000005
0.4280062 0.0041553997 0.94800007
0.42966837 0.0041553997 0.94800007
0.43042055 0.0041466332 0.94600004
0.42933872 0.0041203331 0.94000006
0.43052837 0.0041159499 0.93900007
0.43125424 0.0041071833 0.93700004
0.43289712 0.0041071833 0.93700004
0.4322212 0.0040852665 0.93200004
0.43385532 0.0040852665 0.93200004
0.43548942 0.0040852665 0.93200004
0.43571648 0.0040721167 0.92900002
0.43734533 0.0040721167 0.92900002
0.43897417 0.0040721167 0.92900002
0.44012874 0.0040677334 0.92800003
0.44080377 0.0040589664 0.92600006
0.44242737 0.0040589664 0.92600006
0.4459691 0.0040765 0.93000007
0.44759971 0.0040765 0.93000007
0.44874725 0.0040721167 0.92900002
0.45134568 0.0040808832 0.93100005
0.45297804 0.0040808832 0.93100005
0.45461041 0.0040808832 0.93100005
0.45624274 0.0040808832 0.93100005
0.4578751 0.0040808832 0.93100005
0.46000102 0.0040852665 0.93200004
0.42180201 0.0058236965 0.94900006
0.42346594 0.0058236965 0.94900006
0.42557782 0.0058298334 0.95000005
0.4272435 0.0058298334 0.95000005
0.4280062 0.00581756 0.94800007
0.42966837 0.00581756 0.94800007
0.42905557 0.0057868767 0.94300002
0.42933872 0.0057684667 0.94000006
0.43052837 0.0057623298 0.93900007
0.43125424 0.0057500568 0.93700004
0.43289712 0.0057500568 0.93700004
0.4322212 0.0057193735 0.93200004
0.43385532 0.0057193735 0.93200004
0.43548942 0.0057193735 0.93200004
0.43571648 0.0057009631 0.92900002
0.43734533 0.0057009631 0.92900002
0.43802914 0.0056886901 0.92700005
0.4391802 0.0056825532 0.92600006
0.4393757 0.0056641432 0.92300004
0.44099402 0.0056641432 0.92300004
0.44309187 0.0056702802 0.92400002
0.44471195 0.0056702802 0.92400002
0.44729811 0.0056825532 0.92600006
0.45037609 0.0057009631 0.92900002
0.45200494 0.0057009631 0.92900002
0.45168057 0.0056764167 0.92500007
0.45379248 0.0056825532 0.92600006
0.45689148 0.0057009631 0.92900002
0.45901391 0.0057071 0.93000007
0.42046863 0.00746394 0.94600004
0.42346594 0.00748761 0.94900006
0.42557782 0.0074955001 0.95000005
0.42634404 0.0074797198 0.94800007
0.4280062 0.0074797198 0.94800007
0.42830864 0.0074560498 0.94500005
0.4272356 0.0074087097 0.93900007
0.42933872 0.0074165999 0.94000006
0.42961138 0.0073929299 0.93700004
0.43125424 0.0073929299 0.93700004
0.43289712 0.0073929299 0.93700004
0.43314871 0.0073692598 0.93400002
0.43385532 0.00735348 0.93200004
0.43548942 0.00735348 0.93200004
0.43571648 0.0073298099 0.92900002
0.43640378 0.0073140301 0.92700005
0.43755659 0.0073061399 0.92600006
0.4391802 0.0073061399 0.92600006
0.4393757 0.0072824699 0.92300004
0.43956065 0.0072587999 0.92000002
0.4421328 0.0072745797 0.92200005
0.44471195 0.0072903601 0.92400002
0.44633204 0.0072903601 0.92400002
0.44601294 0.0072587999 0.92000002
0.44762599 0.0072587999 0.92000002
0.44923908 0.0072587999 0.92000002
0.45428252 0.0073140301 0.92700005
0.4573833 0.0073377001 0.93000007
0.45901391 0.0073377001 0.93000007
0.42156094 0.0092190262 0.95600003
0.42102355 0.0091708098 0.95100003
0.42046863 0.0091225933 0.94600004
0.42346594 0.009151523 0.94900006
0.42557782 0.0091611668 0.95000005
0.42634404 0.0091418801 0.94800007
0.4280062 0.0091418801 0.94800007
0.42740217 0.0090936637 0.94300002
0.4272356 0.0090550901 0.93900007
0.42888197 0.0090550901 0.93900007
0.42961138 0.0090358034 0.93700004
0.43125424 0.0090358034 0.93700004
0.43289712 0.0090358034 0.93700004
0.43268496 0.0089972299 0.93300003
0.43385532 0.0089875869 0.93200004
0.43548942 0.0089875869 0.93200004
0.43571648 0.0089586563 0.92900002
0.43640378 0.0089393696 0.92700005
0.43755659 0.0089297267 0.92600006
0.4391802 0.0089297267 0.92600006
0.4393757 0.008900797 0.92300004
0.43956065 0.0088718664 0.92000002
0.4421328 0.0088911531 0.92200005
0.44374937 0.0088911531 0.92200005
0.44391683 0.0088622235 0.91900003
0.44310415 0.008814007 0.91400003
0.4437336 0.0087947203 0.91200006
0.44386771 0.0087657897 0.90900004
0.44399133 0.00873686 0.90600002
0.44557986 0.00873686 0.90600002
0.44716838 0.00873686 0.90600002
0.42076316 0.010918006 0.95800006
0.420679 0.01087242 0.95400006
0.42013812 0.010815437 0.94900006
0.42224649 0.010826834 0.95000005
0.42301971 0.01080404 0.94800007
0.42468187 0.01080404 0.94800007
0.42679375 0.010815437 0.94900006
0.42755473 0.010792643 0.94700003
0.4264957 0.010724263 0.94100004
0.4272356 0.01070147 0.93900007
0.42888197 0.01070147 0.93900007
0.42961138 0.010678677 0.93700004
0.43125424 0.010678677 0.93700004
0.43289712 0.010678677 0.93700004
0.43407625 0.01066728 0.93600005
0.43385532 0.010621693 0.93200004
0.43408763 0.010587503 0.92900002
0.43524745 0.010576107 0.92800003
0.43499148 0.01053052 0.92400002
0.43661156 0.01053052 0.92400002
0.43775737 0.010519124 0.92300004
0.4393757 0.010519124 0.92300004
0.43956065 0.010484933 0.92000002
0.44117373 0.010484933 0.92000002
0.44230551 0.010473536 0.91900003
0.44198465 0.01042795 0.91500002
0.44116497 0.010370967 0.91000003
0.44227394 0.01035957 0.90900004
0.44191453 0.010313983 0.90500003
0.44252115 0.01029119 0.90300006
0.44459623 0.010302586 0.90400004
0.44618124 0.010302586 0.90400004
0.42164159 0.012624 0.96000004
0.420679 0.012545099 0.95400006
0.42013812 0.01247935 0.94900006
0.42269096 0.01250565 0.95100003
0.42346594 0.01247935 0.94900006
0.42557782 0.0124925 0.95000005
0.42679375 0.01247935 0.94900006
0.42665175 0.01242675 0.94500005
0.4264957 0.01237415 0.94100004
0.42678061 0.0123347 0.93800002
0.42842525 0.0123347 0.93800002
0.42915288 0.0123084 0.93600005
0.430794 0.0123084 0.93600005
0.43243513 0.0123084 0.93600005
0.43407625 0.0123084 0.93600005
0.43338981 0.01224265 0.93100005
0.43315309 0.01219005 0.92700005
0.43524745 0.0122032 0.92800003
0.43499148 0.0121506 0.92400002
0.43661156 0.0121506 0.92400002
0.43633452 0.012098 0.92000002
0.4379476 0.012098 0.92000002
0.4386051 0.0120717 0.91800004
0.44021466 0.0120717 0.91800004
0.44182423 0.0120717 0.91800004
0.44101855 0.01200595 0.91300005
0.44116497 0.011966499 0.91000003
0.44032773 0.01190075 0.90500003
0.44093791 0.01187445 0.90300006
0.44301122 0.0118876 0.90400004
0.44361261 0.0118613 0.90200007
0.44519413 0.0118613 0.90200007
0.42032397 0.01426249 0.95700002
0.420679 0.01421778 0.95400006
0.42058083 0.014158167 0.95000005
0.42269096 0.01417307 0.95100003
0.42301971 0.01412836 0.94800007
0.42468187 0.01412836 0.94800007
0.42634404 0.01412836 0.94800007
0.42620027 0.014068747 0.94400007
0.4264957 0.014024037 0.94100004
0.42678061 0.013979327 0.93800002
0.42842525 0.013979327 0.93800002
0.42915288 0.01394952 0.93600005
0.430794 0.01394952 0.93600005
0.43243513 0.01394952 0.93600005
0.43407625 0.01394952 0.93600005
0.43245879 0.013845197 0.92900002
0.43315309 0.01381539 0.92700005
0.43524745 0.013830293 0.92800003
0.43499148 0.01377068 0.92400002
0.43519399 0.01372597 0.92100006
0.43633452 0.013711067 0.92000002
0.4379476 0.013711067 0.92000002
0.4386051 0.01368126 0.91800004
0.43877605 0.01363655 0.91500002
0.44038033 0.01363655 0.91500002
0.43956944 0.013562033 0.91000003
0.44019538 0.013532227 0.90800005
0.44032773 0.013487517 0.90500003
0.44093791 0.01345771 0.90300006
0.44203112 0.013442807 0.90200007
0.44361261 0.013442807 0.90200007
0.44519413 0.013442807 0.90200007
0.42120239 0.015973743 0.95900005
0.42111999 0.015907116 0.95500004
0.42058083 0.015823834 0.95000005
0.42269096 0.015840489 0.95100003
0.4243584 0.015840489 0.95100003
0.42602581 0.015840489 0.95100003
0.42634404 0.01579052 0.94800007
0.42665175 0.015740549 0.94500005
0.4264957 0.015673922 0.94100004
0.42678061 0.015623953 0.93800002
0.42842525 0.015623953 0.93800002
0.42915288 0.01559064 0.93600005
0.430794 0.01559064 0.93600005
0.43243513 0.01559064 0.93600005
0.43268496 0.01554067 0.93300003
0.43199328 0.015457386 0.92800003
0.4345549 0.0154907 0.93000007
0.43477845 0.015440729 0.92700005
0.43452072 0.015374104 0.92300004
0.43472147 0.015324133 0.92000002
0.43633452 0.015324133 0.92000002
0.43699554 0.01529082 0.91800004
0.43717176 0.01524085 0.91500002
0.43877605 0.01524085 0.91500002
0.43941778 0.015207537 0.91300005
0.43956944 0.015157566 0.91000003
0.44019538 0.015124253 0.90800005
0.44032773 0.015074283 0.90500003
0.44142622 0.015057626 0.90400004
0.44203112 0.015024313 0.90200007
0.44312081 0.015007657 0.90100002
0.44470057 0.015007657 0.90100002
0.42120239 0.01765519 0.95900005
0.42111999 0.01758155 0.95500004
0.42058083 0.0174895 0.95000005
0.42269096 0.017507911 0.95100003
0.4243584 0.017507911 0.95100003
0.42468187 0.01745268 0.94800007
0.42634404 0.01745268 0.94800007
0.4257488 0.01736063 0.94300002
0.425136 0.017268579 0.93800002
0.4272356 0.01728699 0.93900007
0.42888197 0.01728699 0.93900007
0.42961138 0.017250169 0.93700004
0.43125424 0.017250169 0.93700004
0.43104911 0.017176529 0.93300003
0.43268496 0.017176529 0.93300003
0.43338981 0.01713971 0.93100005
0.43502218 0.01713971 0.93100005
0.43430942 0.01704766 0.92600006
0.43452072 0.016992429 0.92300004
0.43472147 0.0169372 0.92000002
0.43680879 0.01695561 0.92100006
0.43747157 0.01691879 0.91900003
0.43764952 0.01686356 0.91600007
0.43877605 0.01684515 0.91500002
0.43941778 0.016808329 0.91300005
0.43956944 0.0167531 0.91000003
0.44019538 0.016716279 0.90800005
0.44032773 0.01666105 0.90500003
0.44142622 0.016642639 0.90400004
0.44301122 0.016642639 0.90400004
0.44410443 0.016624229 0.90300006
0.44568768 0.016624229 0.90300006
0.42120239 0.019336637 0.95900005
0.42111999 0.019255983 0.95500004
0.42058083 0.019155167 0.95000005
0.42269096 0.01917533 0.95100003
0.4243584 0.01917533 0.95100003
0.42468187 0.019114841 0.94800007
0.42544457 0.019074513 0.94600004
0.4257488 0.019014023 0.94300002
0.42558923 0.018933371 0.93900007
0.4272356 0.018933371 0.93900007
0.4279685 0.018893043 0.93700004
0.42961138 0.018893043 0.93700004
0.43125424 0.018893043 0.93700004
0.43104911 0.01881239 0.93300003
0.43175745 0.018772064 0.93100005
0.43338981 0.018772064 0.93100005
0.43362036 0.018711573 0.92800003
0.43524745 0.018711573 0.92800003
0.43499148 0.01863092 0.92400002
0.43472147 0.018550267 0.92000002
0.43586025 0.018530102 0.91900003
0.43747157 0.018530102 0.91900003
0.43764952 0.018469613 0.91600007
0.43877605 0.01844945 0.91500002
0.43941778 0.018409124 0.91300005
0.43956944 0.018348632 0.91000003
0.44019538 0.018308306 0.90800005
0.44032773 0.018247817 0.90500003
0.44093791 0.01820749 0.90300006
0.44252115 0.01820749 0.90300006
0.44410443 0.01820749 0.90300006
0.44618124 0.018227654 0.90400004
0.42120239 0.021018082 0.95900005
0.42111999 0.020930417 0.95500004
0.42058083 0.020820834 0.95000005
0.42269096 0.02084275 0.95100003
0.4248046 0.020864667 0.95200002
0.42512986 0.020798916 0.94900006
0.42589432 0.020755082 0.94700003
0.42529729 0.020645499 0.94200003
0.42558923 0.02057975 0.93900007
0.4272356 0.02057975 0.93900007
0.4279685 0.020535916 0.93700004
0.42961138 0.020535916 0.93700004
0.43125424 0.020535916 0.93700004
0.43104911 0.020448251 0.93300003
0.43175745 0.020404417 0.93100005
0.43199328 0.020338666 0.92800003
0.43362036 0.020338666 0.92800003
0.43430942 0.020294834 0.92600006
0.43593302 0.020294834 0.92600006
0.43613905 0.020229083 0.92300004
0.4372831 0.020207167 0.92200005
0.43604347 0.020075666 0.91600007
0.43764952 0.020075666 0.91600007
0.43877605 0.02005375 0.91500002
0.43941778 0.020009916 0.91300005
0.43956944 0.019944167 0.91000003
0.44019538 0.019900333 0.90800005
0.44032773 0.019834584 0.90500003
0.44191453 0.019834584 0.90500003
0.44350129 0.019834584 0.90500003
0.44410443 0.01979075 0.90300006
0.44618124 0.019812666 0.90400004
0.42032397 0.02265219 0.95700002
0.42111999 0.022604849 0.95500004
0.4227944 0.022604849 0.95500004
0.42313543 0.02253384 0.95200002
0.42525083 0.02255751 0.95300007
0.42602581 0.022510169 0.95100003
0.42679375 0.02246283 0.94900006
0.42665175 0.02236815 0.94500005
0.42740217 0.022320811 0.94300002
0.42860058 0.02229714 0.94200003
0.43025222 0.02229714 0.94200003
0.43098685 0.022249799 0.94000006
0.43125424 0.02217879 0.93700004
0.43012509 0.02203677 0.93100005
0.43175745 0.02203677 0.93100005
0.43199328 0.021965761 0.92800003
0.43362036 0.021965761 0.92800003
0.43430942 0.02191842 0.92600006
0.43452072 0.02184741 0.92300004
0.43613905 0.02184741 0.92300004
0.43680879 0.021800069 0.92100006
0.43556744 0.02165805 0.91500002
0.43717176 0.02165805 0.91500002
0.43877605 0.02165805 0.91500002
0.43941778 0.021610711 0.91300005
0.43956944 0.021539699 0.91000003
0.44019538 0.02149236 0.90800005
0.44178739 0.02149236 0.90800005
0.44240281 0.021445019 0.90600002
0.44399133 0.021445019 0.90600002
0.44410443 0.02137401 0.90300006
0.44618124 0.02139768 0.90400004
0.42032397 0.02433013 0.95700002
0.42111999 0.024279283 0.95500004
0.42235169 0.02425386 0.95400006
0.42313543 0.024203014 0.95200002
0.42525083 0.024228437 0.95300007
0.4264738 0.024203014 0.95200002
0.4272435 0.024152167 0.95000005
0.42755473 0.024075897 0.94700003
0.42740217 0.023974203 0.94300002
0.42860058 0.023948779 0.94200003
0.42933872 0.023897933 0.94000006
0.43098685 0.023897933 0.94000006
0.43125424 0.023821663 0.93700004
0.43012509 0.023669124 0.93100005
0.43175745 0.023669124 0.93100005
0.43199328 0.023592854 0.92800003
0.43362036 0.023592854 0.92800003
0.43430942 0.023542007 0.92600006
0.43499148 0.023491159 0.92400002
0.43661156 0.023491159 0.92400002
0.43586025 0.023364043 0.91900003
0.43556744 0.02326235 0.91500002
0.43717176 0.02326235 0.91500002
0.43877605 0.02326235 0.91500002
0.43941778 0.023211503 0.91300005
0.44101855 0.023211503 0.91300005
0.44116497 0.023135234 0.91000003
0.44178739 0.023084387 0.90800005
0.44240281 0.023033541 0.90600002
0.44399133 0.023033541 0.90600002
0.44361261 0.022931846 0.90200007
0.44568768 0.022957269 0.90300006
0.42120239 0.026062423 0.95900005
0.42111999 0.025953716 0.95500004
0.4227944 0.025953716 0.95500004
0.4235799 0.025899364 0.95300007
0.42614329 0.025953716 0.95500004
0.4264738 0.025872186 0.95200002
0.4272435 0.025817834 0.95000005
0.42755473 0.025736304 0.94700003
0.4264957 0.025573242 0.94100004
0.42814559 0.025573242 0.94100004
0.42933872 0.025546066 0.94000006
0.43098685 0.025546066 0.94000006
0.4298735 0.025383007 0.93400002
0.4315111 0.025383007 0.93400002
0.43268496 0.025355829 0.93300003
0.43245879 0.025247123 0.92900002
0.43362036 0.025219947 0.92800003
0.43430942 0.025165593 0.92600006
0.43499148 0.025111239 0.92400002
0.43661156 0.025111239 0.92400002
0.43538597 0.02494818 0.91800004
0.43556744 0.02486665 0.91500002
0.43717176 0.02486665 0.91500002
0.43877605 0.02486665 0.91500002
0.43941778 0.024812296 0.91300005
0.44101855 0.024812296 0.91300005
0.44116497 0.024730766 0.91000003
0.44227394 0.02470359 0.90900004
0.44240281 0.02462206 0.90600002
0.44399133 0.02462206 0.90600002
0.44361261 0.024513353 0.90200007
0.44519413 0.024513353 0.90200007
0.41820857 0.02765708 0.95600003
0.41988477 0.02765708 0.95600003
0.42111999 0.02762815 0.95500004
0.4227944 0.02762815 0.95500004
0.4235799 0.02757029 0.95300007
0.4248046 0.02754136 0.95200002
0.4264738 0.02754136 0.95200002
0.4272435 0.027483501 0.95000005
0.42620027 0.027309921 0.94400007
0.4278554 0.027309921 0.94400007
0.42860058 0.027252059 0.94200003
0.43025222 0.027252059 0.94200003
0.43052837 0.027165269 0.93900007
0.4298735 0.02702062 0.93400002
0.4315111 0.02702062 0.93400002
0.4312937 0.0269049 0.93000007
0.4329243 0.0269049 0.93000007
0.43315309 0.02681811 0.92700005
0.43430942 0.026789179 0.92600006
0.43452072 0.026702389 0.92300004
0.43613905 0.026702389 0.92300004
0.43396315 0.02647095 0.91500002
0.43556744 0.02647095 0.91500002
0.43717176 0.02647095 0.91500002
0.43877605 0.02647095 0.91500002
0.43941778 0.026413091 0.91300005
0.44101855 0.026413091 0.91300005
0.44310415 0.026442019 0.91400003
0.44324705 0.026355229 0.91100007
0.44386771 0.02629737 0.90900004
0.44350129 0.026181649 0.90500003
0.44312081 0.026065931 0.90100002
0.44519413 0.026094859 0.90200007
0.41864604 0.029363951 0.95700002
0.42032397 0.029363951 0.95700002
0.42156094 0.029333267 0.95600003
0.42323714 0.029333267 0.95600003
0.4235799 0.029241217 0.95300007
0.4248046 0.029210534 0.95200002
0.4264738 0.029210534 0.95200002
0.4272435 0.029149167 0.95000005
0.42620027 0.028965067 0.94400007
0.4278554 0.028965067 0.94400007
0.42860058 0.0289037 0.94200003
0.43025222 0.0289037 0.94200003
0.43052837 0.02881165 0.93900007
0.4298735 0.028658234 0.93400002
0.4315111 0.028658234 0.93400002
0.4312937 0.0285355 0.93000007
0.43245879 0.028504817 0.92900002
0.43268585 0.028412767 0.92600006
0.43290237 0.028320717 0.92300004
0.43357918 0.02825935 0.92100006
0.43519399 0.02825935 0.92100006
0.43396315 0.02807525 0.91500002
0.43556744 0.02807525 0.91500002
0.43717176 0.02807525 0.91500002
0.4382965 0.028044567 0.91400003
0.43941778 0.028013883 0.91300005
0.44101855 0.028013883 0.91300005
0.44261935 0.028013883 0.91300005
0.44178739 0.027860466 0.90800005
0.44191453 0.027768416 0.90500003
0.44350129 0.027768416 0.90500003
0.44312081 0.027645683 0.90100002
0.44470057 0.027645683 0.90100002
0.41958231 0.031236511 0.96300006
0.41908348 0.031074326 0.95800006
0.42076316 0.031074326 0.95800006
0.420679 0.03094458 0.95400006
0.4227944 0.030977016 0.95500004
0.4235799 0.030912142 0.95300007
0.4243584 0.03084727 0.95100003
0.4264738 0.030879706 0.95200002
0.4272435 0.030814834 0.95000005
0.42620027 0.030620214 0.94400007
0.4264957 0.030522903 0.94100004
0.42814559 0.030522903 0.94100004
0.42888197 0.030458029 0.93900007
0.42961138 0.030393157 0.93700004
0.42895299 0.030230973 0.93200004
0.43104911 0.030263409 0.93300003
0.43082994 0.030133663 0.92900002
0.43245879 0.030133663 0.92900002
0.43268585 0.030036353 0.92600006
0.43290237 0.029939042 0.92300004
0.43357918 0.02987417 0.92100006
0.43519399 0.02987417 0.92100006
0.43396315 0.02967955 0.91500002
0.43556744 0.02967955 0.91500002
0.43717176 0.02967955 0.91500002
0.43877605 0.02967955 0.91500002
0.43893647 0.02958224 0.91200006
0.44101855 0.029614676 0.91300005
0.44116497 0.029517366 0.91000003
0.44227394 0.02948493 0.90900004
0.44191453 0.029355183 0.90500003
0.44252115 0.029290309 0.90300006
0.44312081 0.029225437 0.90100002
0.44470057 0.029225437 0.90100002
0.4191466 0.032890778 0.96200007
0.41733366 0.03261726 0.95400006
0.41900635 0.03261726 0.95400006
0.41979709 0.032548878 0.95200002
0.42146626 0.032548878 0.95200002
0.42224649 0.032480501 0.95000005
0.42346594 0.03244631 0.94900006
0.42423391 0.032377928 0.94700003
0.42589432 0.032377928 0.94700003
0.42620027 0.03227536 0.94400007
0.4278554 0.03227536 0.94400007
0.42814559 0.032172788 0.94100004
0.42842525 0.03207022 0.93800002
0.42961138 0.032036029 0.93700004
0.42895299 0.031865079 0.93200004
0.43058711 0.031865079 0.93200004
0.43082994 0.031762511 0.92900002
0.43245879 0.031762511 0.92900002
0.43268585 0.031659938 0.92600006
0.43477845 0.031694129 0.92700005
0.43499148 0.031591561 0.92400002
0.43613905 0.03155737 0.92300004
0.43538597 0.03138642 0.91800004
0.43556744 0.031283848 0.91500002
0.43717176 0.031283848 0.91500002
0.43733743 0.03118128 0.91200006
0.43893647 0.03118128 0.91200006
0.44101855 0.03121547 0.91300005
0.44116497 0.0311129 0.91000003
0.44227394 0.031078709 0.90900004
0.44191453 0.03094195 0.90500003
0.44252115 0.030873571 0.90300006
0.44262901 0.030771 0.90000004
0.44420698 0.030771 0.90000004
0.41740379 0.034433711 0.95800006
0.41689619 0.034253996 0.95300007
0.41812792 0.034218054 0.95200002
0.41979709 0.034218054 0.95200002
0.42146626 0.034218054 0.95200002
0.42224649 0.034146167 0.95000005
0.42346594 0.034110222 0.94900006
0.42378592 0.034002393 0.94600004
0.42544457 0.034002393 0.94600004
0.42620027 0.033930507 0.94400007
0.4278554 0.033930507 0.94400007
0.4276906 0.033786733 0.94000006
0.4279685 0.033678904 0.93700004
0.42961138 0.033678904 0.93700004
0.42895299 0.033499185 0.93200004
0.43058711 0.033499185 0.93200004
0.43082994 0.033391356 0.92900002
0.43199328 0.033355415 0.92800003
0.43268585 0.033283528 0.92600006
0.43430942 0.033283528 0.92600006
0.43452072 0.033175696 0.92300004
0.43519399 0.033103809 0.92100006
0.43348888 0.032852206 0.91400003
0.43556744 0.032888148 0.91500002
0.43717176 0.032888148 0.91500002
0.43733743 0.032780319 0.91200006
0.43893647 0.032780319 0.91200006
0.44101855 0.032816265 0.91300005
0.44116497 0.032708433 0.91000003
0.44178739 0.032636546 0.90800005
0.44191453 0.032528717 0.90500003
0.44252115 0.03245683 0.90300006
0.44262901 0.032349002 0.90000004
0.44420698 0.032349002 0.90000004
0.4165324 0.036038011 0.95600003
0.41689619 0.035924923 0.95300007
0.4172495 0.035811834 0.95000005
0.41935614 0.03584953 0.95100003
0.42102355 0.03584953 0.95100003
0.42135757 0.035736442 0.94800007
0.42301971 0.035736442 0.94800007
0.42468187 0.035736442 0.94800007
0.42544457 0.035661045 0.94600004
0.42755473 0.035698742 0.94700003
0.42921513 0.035698742 0.94700003
0.42678061 0.035359472 0.93800002
0.42751175 0.03528408 0.93600005
0.42961138 0.035321776 0.93700004
0.42895299 0.035133295 0.93200004
0.43058711 0.035133295 0.93200004
0.43082994 0.035020202 0.92900002
0.43245879 0.035020202 0.92900002
0.43268585 0.034907114 0.92600006
0.43430942 0.034907114 0.92600006
0.43357918 0.034718629 0.92100006
0.43424895 0.034643237 0.91900003
0.43396315 0.034492448 0.91500002
0.43556744 0.034492448 0.91500002
0.43717176 0.034492448 0.91500002
0.43781698 0.034417056 0.91300005
0.43749261 0.034266271 0.90900004
0.43956944 0.034303967 0.91000003
0.44019538 0.034228574 0.90800005
0.44032773 0.034115482 0.90500003
0.44093791 0.03404009 0.90300006
0.44154105 0.033964697 0.90100002
0.44262901 0.033927001 0.90000004
0.44420698 0.033927001 0.90000004
0.41789386 0.03799035 0.96300006
0.41609669 0.037674751 0.95500004
0.41645876 0.037556399 0.95200002
0.41812792 0.037556399 0.95200002
0.41979709 0.037556399 0.95200002
0.42146626 0.037556399 0.95200002
0.42180201 0.03743805 0.94900006
0.42212728 0.037319701 0.94600004
0.42378592 0.037319701 0.94600004
0.42544457 0.037319701 0.94600004
0.42620027 0.0372408 0.94400007
0.4278554 0.0372408 0.94400007
0.42678061 0.037004098 0.93800002
0.42842525 0.037004098 0.93800002
0.43052837 0.037043549 0.93900007
0.43125424 0.036964651 0.93700004
0.43058711 0.036767401 0.93200004
0.43082994 0.036649048 0.92900002
0.43106225 0.0365307 0.92600006
0.43268585 0.0365307 0.92600006
0.43290237 0.036412351 0.92300004
0.43404993 0.0363729 0.92200005
0.43377641 0.0362151 0.91800004
0.43443742 0.036136199 0.91600007
0.43604347 0.036136199 0.91600007
0.43764952 0.036136199 0.91600007
0.4382965 0.036057301 0.91400003
0.43797389 0.035899501 0.91000003
0.43860334 0.0358206 0.90800005
0.43874097 0.035702251 0.90500003
0.44081429 0.035741698 0.90600002
0.44142622 0.0356628 0.90400004
0.4400709 0.035426099 0.89800006
0.44115356 0.035386648 0.89700001
0.44470057 0.035544451 0.90100002
0.41745991 0.039637607 0.96200007
0.41609669 0.039349183 0.95500004
0.41645876 0.039225575 0.95200002
0.41812792 0.039225575 0.95200002
0.41979709 0.039225575 0.95200002
0.42146626 0.039225575 0.95200002
0.42180201 0.039101962 0.94900006
0.42212728 0.038978353 0.94600004
0.42333794 0.038937151 0.94500005
0.42364565 0.038813539 0.94200003
0.4257488 0.038854744 0.94300002
0.42740217 0.038854744 0.94300002
0.4272356 0.03868993 0.93900007
0.42888197 0.03868993 0.93900007
0.43006986 0.038648728 0.93800002
0.430794 0.038566321 0.93600005
0.43058711 0.038401507 0.93200004
0.43036619 0.038236693 0.92800003
0.43106225 0.038154285 0.92600006
0.43268585 0.038154285 0.92600006
0.43290237 0.038030677 0.92300004
0.43357918 0.037948269 0.92100006
0.43424895 0.037865862 0.91900003
0.4349117 0.037783455 0.91700006
0.43604347 0.037742253 0.91600007
0.43764952 0.037742253 0.91600007
0.43685791 0.037536237 0.91100007
0.43749261 0.03745383 0.90900004
0.43763727 0.037330221 0.90600002
0.43922576 0.037330221 0.90600002
0.44130084 0.037371423 0.90700006
0.44240281 0.037330221 0.90600002
0.44056094 0.037041798 0.89900005
0.44213718 0.037041798 0.89900005
0.44519413 0.037165407 0.90200007
0.41702595 0.041281357 0.96100003
0.41696808 0.041109528 0.95700002
0.41864604 0.041109528 0.95700002
0.41812792 0.040894747 0.95200002
0.420679 0.040980659 0.95400006
0.42058083 0.040808834 0.95000005
0.4209131 0.040679961 0.94700003
0.42257351 0.040679961 0.94700003
0.42333794 0.040594049 0.94500005
0.42364565 0.04046518 0.94200003
0.42529729 0.04046518 0.94200003
0.42558923 0.040336311 0.93900007
0.42678061 0.040293355 0.93800002
0.42751175 0.040207438 0.93600005
0.42915288 0.040207438 0.93600005
0.430794 0.040207438 0.93600005
0.43012509 0.039992657 0.93100005
0.43036619 0.039863788 0.92800003
0.43106225 0.039777871 0.92600006
0.43315309 0.039820831 0.92700005
0.43337139 0.039691959 0.92400002
0.43216684 0.039434221 0.91800004
0.43472147 0.039520133 0.92000002
0.43538597 0.039434221 0.91800004
0.43699554 0.039434221 0.91800004
0.43717176 0.039305348 0.91500002
0.43733743 0.039176479 0.91200006
0.43604875 0.038918741 0.90600002
0.43763727 0.038918741 0.90600002
0.43922576 0.038918741 0.90600002
0.44130084 0.038961697 0.90700006
0.43996131 0.038703956 0.90100002
0.4400709 0.038575087 0.89800006
0.44164538 0.038575087 0.89800006
0.41702595 0.04296631 0.96100003
0.4178395 0.042876888 0.95900005
0.4177711 0.042698048 0.95500004
0.41900635 0.042653341 0.95400006
0.42023805 0.04260863 0.95300007
0.42013812 0.04242979 0.94900006
0.4209131 0.042340368 0.94700003
0.42168105 0.04225095 0.94500005
0.42199403 0.042116821 0.94200003
0.42364565 0.042116821 0.94200003
0.42394283 0.041982688 0.93900007
0.42558923 0.041982688 0.93900007
0.42678061 0.041937981 0.93800002
0.42751175 0.041848559 0.93600005
0.42915288 0.041848559 0.93600005
0.430794 0.041848559 0.93600005
0.43012509 0.041625008 0.93100005
0.43036619 0.041490879 0.92800003
0.43106225 0.041401461 0.92600006
0.43315309 0.041446168 0.92700005
0.43243337 0.041222621 0.92200005
0.43169609 0.04099907 0.91700006
0.43330389 0.04099907 0.91700006
0.43538597 0.041043781 0.91800004
0.43556744 0.040909648 0.91500002
0.43717176 0.040909648 0.91500002
0.43781698 0.04082023 0.91300005
0.43701133 0.040596679 0.90800005
0.43860334 0.040596679 0.90800005
0.43971059 0.040551968 0.90700006
0.44130084 0.040551968 0.90700006
0.43996131 0.04028371 0.90100002
0.44056094 0.040194288 0.89900005
0.44213718 0.040194288 0.89900005
0.41577318 0.044697728 0.96200007
0.41615805 0.044558335 0.95900005
0.41740379 0.044511873 0.95800006
0.41689619 0.044279557 0.95300007
0.41856712 0.044279557 0.95300007
0.42023805 0.044279557 0.95300007
0.42013812 0.044093702 0.94900006
0.4209131 0.044000775 0.94700003
0.42168105 0.043907851 0.94500005
0.42199403 0.043768458 0.94200003
0.42364565 0.043768458 0.94200003
0.42394283 0.043629069 0.93900007
0.42558923 0.043629069 0.93900007
0.42632562 0.043536142 0.93700004
0.4279685 0.043536142 0.93700004
0.42915288 0.04348968 0.93600005
0.42941326 0.043350291 0.93300003
0.4287391 0.043117974 0.92800003
0.43036619 0.043117974 0.92800003
0.43106225 0.043025047 0.92600006
0.43175131 0.042932119 0.92400002
0.43243337 0.042839192 0.92200005
0.43169609 0.042606875 0.91700006
0.43330389 0.042606875 0.91700006
0.4349117 0.042606875 0.91700006
0.43556744 0.042513948 0.91500002
0.43717176 0.042513948 0.91500002
0.43781698 0.042421024 0.91300005
0.43749261 0.04223517 0.90900004
0.43860334 0.042188708 0.90800005
0.43971059 0.042142242 0.90700006
0.44130084 0.042142242 0.90700006
0.43996131 0.041863464 0.90100002
0.44056094 0.041770536 0.89900005
0.44213718 0.041770536 0.89900005
0.4149088 0.046287999 0.96000004
0.41702595 0.046336215 0.96100003
0.41740379 0.046191566 0.95800006
0.41820857 0.046095133 0.95600003
0.41856712 0.045950484 0.95300007
0.42111999 0.046046916 0.95500004
0.42013812 0.045757618 0.94900006
0.42135757 0.045709401 0.94800007
0.42212728 0.045612965 0.94600004
0.42244199 0.045468315 0.94300002
0.42274621 0.045323666 0.94000006
0.42439434 0.045323666 0.94000006
0.42604247 0.045323666 0.94000006
0.4272356 0.04527545 0.93900007
0.42888197 0.04527545 0.93900007
0.42961138 0.045179017 0.93700004
0.42941326 0.044986151 0.93300003
0.4292011 0.044793282 0.92900002
0.43036619 0.044745065 0.92800003
0.43106225 0.044648632 0.92600006
0.4308168 0.044455767 0.92200005
0.43149534 0.044359334 0.92000002
0.43216684 0.044262901 0.91800004
0.43472147 0.044359334 0.92000002
0.4349117 0.044214685 0.91700006
0.43556744 0.044118248 0.91500002
0.43717176 0.044118248 0.91500002
0.43685791 0.043925382 0.91100007
0.43701133 0.043780733 0.90800005
0.43812031 0.043732516 0.90700006
0.43874097 0.043636084 0.90500003
0.43984121 0.043587867 0.90400004
0.43996131 0.043443218 0.90100002
0.44056094 0.043346781 0.89900005
0.44213718 0.043346781 0.89900005
0.36140582 0.042474501 0.85000002
0.36246923 0.04242453 0.84900004
0.41534099 0.048021171 0.96100003
0.41745991 0.048071139 0.96200007
0.4178395 0.047921229 0.95900005
0.41864604 0.047821291 0.95700002
0.42076316 0.047871258 0.95800006
0.42244288 0.047871258 0.95800006
0.42190897 0.04762141 0.95300007
0.42269096 0.047521468 0.95100003
0.42212728 0.04727162 0.94600004
0.42378592 0.04727162 0.94600004
0.42409539 0.047121711 0.94300002
0.42529729 0.04707174 0.94200003
0.42604247 0.046971798 0.94000006
0.4272356 0.046921831 0.93900007
0.42842525 0.04687186 0.93800002
0.42915288 0.046771921 0.93600005
0.42941326 0.046622008 0.93300003
0.4287391 0.04637216 0.92800003
0.42990243 0.046322189 0.92700005
0.43059674 0.046222251 0.92500007
0.43221858 0.046222251 0.92500007
0.43102631 0.045922428 0.91900003
0.43216684 0.045872461 0.91800004
0.43472147 0.045972399 0.92000002
0.4349117 0.04582249 0.91700006
0.43556744 0.045722548 0.91500002
0.43717176 0.045722548 0.91500002
0.43685791 0.045522671 0.91100007
0.43653002 0.045322791 0.90700006
0.43812031 0.045322791 0.90700006
0.43874097 0.045222849 0.90500003
0.43984121 0.045172881 0.90400004
0.43996131 0.045022968 0.90100002
0.44105101 0.044973001 0.90000004
0.44262901 0.044973001 0.90000004
0.36013028 0.043809664 0.84700006
0.35948068 0.043551046 0.84200007
0.36138567 0.043602768 0.84300005
0.36372462 0.043706216 0.84500003
0.41534099 0.049706124 0.96100003
0.4157241 0.049550954 0.95800006
0.41740379 0.049550954 0.95800006
0.41820857 0.049447507 0.95600003
0.42076316 0.049550954 0.95800006
0.4220019 0.049499229 0.95700002
0.42235169 0.049344059 0.95400006
0.42224649 0.049137168 0.95000005
0.42257351 0.048981998 0.94700003
0.42423391 0.048981998 0.94700003
0.42409539 0.048775103 0.94300002
0.42529729 0.048723381 0.94200003
0.4264957 0.048671655 0.94100004
0.4272356 0.048568211 0.93900007
0.42842525 0.048516486 0.93800002
0.42915288 0.048413038 0.93600005
0.42941326 0.048257869 0.93300003
0.4287391 0.047999252 0.92800003
0.43036619 0.047999252 0.92800003
0.43106225 0.047895808 0.92600006
0.43221858 0.047844082 0.92500007
0.43243337 0.047688913 0.92200005
0.43357918 0.047637191 0.92100006
0.43424895 0.047533743 0.91900003
0.4349117 0.047430295 0.91700006
0.43699554 0.047482021 0.91800004
0.43717176 0.047326848 0.91500002
0.43781698 0.047223404 0.91300005
0.43797389 0.047068235 0.91000003
0.4371542 0.046809617 0.90500003
0.43874097 0.046809617 0.90500003
0.43984121 0.046757892 0.90400004
0.43996131 0.046602722 0.90100002
0.44056094 0.046499275 0.89900005
0.44262901 0.046551 0.90000004
0.36055547 0.045348212 0.84800005
0.36033455 0.045134306 0.84400004
0.36138567 0.045080829 0.84300005
0.36286372 0.045080829 0.84300005
0.3643418 0.045080829 0.84300005
0.4157241 0.051230647 0.95800006
0.41740379 0.051230647 0.95800006
0.4177711 0.051070217 0.95500004
0.41944554 0.051070217 0.95500004
0.420679 0.051016741 0.95400006
0.42146626 0.050909787 0.95200002
0.42180201 0.050749358 0.94900006
0.42257351 0.050642405 0.94700003
0.42423391 0.050642405 0.94700003
0.42409539 0.050428495 0.94300002
0.42529729 0.050375018 0.94200003
0.4264957 0.050321542 0.94100004
0.4272356 0.050214589 0.93900007
0.42842525 0.050161112 0.93800002
0.42915288 0.050054159 0.93600005
0.42941326 0.049893729 0.93300003
0.4287391 0.049626347 0.92800003
0.42943868 0.049519394 0.92600006
0.43106225 0.049519394 0.92600006
0.4308168 0.049305487 0.92200005
0.43149534 0.049198534 0.92000002
0.43357918 0.049252011 0.92100006
0.43424895 0.049145058 0.91900003
0.4349117 0.049038105 0.91700006
0.43461537 0.048824195 0.91300005
0.43621618 0.048824195 0.91300005
0.43589884 0.048610289 0.90900004
0.43797389 0.048663765 0.91000003
0.43763727 0.048449859 0.90600002
0.43777138 0.048289429 0.90300006
0.43838155 0.048182476 0.90100002
0.43996131 0.048182476 0.90100002
0.4400709 0.048022047 0.89800006
0.44164538 0.048022047 0.89800006
0.36098066 0.04689027 0.84900004
0.36076149 0.046669349 0.84500003
0.36181435 0.046614118 0.84400004
0.36329418 0.046614118 0.84400004
0.3643418 0.04655889 0.84300005
0.36495194 0.046448428 0.84100002
0.41696808 0.052855108 0.95700002
0.41733366 0.052689418 0.95400006
0.41900635 0.052689418 0.95400006
0.420679 0.052689418 0.95400006
0.42102355 0.052523728 0.95100003
0.42180201 0.05241327 0.94900006
0.42257351 0.052302811 0.94700003
0.42288998 0.052137118 0.94400007
0.42454511 0.052137118 0.94400007
0.42484581 0.051971428 0.94100004
0.4264957 0.051971428 0.94100004
0.4272356 0.05186097 0.93900007
0.42842525 0.051805738 0.93800002
0.42961138 0.051750511 0.93700004
0.42941326 0.05152959 0.93300003
0.4287391 0.051253438 0.92800003
0.42943868 0.051142979 0.92600006
0.43059674 0.051087748 0.92500007
0.43034953 0.050866831 0.92100006
0.43102631 0.050756369 0.91900003
0.43357918 0.050866831 0.92100006
0.43424895 0.050756369 0.91900003
0.4349117 0.05064591 0.91700006
0.43461537 0.050424989 0.91300005
0.43621618 0.050424989 0.91300005
0.43589884 0.050204068 0.90900004
0.43749261 0.050204068 0.90900004
0.43812031 0.05009361 0.90700006
0.43728659 0.049817462 0.90200007
0.43838155 0.04976223 0.90100002
0.43996131 0.04976223 0.90100002
0.43958083 0.049541309 0.89700001
0.44115356 0.049541309 0.89700001
0.36098066 0.048378851 0.84900004
0.36076149 0.048150916 0.84500003
0.36181435 0.048093934 0.84400004
0.36329418 0.048093934 0.84400004
0.36131641 0.047638066 0.83600003
0.36234826 0.047581084 0.83500004
0.36381227 0.047581084 0.83500004
0.41689619 0.054305118 0.95300007
0.41900635 0.0543621 0.95400006
0.420679 0.0543621 0.95400006
0.42102355 0.05419115 0.95100003
0.42180201 0.054077182 0.94900006
0.42257351 0.053963218 0.94700003
0.42288998 0.053792268 0.94400007
0.42454511 0.053792268 0.94400007
0.42620027 0.053792268 0.94400007
0.4264957 0.053621314 0.94100004
0.42814559 0.053621314 0.94100004
0.42933872 0.053564332 0.94000006
0.42915288 0.053336401 0.93600005
0.42941326 0.053165451 0.93300003
0.4287391 0.052880533 0.92800003
0.43036619 0.052880533 0.92800003
0.43059674 0.052709583 0.92500007
0.43034953 0.052481651 0.92100006
0.43243337 0.052538633 0.92200005
0.43404993 0.052538633 0.92200005
0.43377641 0.052310701 0.91800004
0.43443742 0.052196734 0.91600007
0.43604347 0.052196734 0.91600007
0.43621618 0.052025784 0.91300005
0.43733743 0.051968798 0.91200006
0.43749261 0.051797848 0.90900004
0.43812031 0.051683884 0.90700006
0.43728659 0.051398966 0.90200007
0.43886811 0.051398966 0.90200007
0.439473 0.051284999 0.90000004
0.43958083 0.051114049 0.89700001
0.44115356 0.051114049 0.89700001
0.3622562 0.050043639 0.85200006
0.36289617 0.049926165 0.85000002
0.36395782 0.049867429 0.84900004
0.36114195 0.049280062 0.83900005
0.36045203 0.048986379 0.83400005
0.36234826 0.049045116 0.83500004
0.36381227 0.049045116 0.83500004
0.3644014 0.048927642 0.83300006
0.36586192 0.048927642 0.83300006
0.42156094 0.056152254 0.95600003
0.42235169 0.056034781 0.95400006
0.42313543 0.055917308 0.95200002
0.42212728 0.055564888 0.94600004
0.42244199 0.055388678 0.94300002
0.42454511 0.055447415 0.94400007
0.42620027 0.055447415 0.94400007
0.4278554 0.055447415 0.94400007
0.4276906 0.055212468 0.94000006
0.42888197 0.055153731 0.93900007
0.42915288 0.054977521 0.93600005
0.430794 0.054977521 0.93600005
0.43012509 0.054683838 0.93100005
0.43036619 0.054507628 0.92800003
0.43059674 0.054331418 0.92500007
0.43221858 0.054331418 0.92500007
0.43243337 0.054155208 0.92200005
0.43357918 0.054096468 0.92100006
0.43377641 0.053920258 0.91800004
0.43443742 0.053802785 0.91600007
0.4365195 0.053861521 0.91700006
0.43669397 0.053685311 0.91400003
0.43733743 0.053567838 0.91200006
0.43749261 0.053391628 0.90900004
0.43812031 0.053274155 0.90700006
0.43728659 0.052980471 0.90200007
0.43838155 0.052921735 0.90100002
0.43898469 0.052804261 0.89900005
0.4400709 0.052745525 0.89800006
0.44164538 0.052745525 0.89800006
0.36310658 0.051658459 0.85400003
0.36289617 0.051416501 0.85000002
0.36267173 0.05117454 0.84600002
0.36028108 0.05063013 0.83700001
0.36001983 0.050388169 0.83300006
0.36148036 0.050388169 0.83300006
0.36294088 0.050388169 0.83300006
0.36396393 0.050327681 0.83200002
0.36542273 0.050327681 0.83200002
0.36732244 0.050388169 0.83300006
0.36612669 0.050025228 0.82700002
0.36757669 0.050025228 0.82700002
0.42301971 0.057344519 0.94800007
0.42378592 0.05722354 0.94600004
0.42589432 0.057284031 0.94700003
0.42755473 0.057284031 0.94700003
0.4278554 0.057102561 0.94400007
0.42905557 0.05704207 0.94300002
0.43025222 0.056981578 0.94200003
0.43006986 0.056739621 0.93800002
0.430794 0.056618638 0.93600005
0.43243513 0.056618638 0.93600005
0.43175745 0.056316189 0.93100005
0.43152776 0.056074228 0.92700005
0.43221858 0.055953249 0.92500007
0.43243337 0.055771779 0.92200005
0.43357918 0.055711288 0.92100006
0.43377641 0.055529818 0.91800004
0.43538597 0.055529818 0.91800004
0.43604347 0.055408839 0.91600007
0.43621618 0.055227369 0.91300005
0.43589884 0.054985411 0.90900004
0.43653002 0.054864429 0.90700006
0.43522203 0.054501489 0.90100002
