# .PCD v0.7 - Point Cloud Data file format
VERSION 0.7
FIELDS x y z
SIZE 4 4 4
TYPE F F F
COUNT 1 1 1
WIDTH 1471
HEIGHT 1
VIEWPOINT 0 0 0 1 0 0 0
POINTS 1471
DATA ascii
-0.21553814 -0.4280965 1.133
-0.21355161 -0.4280965 1.133
-0.21156509 -0.4280965 1.133
-0.20939359 -0.42771864 1.1320001
-0.20740882 -0.42771864 1.1320001
-0.20560551 -0.4280965 1.133
-0.20361899 -0.4280965 1.133
-0.20163245 -0.4280965 1.133
-0.20017456 -0.42923003 1.136
-0.19835722 -0.42960787 1.1370001
-0.19636369 -0.42960787 1.1370001
-0.19505395 -0.43111923 1.141
-0.19423777 -0.43376413 1.148
-0.19222495 -0.43376413 1.148
-0.1903778 -0.43414199 1.149
-0.18852717 -0.43451983 1.1500001
-0.18715957 -0.43603119 1.154
-0.18513621 -0.43603119 1.154
-0.18311287 -0.43603119 1.154
-0.18108952 -0.43603119 1.154
-0.17906618 -0.43603119 1.154
-0.32800484 -0.80782902 2.138
-0.32425621 -0.80782902 2.138
-0.32050759 -0.80782902 2.138
-0.31675896 -0.80782902 2.138
-0.3122783 -0.80593985 2.1330001
-0.3086831 -0.80631769 2.1340001
-0.3046557 -0.80556196 2.1320002
-0.3009176 -0.80556196 2.1320002
-0.29662192 -0.80405062 2.128
-0.29220265 -0.8021614 2.1230001
-0.28875208 -0.80291706 2.125
-0.28502625 -0.80291706 2.125
-0.28130043 -0.80291706 2.125
-0.27757457 -0.80291706 2.125
-0.27384874 -0.80291706 2.125
-0.27012292 -0.80291706 2.125
-0.26639709 -0.80291706 2.125
-0.26267126 -0.80291706 2.125
-0.26040769 -0.80745119 2.1370001
-0.25654072 -0.80707335 2.1360002
-0.25279561 -0.80707335 2.1360002
-0.24916707 -0.80745119 2.1370001
-0.2438124 -0.8021614 2.1230001
-0.24009007 -0.8021614 2.1230001
-0.23514304 -0.7980051 2.112
-0.22990583 -0.79271531 2.098
-0.22622734 -0.79271531 2.098
-0.42536744 -0.45506889 1.21
-0.42324591 -0.45506889 1.21
-0.41938418 -0.45318845 1.205
-0.41727141 -0.45318845 1.205
-0.41481411 -0.45281234 1.2040001
-0.40961811 -0.44942755 1.1950001
-0.40615878 -0.44792318 1.1910001
-0.40407056 -0.44792318 1.1910001
-0.40029475 -0.44604275 1.1860001
-0.39754379 -0.44529057 1.184
-0.39580184 -0.44566664 1.1850001
-0.39239511 -0.44416228 1.1810001
-0.38900241 -0.44265792 1.177
-0.38693875 -0.44265792 1.177
-0.38356709 -0.44115356 1.1730001
-0.38118517 -0.44077748 1.1720001
-0.37783632 -0.43927312 1.1680001
-0.37578842 -0.43927312 1.1680001
-0.37374052 -0.43927312 1.1680001
-0.37169263 -0.43927312 1.1680001
-0.36964473 -0.43927312 1.1680001
-0.36759686 -0.43927312 1.1680001
-0.36554897 -0.43927312 1.1680001
-0.3622562 -0.43776876 1.164
-0.35928693 -0.4366405 1.161
-0.35755903 -0.43701658 1.1620001
-0.35552165 -0.43701658 1.1620001
-0.35318008 -0.4366405 1.161
-0.3502371 -0.43551221 1.1580001
-0.34760535 -0.43476003 1.156
-0.34557849 -0.43476003 1.156
-0.34295726 -0.43400785 1.154
-0.33975217 -0.43250349 1.1500001
-0.33773583 -0.43250349 1.1500001
-0.3357195 -0.43250349 1.1500001
-0.33370316 -0.43250349 1.1500001
-0.33168682 -0.43250349 1.1500001
-0.32967049 -0.43250349 1.1500001
-0.32765415 -0.43250349 1.1500001
-0.32677048 -0.43400785 1.154
-0.32474715 -0.43400785 1.154
-0.32384241 -0.43551221 1.1580001
-0.32181206 -0.43551221 1.1580001
-0.3186771 -0.43400785 1.154
-0.31665376 -0.43400785 1.154
-0.31463042 -0.43400785 1.154
-0.31260705 -0.43400785 1.154
-0.30950716 -0.43250349 1.1500001
-0.30561915 -0.42987087 1.143
-0.30255258 -0.42836651 1.1390001
-0.29950002 -0.42686215 1.1350001
-0.29750997 -0.42686215 1.1350001
-0.29473883 -0.42573386 1.1320001
-0.29275405 -0.42573386 1.1320001
-0.29102615 -0.42610997 1.133
-0.28801918 -0.42460561 1.1290001
-0.28603968 -0.42460561 1.1290001
-0.28355697 -0.42385343 1.1270001
-0.28058153 -0.42234907 1.123
-0.27861255 -0.42234907 1.123
-0.27738258 -0.42347735 1.126
-0.27565292 -0.42385343 1.1270001
-0.27391976 -0.4242295 1.128
-0.27290633 -0.42573386 1.1320001
-0.2711609 -0.42610997 1.133
-0.26917437 -0.42610997 1.133
-0.26671618 -0.42535779 1.131
-0.26566944 -0.42686215 1.1350001
-0.26367941 -0.42686215 1.1350001
-0.2621505 -0.42761433 1.1370001
-0.26015696 -0.42761433 1.1370001
-0.25816342 -0.42761433 1.1370001
-0.25594458 -0.42723823 1.136
-0.25417635 -0.42761433 1.1370001
-0.25218281 -0.42761433 1.1370001
-0.25018927 -0.42761433 1.1370001
-0.24819572 -0.42761433 1.1370001
-0.20017456 -0.42723823 1.136
-0.19835722 -0.42761433 1.1370001
-0.19636369 -0.42761433 1.1370001
-0.19505395 -0.42911869 1.141
-0.19423777 -0.43175131 1.148
-0.19222495 -0.43175131 1.148
-0.1903778 -0.43212742 1.149
-0.18852717 -0.43250349 1.1500001
-0.18715957 -0.43400785 1.154
-0.18513621 -0.43400785 1.154
-0.18311287 -0.43400785 1.154
-0.18108952 -0.43400785 1.154
-0.17906618 -0.43400785 1.154
-0.32622781 -0.80896956 2.151
-0.32245642 -0.80896956 2.151
-0.318685 -0.80896956 2.151
-0.31344953 -0.80520868 2.141
-0.30810449 -0.8010717 2.1300001
-0.3043699 -0.8010717 2.1300001
-0.30063531 -0.8010717 2.1300001
-0.29662192 -0.80031949 2.128
-0.29234028 -0.79881513 2.1240001
-0.28861621 -0.79881513 2.1240001
-0.28489211 -0.79881513 2.1240001
-0.28130043 -0.79919124 2.125
-0.27757457 -0.79919124 2.125
-0.2741065 -0.79994345 2.1270001
-0.27037716 -0.79994345 2.1270001
-0.26664782 -0.79994345 2.1270001
-0.26279485 -0.79956734 2.1260002
-0.26040769 -0.80370432 2.1370001
-0.25666082 -0.80370432 2.1370001
-0.25291395 -0.80370432 2.1370001
-0.24916707 -0.80370432 2.1370001
-0.2438124 -0.79843909 2.1230001
-0.24009007 -0.79843909 2.1230001
-0.23503171 -0.793926 2.1110001
-0.22990583 -0.78903681 2.098
-0.22622734 -0.78903681 2.098
-0.22520076 -0.79843909 2.1230001
-0.34557849 -0.43273318 1.156
-0.34325445 -0.43235886 1.1550001
-0.34093392 -0.43198451 1.154
-0.3380295 -0.4308615 1.151
-0.33601144 -0.4308615 1.151
-0.33399335 -0.4308615 1.151
-0.33197525 -0.4308615 1.151
-0.32995716 -0.4308615 1.151
-0.32879382 -0.43198451 1.154
-0.32677048 -0.43198451 1.154
-0.32474715 -0.43198451 1.154
-0.32384241 -0.43348187 1.1580001
-0.32181206 -0.43348187 1.1580001
-0.31978169 -0.43348187 1.1580001
-0.31665376 -0.43198451 1.154
-0.31463042 -0.43198451 1.154
-0.3115235 -0.43048716 1.1500001
-0.30950716 -0.43048716 1.1500001
-0.30561915 -0.42786682 1.143
-0.30255258 -0.42636946 1.1390001
-0.29950002 -0.4248721 1.1350001
-0.29750997 -0.4248721 1.1350001
-0.29551995 -0.4248721 1.1350001
-0.29275405 -0.42374909 1.1320001
-0.29102615 -0.42412344 1.133
-0.28801918 -0.42262611 1.1290001
-0.2852796 -0.4215031 1.126
-0.28255054 -0.42038009 1.123
-0.28058153 -0.42038009 1.123
-0.27886066 -0.4207544 1.1240001
-0.27688989 -0.4207544 1.1240001
-0.27491915 -0.4207544 1.1240001
-0.27416259 -0.42262611 1.1290001
-0.27194199 -0.42225176 1.128
-0.26996425 -0.42225176 1.128
-0.26893678 -0.42374909 1.1320001
-0.26671618 -0.42337477 1.131
-0.26473317 -0.42337477 1.131
-0.26275015 -0.42337477 1.131
-0.26145881 -0.42449778 1.1340001
-0.26015696 -0.42562079 1.1370001
-0.25816342 -0.42562079 1.1370001
-0.25594458 -0.42524645 1.136
-0.25417635 -0.42562079 1.1370001
-0.25218281 -0.42562079 1.1370001
-0.25018927 -0.42562079 1.1370001
-0.2488506 -0.42674381 1.1400001
-0.24663526 -0.42636946 1.1390001
-0.24463822 -0.42636946 1.1390001
-0.24178904 -0.4248721 1.1350001
-0.23979901 -0.4248721 1.1350001
-0.23738994 -0.42412344 1.133
-0.2354034 -0.42412344 1.133
-0.23341689 -0.42412344 1.133
-0.23143035 -0.42412344 1.133
-0.22944383 -0.42412344 1.133
-0.2274573 -0.42412344 1.133
-0.22547078 -0.42412344 1.133
-0.22348425 -0.42412344 1.133
-0.22227971 -0.42562079 1.1370001
-0.22028618 -0.42562079 1.1370001
-0.21829262 -0.42562079 1.1370001
-0.21553814 -0.42412344 1.133
-0.21355161 -0.42412344 1.133
-0.21156509 -0.42412344 1.133
-0.20939359 -0.42374909 1.1320001
-0.20722559 -0.42337477 1.131
-0.20560551 -0.42412344 1.133
-0.20361899 -0.42412344 1.133
-0.20163245 -0.42412344 1.133
-0.19929351 -0.42337477 1.131
-0.19835722 -0.42562079 1.1370001
-0.19636369 -0.42562079 1.1370001
-0.19437015 -0.42562079 1.1370001
-0.19356099 -0.42824113 1.1440001
-0.19222495 -0.42973849 1.148
-0.1903778 -0.43011284 1.149
-0.18918291 -0.43198451 1.154
-0.18715957 -0.43198451 1.154
-0.18513621 -0.43198451 1.154
-0.18311287 -0.43198451 1.154
-0.18108952 -0.43198451 1.154
-0.17906618 -0.43198451 1.154
-0.17811675 -0.43460485 1.161
-0.17608114 -0.43460485 1.161
-0.1740455 -0.43460485 1.161
-0.318685 -0.80519819 2.151
-0.31388876 -0.80257779 2.1440001
-0.31012961 -0.80257779 2.1440001
-0.30651334 -0.80295217 2.1450002
-0.30275244 -0.80295217 2.1450002
-0.29648253 -0.7962141 2.1270001
-0.29234028 -0.79509109 2.1240001
-0.28861621 -0.79509109 2.1240001
-0.28596514 -0.79808575 2.1320002
-0.28222704 -0.79808575 2.1320002
-0.27848893 -0.79808575 2.1320002
-0.26415455 -0.79995745 2.1370001
-0.26052955 -0.80033177 2.138
-0.25666082 -0.79995745 2.1370001
-0.0058701602 -0.83551943 2.2320001
-0.0019567199 -0.83551943 2.2320001
0.0019567199 -0.83551943 2.2320001
0.0058701602 -0.83551943 2.2320001
0.00984935 -0.84113449 2.2470002
-0.35552165 -0.43294182 1.1620001
-0.35226744 -0.4314515 1.1580001
-0.3502371 -0.4314515 1.1580001
-0.34760535 -0.43070632 1.156
-0.34557849 -0.43070632 1.156
-0.34325445 -0.43033373 1.1550001
-0.34093392 -0.42996117 1.154
-0.3380295 -0.42884341 1.151
-0.33601144 -0.42884341 1.151
-0.33399335 -0.42884341 1.151
-0.33197525 -0.42884341 1.151
-0.32995716 -0.42884341 1.151
-0.32793909 -0.42884341 1.151
-0.32705364 -0.43033373 1.1550001
-0.32502854 -0.43033373 1.1550001
-0.32272381 -0.42996117 1.154
-0.32181206 -0.4314515 1.1580001
-0.3186771 -0.42996117 1.154
-0.31665376 -0.42996117 1.154
-0.31463042 -0.42996117 1.154
-0.3115235 -0.42847082 1.1500001
-0.30950716 -0.42847082 1.1500001
-0.30561915 -0.42586276 1.143
-0.30255258 -0.4243724 1.1390001
-0.30055553 -0.4243724 1.1390001
-0.29750997 -0.42288208 1.1350001
-0.29473883 -0.42176434 1.1320001
-0.29275405 -0.42176434 1.1320001
-0.28999871 -0.42064658 1.1290001
-0.28801918 -0.42064658 1.1290001
-0.28553295 -0.4199014 1.1270001
-0.28305376 -0.41915625 1.125
-0.28108126 -0.41915625 1.125
-0.27886066 -0.41878366 1.1240001
-0.27639723 -0.41803849 1.1220001
-0.27442998 -0.41803849 1.1220001
-0.27367693 -0.4199014 1.1270001
-0.27145982 -0.41952884 1.126
-0.26972491 -0.4199014 1.1270001
-0.26846164 -0.42101917 1.13
-0.2660087 -0.42027399 1.128
-0.26426503 -0.42064658 1.1290001
-0.26321477 -0.4221369 1.133
-0.26122826 -0.4221369 1.133
-0.25924173 -0.4221369 1.133
-0.25657403 -0.42101917 1.13
-0.25526866 -0.4221369 1.133
-0.25372925 -0.42288208 1.1350001
-0.25196102 -0.42325467 1.136
-0.2508494 -0.42474499 1.1400001
-0.2488506 -0.42474499 1.1400001
-0.24663526 -0.4243724 1.1390001
-0.24463822 -0.4243724 1.1390001
-0.24264117 -0.4243724 1.1390001
-0.24043284 -0.42399982 1.138
-0.23822802 -0.42362726 1.1370001
-0.23623449 -0.42362726 1.1370001
-0.23424095 -0.42362726 1.1370001
-0.23224741 -0.42362726 1.1370001
-0.23025388 -0.42362726 1.1370001
-0.22826032 -0.42362726 1.1370001
-0.22626679 -0.42362726 1.1370001
-0.22427325 -0.42362726 1.1370001
-0.22227971 -0.42362726 1.1370001
-0.22028618 -0.42362726 1.1370001
-0.21829262 -0.42362726 1.1370001
-0.21610886 -0.42325467 1.136
-0.21430555 -0.42362726 1.1370001
-0.21156509 -0.4221369 1.133
-0.20939359 -0.42176434 1.1320001
-0.20740882 -0.42176434 1.1320001
-0.20560551 -0.4221369 1.133
-0.20361899 -0.4221369 1.133
-0.20163245 -0.4221369 1.133
-0.19964592 -0.4221369 1.133
-0.1976594 -0.4221369 1.133
-0.19567287 -0.4221369 1.133
-0.19368635 -0.4221369 1.133
-0.19305339 -0.42511758 1.141
-0.19155517 -0.42623532 1.1440001
-0.1903778 -0.42809826 1.149
-0.18852717 -0.42847082 1.1500001
-0.18715957 -0.42996117 1.154
-0.18513621 -0.42996117 1.154
-0.18311287 -0.42996117 1.154
-0.18171722 -0.4314515 1.1580001
-0.17999721 -0.43219668 1.1600001
-0.17796333 -0.43219668 1.1600001
-0.17608114 -0.43256924 1.161
-0.1740455 -0.43256924 1.161
-0.32475942 -0.81670266 2.1920002
-0.32003769 -0.81446713 2.1860001
-0.31634954 -0.81483972 2.187
-0.30851391 -0.80440742 2.1590002
-0.30303472 -0.79993641 2.1470001
-0.29871276 -0.79844606 2.1430001
-0.29426718 -0.79658318 2.138
-0.28861621 -0.79136699 2.1240001
-0.28636754 -0.79546541 2.135
-0.28262419 -0.79546541 2.135
-0.27875018 -0.79509282 2.1340001
-0.27539518 -0.79621059 2.1370001
-0.27164832 -0.79621059 2.1370001
-0.26815218 -0.79695576 2.1390002
-0.26440179 -0.79695576 2.1390002
-0.42536744 -0.4487043 1.21
-0.42289612 -0.44833347 1.2090001
-0.42077634 -0.44833347 1.2090001
-0.41692513 -0.44647932 1.2040001
-0.41171336 -0.44314185 1.1950001
-0.40824699 -0.44165853 1.1910001
-0.4064998 -0.44202936 1.192
-0.40305275 -0.44054604 1.1880001
-0.4009698 -0.44054604 1.1880001
-0.39855108 -0.44017521 1.187
-0.39613587 -0.43980438 1.1860001
-0.39272738 -0.43832105 1.182
-0.38900241 -0.4364669 1.177
-0.38562375 -0.43498358 1.1730001
-0.38356709 -0.43498358 1.1730001
-0.38020945 -0.43350026 1.169
-0.3788068 -0.43424192 1.171
-0.37675363 -0.43424192 1.171
-0.3743805 -0.43387109 1.1700001
-0.37232909 -0.43387109 1.1700001
-0.36996123 -0.43350026 1.169
-0.36791158 -0.43350026 1.169
-0.36586192 -0.43350026 1.169
-0.36381227 -0.43350026 1.169
-0.36021531 -0.43164611 1.164
-0.35786673 -0.43127528 1.1630001
-0.3558276 -0.43127528 1.1630001
-0.35287586 -0.43016279 1.1600001
-0.350842 -0.43016279 1.1600001
-0.34760535 -0.42867947 1.156
-0.34557849 -0.42867947 1.156
-0.34325445 -0.42830864 1.1550001
-0.34152478 -0.42867947 1.156
-0.3380295 -0.42682531 1.151
-0.33601144 -0.42682531 1.151
-0.33399335 -0.42682531 1.151
-0.33197525 -0.42682531 1.151
-0.32995716 -0.42682531 1.151
-0.32793909 -0.42682531 1.151
-0.32733682 -0.42867947 1.156
-0.32502854 -0.42830864 1.1550001
-0.32272381 -0.42793781 1.154
-0.32181206 -0.42942113 1.1580001
-0.3186771 -0.42793781 1.154
-0.31665376 -0.42793781 1.154
-0.31463042 -0.42793781 1.154
-0.3115235 -0.42645448 1.1500001
-0.30950716 -0.42645448 1.1500001
-0.30561915 -0.42385867 1.143
-0.30255258 -0.42237538 1.1390001
-0.30055553 -0.42237538 1.1390001
-0.29750997 -0.42089206 1.1350001
-0.29473883 -0.41977957 1.1320001
-0.29275405 -0.41977957 1.1320001
-0.28999871 -0.41866708 1.1290001
-0.28827429 -0.41903791 1.13
-0.28553295 -0.41792542 1.1270001
-0.28305376 -0.41718376 1.125
-0.28008184 -0.41570044 1.1210001
-0.27811638 -0.41570044 1.1210001
-0.27639723 -0.41607127 1.1220001
-0.27442998 -0.41607127 1.1220001
-0.27246273 -0.41607127 1.1220001
-0.27073658 -0.4164421 1.123
-0.2687676 -0.4164421 1.123
-0.26774889 -0.41792542 1.1270001
-0.26553708 -0.41755459 1.126
-0.26182088 -0.41792542 1.1270001
-0.26007545 -0.41829625 1.128
-0.25809768 -0.41829625 1.128
-0.25566581 -0.41755459 1.126
-0.2310639 -0.42311704 1.141
-0.22906336 -0.42311704 1.141
-0.22706281 -0.42311704 1.141
-0.22506225 -0.42311704 1.141
-0.22227971 -0.42163372 1.1370001
-0.22028618 -0.42163372 1.1370001
-0.21906058 -0.42311704 1.141
-0.21667956 -0.42237538 1.1390001
-0.21468252 -0.42237538 1.1390001
-0.20109856 -0.41903791 1.13
-0.1991173 -0.41903791 1.13
-0.39613587 -0.43772492 1.1860001
-0.39272738 -0.43624863 1.182
-0.23792645 -0.78871685 2.1370001
-0.23264542 -0.78354979 2.1230001
-0.22892308 -0.78354979 2.1230001
-0.22668584 -0.78871685 2.1370001
-0.0336903 -0.31519148 0.85400003
-0.032192953 -0.31519148 0.85400003
-0.030767493 -0.31592962 0.85600007
-0.029266641 -0.31592962 0.85600007
-0.027765786 -0.31592962 0.85600007
-0.026264934 -0.31592962 0.85600007
-0.02476408 -0.31592962 0.85600007
-0.023236049 -0.31556055 0.85500002
-0.021762373 -0.31592962 0.85600007
-0.020261521 -0.31592962 0.85600007
-0.01873875 -0.31556055 0.85500002
-0.017239651 -0.31556055 0.85500002
-0.015722141 -0.31519148 0.85400003
-0.014274763 -0.31629869 0.85700005
-0.0084992833 -0.51117116 1.3850001
-0.0060709165 -0.51117116 1.3850001
-0.00364255 -0.51117116 1.3850001
-0.0012141833 -0.51117116 1.3850001
0.00121506 -0.51154023 1.386
0.0060533835 -0.50969487 1.381
-0.42677361 -0.44593051 1.2140001
-0.42289612 -0.44409391 1.2090001
-0.42077634 -0.44409391 1.2090001
-0.41692513 -0.44225729 1.2040001
-0.41171336 -0.43895137 1.1950001
-0.40858978 -0.4378494 1.192
-0.4064998 -0.4378494 1.192
-0.40339202 -0.43674743 1.189
-0.4009698 -0.43638012 1.1880001
-0.39821532 -0.43564546 1.1860001
-0.39613587 -0.43564546 1.1860001
-0.39272738 -0.43417618 1.182
-0.38933292 -0.43270689 1.1780001
-0.3872675 -0.43270689 1.1780001
-0.38356709 -0.43087026 1.1730001
-0.38118517 -0.43050295 1.1720001
-0.37815982 -0.42940098 1.169
-0.37611017 -0.42940098 1.169
-0.37374052 -0.42903364 1.1680001
-0.37169263 -0.42903364 1.1680001
-0.36964473 -0.42903364 1.1680001
-0.36759686 -0.42903364 1.1680001
-0.36586192 -0.42940098 1.169
-0.36381227 -0.42940098 1.169
-0.36145318 -0.42903364 1.1680001
-0.35786673 -0.42719704 1.1630001
-0.3558276 -0.42719704 1.1630001
-0.35378847 -0.42719704 1.1630001
-0.350842 -0.42609507 1.1600001
-0.34850743 -0.42572775 1.159
-0.34527954 -0.42425844 1.1550001
-0.34384882 -0.4249931 1.1570001
-0.34182021 -0.4249931 1.1570001
-0.33920425 -0.42425844 1.1550001
-0.33747107 -0.42462578 1.156
-0.33544421 -0.42462578 1.156
-0.33341739 -0.42462578 1.156
-0.33139053 -0.42462578 1.156
-0.32936367 -0.42462578 1.156
-0.32733682 -0.42462578 1.156
-0.28929475 -0.41654465 1.1340001
-0.28553295 -0.41397339 1.1270001
-0.28330535 -0.41360608 1.126
-0.28058153 -0.41250411 1.123
-0.27861255 -0.41250411 1.123
-0.27664357 -0.41250411 1.123
-0.27467456 -0.41250411 1.123
-0.27270558 -0.41250411 1.123
-0.24557625 -0.41126624 1.125
-0.24490297 -0.41345966 1.131
-0.24356429 -0.41455638 1.1340001
-0.24178904 -0.41492194 1.1350001
-0.24148923 -0.4178465 1.143
-0.24262802 -0.42333007 1.1580001
-0.24059767 -0.42333007 1.1580001
-0.24083348 -0.42735133 1.169
-0.23878384 -0.42735133 1.169
-0.23673418 -0.42735133 1.169
-0.23528682 -0.42844805 1.1720001
-0.23004785 -0.42259893 1.156
-0.22644299 -0.41967437 1.148
-0.22443017 -0.41967437 1.148
-0.22551724 -0.42552349 1.164
-0.21906058 -0.41711536 1.141
-0.21667956 -0.41638422 1.1390001
-0.21468252 -0.41638422 1.1390001
-0.21231201 -0.41565308 1.1370001
-0.221972 -0.43868399 1.2
-0.219868 -0.43868399 1.2
-0.20560551 -0.4141908 1.133
-0.20361899 -0.4141908 1.133
-0.20163245 -0.4141908 1.133
-0.19964592 -0.4141908 1.133
-0.1976594 -0.4141908 1.133
-0.19567287 -0.4141908 1.133
-0.19368635 -0.4141908 1.133
-0.19169982 -0.4141908 1.133
-0.1897133 -0.4141908 1.133
-0.18855523 -0.41601866 1.138
-0.18672386 -0.41638422 1.1390001
-0.18472682 -0.41638422 1.1390001
-0.18337148 -0.4178465 1.143
-0.18184346 -0.41894323 1.146
-0.18108952 -0.42186779 1.154
-0.17968686 -0.42333007 1.1580001
-0.17750308 -0.42296448 1.1570001
-0.17562614 -0.42333007 1.1580001
-0.1740455 -0.42442676 1.161
-0.17200989 -0.42442676 1.161
-0.16997427 -0.42442676 1.161
-0.1675047 -0.42333007 1.1580001
-0.16518855 -0.42259893 1.156
-0.16358513 -0.42369562 1.159
-0.16155301 -0.42369562 1.159
-0.15979616 -0.42442676 1.161
-0.29024678 -0.7808575 2.1360002
-0.28757471 -0.78378206 2.1440001
-0.28381556 -0.78378206 2.1440001
-0.27927268 -0.78158867 2.138
-0.27384874 -0.77683622 2.125
-0.27012292 -0.77683622 2.125
-0.4250159 -0.43985435 1.2090001
-0.42254633 -0.43949053 1.2080001
-0.41903615 -0.43803525 1.2040001
-0.41727141 -0.43839908 1.205
-0.41171336 -0.43476093 1.1950001
-0.40927532 -0.4343971 1.194
-0.40615878 -0.43330565 1.1910001
-0.40407056 -0.43330565 1.1910001
-0.40198234 -0.43330565 1.1910001
-0.39955837 -0.43294182 1.1900001
-0.39580184 -0.43112275 1.1850001
-0.39372414 -0.43112275 1.1850001
-0.33893073 -0.42239115 1.161
-0.33689511 -0.42239115 1.161
-0.33485949 -0.42239115 1.161
-0.0336903 -0.31069943 0.85400003
-0.032192953 -0.31069943 0.85400003
-0.030767493 -0.31142706 0.85600007
-0.02933502 -0.31215471 0.85800004
-0.02783066 -0.31215471 0.85800004
-0.026326301 -0.31215471 0.85800004
-0.02476408 -0.31142706 0.85600007
-0.023263227 -0.31142706 0.85600007
-0.021762373 -0.31142706 0.85600007
-0.41938418 -0.4362863 1.205
-0.41554001 -0.43447599 1.2
-0.41171336 -0.43266568 1.1950001
-0.40927532 -0.43230361 1.194
-0.40615878 -0.43121743 1.1910001
-0.40407056 -0.43121743 1.1910001
-0.40198234 -0.43121743 1.1910001
-0.34214109 -0.42180377 1.1650001
-0.33689511 -0.42035553 1.161
-0.2945644 -0.41239014 1.1390001
-0.29179674 -0.41130394 1.136
-0.29006007 -0.41166601 1.1370001
-0.28806654 -0.41166601 1.1370001
-0.28531817 -0.41057983 1.1340001
-0.28233051 -0.40913156 1.13
-0.27960494 -0.40804538 1.1270001
-0.27762893 -0.40804538 1.1270001
-0.27540833 -0.40768331 1.126
-0.27343407 -0.40768331 1.126
-0.27170092 -0.40804538 1.1270001
-0.26972491 -0.40804538 1.1270001
-0.26727375 -0.40732124 1.125
-0.26530126 -0.40732124 1.125
-0.26332876 -0.40732124 1.125
-0.25430346 -0.40551093 1.12
-0.25211442 -0.40514886 1.1190001
-0.25037599 -0.40551093 1.12
-0.24841227 -0.40551093 1.12
-0.24644853 -0.40551093 1.12
-0.24426651 -0.40514886 1.1190001
-0.24317068 -0.40659711 1.123
-0.24034254 -0.40514886 1.1190001
-0.23838057 -0.40514886 1.1190001
-0.29760292 -0.41183433 1.143
-0.24644853 -0.4035472 1.12
-0.2444848 -0.4035472 1.12
-0.24252106 -0.4035472 1.12
-0.22133379 -0.43525448 1.2080001
-0.21994165 -0.43669572 1.212
-0.21781659 -0.43669572 1.212
-0.1976594 -0.40823123 1.133
-0.19567287 -0.40823123 1.133
-0.19368635 -0.40823123 1.133
-0.19169982 -0.40823123 1.133
-0.18954585 -0.40787092 1.1320001
-0.15910798 -0.41651836 1.156
-0.15708113 -0.41651836 1.156
-0.19437015 -0.40767893 1.1370001
-0.19169982 -0.4062447 1.133
-0.1897133 -0.4062447 1.133
-0.18855523 -0.40803748 1.138
-0.18672386 -0.40839604 1.1390001
-0.18472682 -0.40839604 1.1390001
-0.18272977 -0.40839604 1.1390001
-0.18073273 -0.40839604 1.1390001
-0.17936337 -0.40983027 1.143
-0.1768938 -0.40875459 1.1400001
-0.17550866 -0.41018882 1.1440001
-0.1741095 -0.41162306 1.148
-0.17224659 -0.41198161 1.149
-0.17156541 -0.41520861 1.1580001
-0.16997427 -0.41628429 1.161
-0.16764934 -0.41556716 1.159
-0.16561724 -0.41556716 1.159
-0.16429085 -0.41735995 1.164
-0.16238935 -0.4177185 1.1650001
-0.15952089 -0.41556716 1.159
-0.15721701 -0.41485006 1.1570001
-0.03404535 -0.30792126 0.86300004
-0.032532223 -0.30792126 0.86300004
-0.031126926 -0.30899167 0.86600006
-0.02960854 -0.30899167 0.86600006
-0.027992843 -0.30792126 0.86300004
-0.026479717 -0.30792126 0.86300004
-0.02496659 -0.30792126 0.86300004
-0.023562171 -0.30934849 0.86700004
-0.024209149 -0.46919638 1.3150001
-0.021920172 -0.46955317 1.3160001
-0.01953827 -0.46776918 1.3110001
-0.017252799 -0.46812597 1.312
-0.015020806 -0.47026679 1.3180001
-0.012767773 -0.47240761 1.3240001
-0.01048581 -0.47419164 1.3290001
-0.00815563 -0.47419164 1.3290001
-0.0058210664 -0.47383481 1.3280001
-0.0034952699 -0.47419164 1.3290001
-0.0011685967 -0.47561884 1.3330001
0.00116772 -0.47526205 1.332
0.0035031601 -0.47526205 1.332
0.0058386 -0.47526205 1.332
-0.4236097 -0.42783526 1.205
-0.42149696 -0.42783526 1.205
-0.41938418 -0.42783526 1.205
-0.41554001 -0.42605999 1.2
-0.413436 -0.42605999 1.2
-0.41064644 -0.42534989 1.1980001
-0.40854594 -0.42534989 1.1980001
-0.40644544 -0.42534989 1.1980001
-0.40434498 -0.42534989 1.1980001
-0.40090141 -0.42392969 1.194
-0.39847392 -0.42357466 1.1930001
-0.39671445 -0.42392969 1.194
-0.39429048 -0.42357466 1.1930001
-0.39121249 -0.42250949 1.1900001
-0.38716406 -0.42037919 1.184
-0.38508812 -0.42037919 1.184
-0.38171819 -0.41895899 1.1800001
-0.37932754 -0.41860396 1.179
-0.37726036 -0.41860396 1.179
-0.37519318 -0.41860396 1.179
-0.37344247 -0.41895899 1.1800001
-0.37074408 -0.41824889 1.1780001
-0.3693046 -0.41895899 1.1800001
-0.36661324 -0.41824889 1.1780001
-0.36516672 -0.41895899 1.1800001
-0.36309779 -0.41895899 1.1800001
-0.35980505 -0.41753879 1.176
-0.35774311 -0.41753879 1.176
-0.35568121 -0.41753879 1.176
-0.35361928 -0.41753879 1.176
-0.35095948 -0.41682869 1.174
-0.34949544 -0.41753879 1.176
-0.34743351 -0.41753879 1.176
-0.34566528 -0.41789386 1.177
-0.34389353 -0.41824889 1.1780001
-0.34211829 -0.41860396 1.179
-0.34005111 -0.41860396 1.179
-0.33884394 -0.41966909 1.182
-0.33677149 -0.41966909 1.182
-0.3358317 -0.42108929 1.1860001
-0.33262661 -0.41966909 1.182
-0.32803726 -0.41647366 1.1730001
-0.3259806 -0.41647366 1.1730001
-0.32392395 -0.41647366 1.1730001
-0.3207697 -0.41505346 1.169
-0.31872004 -0.41505346 1.169
-0.31667042 -0.41505346 1.169
-0.31462076 -0.41505346 1.169
-0.31150159 -0.41363326 1.1650001
-0.30759954 -0.41114789 1.1580001
-0.30345815 -0.40830749 1.1500001
-0.29960698 -0.40582216 1.143
-0.29656142 -0.40440196 1.1390001
-0.2945644 -0.40440196 1.1390001
-0.29410851 -0.40653226 1.1450001
-0.2910805 -0.40511206 1.141
-0.28907996 -0.40511206 1.141
-0.28707939 -0.40511206 1.141
-0.28407946 -0.40369186 1.1370001
-0.2820859 -0.40369186 1.1370001
-0.27935335 -0.40262669 1.1340001
-0.27736506 -0.40262669 1.1340001
-0.27440542 -0.40120649 1.13
-0.24819046 -0.39730096 1.1190001
-0.034321498 -0.3073681 0.87000006
-0.0327961 -0.3073681 0.87000006
-0.031198813 -0.30666152 0.86800003
-0.02967692 -0.30666152 0.86800003
-0.028122589 -0.30630821 0.86700004
-0.026602451 -0.30630821 0.86700004
-0.025082311 -0.30630821 0.86700004
-0.023562171 -0.30630821 0.86700004
-0.022016607 -0.3059549 0.86600006
-0.021820232 -0.46281862 1.3100001
-0.019463753 -0.46140546 1.3060001
-0.0172002 -0.46211204 1.3080001
-0.014906839 -0.46211204 1.3080001
-0.012719557 -0.46599829 1.319
-0.01044636 -0.46776479 1.3240001
-0.0080942633 -0.46599829 1.319
-0.0057816165 -0.46599829 1.319
-0.0034794901 -0.46741149 1.3230001
-0.00115983 -0.46741149 1.3230001
0.00115457 -0.46529171 1.317
0.0034374099 -0.46175873 1.307
0.0057114833 -0.46034557 1.3030001
-0.23923269 -0.39478317 1.123
-0.23662986 -0.39372852 1.12
-0.23466614 -0.39372852 1.12
-0.23228686 -0.39302546 1.118
-0.23032664 -0.39302546 1.118
-0.22918347 -0.39443162 1.1220001
-0.22640617 -0.39302546 1.118
-0.2246467 -0.39337698 1.1190001
-0.22348075 -0.39478317 1.123
-0.22190624 -0.39548624 1.125
-0.21993375 -0.39548624 1.125
-0.19289471 -0.40497792 1.1520001
-0.1903778 -0.40392327 1.149
-0.18770748 -0.40251711 1.1450001
-0.18569991 -0.40251711 1.1450001
-0.18337148 -0.40181401 1.143
-0.18105008 -0.40111095 1.141
-0.17920645 -0.4014625 1.1420001
-0.17704897 -0.40111095 1.141
-0.17428133 -0.39935324 1.136
-0.17213789 -0.39900169 1.1350001
-0.1725464 -0.40462637 1.151
-0.17038016 -0.40427482 1.1500001
-0.16865663 -0.40497792 1.1520001
-0.16822796 -0.40884489 1.1630001
-0.16604592 -0.40849334 1.1620001
-0.16400856 -0.40849334 1.1620001
-0.16211057 -0.40884489 1.1630001
-0.16007145 -0.40884489 1.1630001
-0.15789643 -0.40849334 1.1620001
-0.0358469 -0.3058427 0.87000006
-0.034321498 -0.3058427 0.87000006
-0.0327961 -0.3058427 0.87000006
-0.031198813 -0.3051396 0.86800003
-0.02967692 -0.3051396 0.86800003
-0.028155027 -0.3051396 0.86800003
-0.026602451 -0.30478808 0.86700004
-0.025082311 -0.30478808 0.86700004
-0.023534993 -0.30443653 0.86600006
-0.021991184 -0.30408499 0.86500007
-0.01935943 -0.45665479 1.299
-0.017081849 -0.45665479 1.299
-0.014906839 -0.45981869 1.3080001
-0.012719557 -0.46368566 1.319
-0.01040691 -0.46368566 1.319
-0.0078794798 -0.45138162 1.284
-0.0056281998 -0.45138162 1.284
-0.0034032201 -0.45489708 1.294
-0.0011291467 -0.45278782 1.2880001
0.0011291467 -0.45278782 1.2880001
0.00338744 -0.45278782 1.2880001
0.0056457333 -0.45278782 1.2880001
-0.2268112 -0.39176479 1.12
-0.22484747 -0.39176479 1.12
-0.22268473 -0.391415 1.1190001
-0.22190624 -0.39351374 1.125
-0.21993375 -0.39351374 1.125
-0.19559135 -0.40435722 1.156
-0.19289471 -0.40295807 1.1520001
-0.1903778 -0.4019087 1.149
-0.1881993 -0.40155891 1.148
-0.18618646 -0.40155891 1.148
-0.18385278 -0.40085933 1.146
-0.18105008 -0.39911038 1.141
-0.17920645 -0.39946017 1.1420001
-0.17673863 -0.3984108 1.1390001
-0.17458816 -0.39806101 1.138
-0.17244121 -0.39771122 1.1370001
-0.17329596 -0.40435722 1.156
-0.17112094 -0.40400743 1.1550001
-0.16938865 -0.40470701 1.1570001
-0.1680833 -0.40645596 1.1620001
-0.16590303 -0.40610617 1.161
-0.16400856 -0.40645596 1.1620001
-0.16211057 -0.40680575 1.1630001
-0.0358469 -0.3043173 0.87000006
-0.034321498 -0.3043173 0.87000006
-0.0327961 -0.3043173 0.87000006
-0.031198813 -0.30361772 0.86800003
-0.02967692 -0.30361772 0.86800003
-0.028155027 -0.30361772 0.86800003
-0.026602451 -0.30326793 0.86700004
-0.025082311 -0.30326793 0.86700004
-0.023562171 -0.30326793 0.86700004
-0.02204203 -0.30326793 0.86700004
-0.020569229 -0.30396751 0.86900002
-0.025627596 -0.44458309 1.271
-0.023399109 -0.44458309 1.271
-0.021203937 -0.44528267 1.273
-0.019120976 -0.44878057 1.2830001
-0.017081849 -0.4543772 1.299
-0.014690303 -0.45087931 1.289
-0.012430256 -0.45087931 1.289
-0.01017021 -0.45087931 1.289
-0.0077997032 -0.44458309 1.271
-0.0055712168 -0.44458309 1.271
-0.0033032799 -0.43933624 1.256
-0.0011002166 -0.43898645 1.2550001
0.0011247633 -0.44878057 1.2830001
0.00337429 -0.44878057 1.2830001
0.0056238165 -0.44878057 1.2830001
-0.17642829 -0.39571768 1.1370001
-0.17443475 -0.39571768 1.1370001
-0.17244121 -0.39571768 1.1370001
-0.17044766 -0.39571768 1.1370001
-0.037544128 -0.30418405 0.87400001
-0.0358469 -0.30279189 0.87000006
-0.034321498 -0.30279189 0.87000006
-0.0327961 -0.30279189 0.87000006
-0.031198813 -0.30209583 0.86800003
-0.02967692 -0.30209583 0.86800003
-0.028155027 -0.30209583 0.86800003
-0.026602451 -0.3017478 0.86700004
-0.025024449 -0.30105171 0.86500007
-0.023507817 -0.30105171 0.86500007
-0.023325469 -0.44096246 1.2670001
-0.021054026 -0.43991834 1.2640001
-0.018852716 -0.44026637 1.2650001
-0.016569 -0.43852618 1.2600001
-0.014371197 -0.43887424 1.261
-0.012256676 -0.44235459 1.271
-0.01002819 -0.44235459 1.271
-0.0077137901 -0.43748209 1.2570001
-0.0055098501 -0.43748209 1.2570001
-0.0033059099 -0.43748209 1.2570001
-0.0011010934 -0.43713406 1.256
0.0011002166 -0.43678603 1.2550001
0.0033400999 -0.44200656 1.2700001
0.0055668331 -0.44200656 1.2700001
-0.031198813 -0.30057395 0.86800003
-0.02967692 -0.30057395 0.86800003
-0.028122589 -0.30022764 0.86700004
-0.026602451 -0.30022764 0.86700004
-0.025024449 -0.2995351 0.86500007
-0.023507817 -0.2995351 0.86500007
-0.022016607 -0.29988137 0.86600006
-0.02315978 -0.43562442 1.258
-0.020920774 -0.43493187 1.256
-0.01864407 -0.43320045 1.251
-0.016450649 -0.43320045 1.251
-0.01432561 -0.43527815 1.2570001
-0.01212167 -0.43527815 1.2570001
-0.0099177295 -0.43527815 1.2570001
-0.0077137901 -0.43527815 1.2570001
-0.0055098501 -0.43527815 1.2570001
-0.0033059099 -0.43527815 1.2570001
-0.00110197 -0.43527815 1.2570001
0.0011002166 -0.43458557 1.2550001
0.0033164299 -0.43666327 1.261
0.0055229999 -0.436317 1.2600001
-0.42712516 -0.41860396 1.215
-0.42429528 -0.4179149 1.2130001
-0.42042828 -0.41619223 1.2080001
-0.41831025 -0.41619223 1.2080001
-0.41584772 -0.41584772 1.207
-0.41373143 -0.41584772 1.207
-0.41127414 -0.41550317 1.2060001
-0.40915963 -0.41550317 1.2060001
-0.4070451 -0.41550317 1.2060001
-0.40392327 -0.4144696 1.2030001
-0.40181401 -0.4144696 1.2030001
-0.39970475 -0.4144696 1.2030001
-0.39693451 -0.41378054 1.2010001
-0.39548624 -0.4144696 1.2030001
-0.393704 -0.41481411 1.2040001
-0.39159298 -0.41481411 1.2040001
-0.38754103 -0.41274694 1.1980001
-0.38415357 -0.41136882 1.194
-0.38206011 -0.41136882 1.194
-0.3786937 -0.4099907 1.1900001
-0.37534133 -0.40861258 1.1860001
-0.37168825 -0.40688992 1.1810001
-0.36899161 -0.40620086 1.179
-0.36692443 -0.40620086 1.179
-0.3637132 -0.40723446 1.182
-0.36164078 -0.40723446 1.182
-0.33290803 -0.40757897 1.1830001
-0.33111349 -0.40792352 1.184
-0.32848173 -0.40723446 1.182
-0.32668546 -0.40757897 1.1830001
-0.32461125 -0.40757897 1.1830001
-0.32253706 -0.40757897 1.1830001
-0.25082311 -0.38656265 1.1220001
-0.24907765 -0.38690719 1.123
-0.2473287 -0.3872517 1.1240001
-0.24557625 -0.38759625 1.125
-0.24360375 -0.38759625 1.125
-0.24120168 -0.38690719 1.123
-0.23923269 -0.38690719 1.123
-0.23768625 -0.38759625 1.125
-0.23571375 -0.38759625 1.125
-0.23311794 -0.38656265 1.1220001
-0.2311507 -0.38656265 1.1220001
-0.22857067 -0.38552907 1.1190001
-0.22660869 -0.38552907 1.1190001
-0.2246467 -0.38552907 1.1190001
-0.22288373 -0.38587359 1.12
-0.221709 -0.3872517 1.1240001
-0.21973825 -0.3872517 1.1240001
-0.21757376 -0.38690719 1.123
-0.19491456 -0.39689857 1.1520001
-0.19222495 -0.39552045 1.148
-0.1903778 -0.39586496 1.149
-0.18754354 -0.39414233 1.1440001
-0.18553773 -0.39414233 1.1440001
-0.18369235 -0.39448684 1.1450001
-0.18152611 -0.39414233 1.1440001
-0.17952029 -0.39414233 1.1440001
-0.17658345 -0.39207515 1.138
-0.17458816 -0.39207515 1.138
-0.17304786 -0.39310873 1.141
-0.17149703 -0.39414233 1.1440001
-0.037458215 -0.29890126 0.87200004
-0.035888102 -0.29855847 0.87100005
-0.034282051 -0.29787293 0.86900002
-0.032720707 -0.29753014 0.86800003
-0.031198813 -0.29753014 0.86800003
-0.02967692 -0.29753014 0.86800003
-0.028122589 -0.29718736 0.86700004
-0.026602451 -0.29718736 0.86700004
-0.025024449 -0.29650182 0.86500007
-0.023507817 -0.29650182 0.86500007
-0.022016607 -0.2968446 0.86600006
-0.025304982 -0.43018472 1.2550001
-0.022938861 -0.42709973 1.2460001
-0.020770863 -0.42744249 1.2470001
-0.018584456 -0.42744249 1.2470001
-0.01639805 -0.42744249 1.2470001
-0.014211643 -0.42744249 1.2470001
-0.011986664 -0.42607141 1.243
-0.00980727 -0.42607141 1.243
-0.0076524233 -0.42744249 1.2470001
-0.0054660165 -0.42744249 1.2470001
-0.0032796101 -0.42744249 1.2470001
-0.00108882 -0.42572862 1.2420001
0.00108882 -0.42572862 1.2420001
0.0032822399 -0.42778528 1.248
0.0054703997 -0.42778528 1.248
-0.42853132 -0.41570744 1.2190001
-0.42639402 -0.41570744 1.2190001
-0.42286456 -0.41434336 1.215
-0.42108053 -0.41468439 1.2160001
-0.41860396 -0.41434336 1.215
-0.41647366 -0.41434336 1.215
-0.41400233 -0.41400233 1.2140001
-0.41153452 -0.4136613 1.2130001
-0.40940771 -0.4136613 1.2130001
-0.40862396 -0.41502538 1.217
-0.40515414 -0.4136613 1.2130001
-0.40236282 -0.41297925 1.2110001
-0.39957854 -0.41229722 1.2090001
-0.39712998 -0.41195619 1.2080001
-0.39501196 -0.41195619 1.2080001
-0.39094248 -0.40991005 1.202
-0.38754103 -0.40854594 1.1980001
-0.38544053 -0.40854594 1.1980001
-0.38302004 -0.40820491 1.197
-0.38028485 -0.40752289 1.1950001
-0.37407541 -0.40308958 1.182
-0.37137353 -0.40240753 1.1800001
-0.33262661 -0.40308958 1.182
-0.33055419 -0.40308958 1.182
-0.32737014 -0.40172547 1.1780001
-0.32530469 -0.40172547 1.1780001
-0.32241607 -0.40070242 1.1750001
-0.32035592 -0.40070242 1.1750001
-0.24885586 -0.38262817 1.1220001
-0.24710867 -0.3829692 1.123
-0.24492137 -0.38262817 1.1220001
-0.24295413 -0.38262817 1.1220001
-0.2409869 -0.38262817 1.1220001
-0.23901966 -0.38262817 1.1220001
-0.23705243 -0.38262817 1.1220001
-0.23508517 -0.38262817 1.1220001
-0.23311794 -0.38262817 1.1220001
-0.2311507 -0.38262817 1.1220001
-0.22857067 -0.38160512 1.1190001
-0.22660869 -0.38160512 1.1190001
-0.2246467 -0.38160512 1.1190001
-0.221709 -0.38331023 1.1240001
-0.21973825 -0.38331023 1.1240001
-0.21757376 -0.3829692 1.123
-0.19105284 -0.38910761 1.141
-0.18921798 -0.38944864 1.1420001
-0.18737961 -0.38978967 1.143
-0.18537554 -0.38978967 1.143
-0.18321106 -0.38944864 1.1420001
-0.18152611 -0.3901307 1.1440001
-0.17952029 -0.3901307 1.1440001
-0.17642829 -0.38774353 1.1370001
-0.17443475 -0.38774353 1.1370001
-0.028122589 -0.29414707 0.86700004
-0.026602451 -0.29414707 0.86700004
-0.026891749 -0.41628429 1.2270001
-0.024740409 -0.41628429 1.2270001
-0.022589071 -0.41628429 1.2270001
-0.020537671 -0.41831991 1.233
-0.01837581 -0.41831991 1.233
-0.016266549 -0.41967699 1.2370001
-0.014109073 -0.42001626 1.238
-0.011899874 -0.41865918 1.2340001
-0.0097362604 -0.41865918 1.2340001
-0.0075787832 -0.41899845 1.235
-0.0054134168 -0.41899845 1.235
-0.0032480499 -0.41899845 1.235
-0.0010826833 -0.41899845 1.235
0.0010774233 -0.41696283 1.2290001
0.00323227 -0.41696283 1.2290001
0.0054134168 -0.41899845 1.235
-0.42853132 -0.4114328 1.2190001
-0.42639402 -0.4114328 1.2190001
-0.42390865 -0.41109529 1.2180001
-0.42246565 -0.41177034 1.22
-0.41998208 -0.4114328 1.2190001
-0.41818753 -0.41177034 1.22
-0.41604847 -0.41177034 1.22
-0.41357014 -0.4114328 1.2190001
-0.41042027 -0.41042027 1.2160001
-0.40862396 -0.41075778 1.217
-0.40482011 -0.40907019 1.212
-0.40236282 -0.40873268 1.2110001
-0.39990902 -0.40839517 1.21
-0.39778751 -0.40839517 1.21
-0.39599296 -0.40873268 1.2110001
-0.39224344 -0.4070451 1.2060001
-0.39045241 -0.40738261 1.207
-0.24426651 -0.37768114 1.1190001
-0.24230453 -0.37768114 1.1190001
-0.2409869 -0.3786937 1.1220001
-0.19038306 -0.38375646 1.1370001
-0.18855523 -0.38409397 1.138
-0.18651083 -0.38814417 1.1500001
-0.18417364 -0.38746914 1.148
-0.04084127 -0.29667714 0.87900007
-0.03921067 -0.29600212 0.87700003
-0.037501171 -0.29465204 0.87300003
-0.035805695 -0.29330197 0.86900002
-0.034282051 -0.29330197 0.86900002
-0.032683011 -0.29262695 0.86700004
-0.031198813 -0.29296446 0.86800003
-0.02967692 -0.29296446 0.86800003
-0.028090153 -0.29228944 0.86600006
-0.026571767 -0.29228944 0.86600006
-0.026256166 -0.40434498 1.1980001
-0.024175836 -0.40468249 1.199
-0.022147229 -0.40603256 1.2030001
-0.020104596 -0.40738261 1.207
-0.01819697 -0.41210786 1.2210001
-0.016108749 -0.4134579 1.225
-0.014063487 -0.41649556 1.2340001
-0.011851656 -0.41480798 1.2290001
-0.0096968096 -0.41480798 1.2290001
-0.0075419634 -0.41480798 1.2290001
-0.0053695831 -0.4134579 1.225
-0.00322175 -0.4134579 1.225
-0.0010739167 -0.4134579 1.225
0.00107041 -0.41210786 1.2210001
0.00321123 -0.41210786 1.2210001
0.0053520501 -0.41210786 1.2210001
-0.42712516 -0.40795246 1.215
-0.42639402 -0.4092955 1.2190001
-0.42425668 -0.4092955 1.2190001
-0.42246565 -0.40963125 1.22
-0.41860396 -0.40795246 1.215
-0.41647366 -0.40795246 1.215
-0.4136613 -0.40728092 1.2130001
-0.41153452 -0.40728092 1.2130001
-0.41075778 -0.40862396 1.217
-0.40728092 -0.40728092 1.2130001
-0.40236282 -0.40660939 1.2110001
-0.40023953 -0.40660939 1.2110001
-0.39435798 -0.40493059 1.2060001
-0.39386967 -0.40660939 1.2110001
-0.042382449 -0.29359478 0.87900007
-0.040748343 -0.29292676 0.87700003
-0.03921067 -0.29292676 0.87700003
-0.037501171 -0.29159072 0.87300003
-0.035929307 -0.29125673 0.87200004
-0.0344004 -0.29125673 0.87200004
-0.032833796 -0.2909227 0.87100005
-0.031306643 -0.2909227 0.87100005
-0.030380882 -0.39914194 1.1950001
-0.028309319 -0.39947596 1.1960001
-0.026212333 -0.39947596 1.1960001
-0.024115346 -0.39947596 1.1960001
-0.02194472 -0.39813992 1.192
-0.019704837 -0.39513382 1.1830001
-0.017645547 -0.39546785 1.184
-0.015727401 -0.39947596 1.1960001
-0.013630413 -0.39947596 1.1960001
-0.011610573 -0.40214804 1.2040001
-0.0094916699 -0.40181401 1.2030001
-0.0074130935 -0.40348408 1.2080001
-0.0052906834 -0.40315008 1.207
-0.00318493 -0.40448612 1.2110001
-0.0010616434 -0.40448612 1.2110001
0.0010616434 -0.40448612 1.2110001
0.00318493 -0.40448612 1.2110001
0.0053082164 -0.40448612 1.2110001
-0.41974273 -0.39671445 1.194
-0.41764927 -0.39671445 1.194
-0.41416362 -0.39538544 1.1900001
-0.41207716 -0.39538544 1.1900001
-0.41240242 -0.39771122 1.197
-0.41030368 -0.39771122 1.197
-0.40820491 -0.39771122 1.197
-0.4057669 -0.39737898 1.1960001
-0.40535751 -0.39904025 1.2010001
-0.40493059 -0.40070152 1.2060001
-0.40281606 -0.40070152 1.2060001
-0.40036929 -0.40036929 1.205
-0.39594299 -0.39804348 1.1980001
-0.39384249 -0.39804348 1.1980001
-0.391415 -0.39771122 1.197
-0.38931626 -0.39771122 1.197
-0.38689405 -0.39737898 1.1960001
-0.04402357 -0.29117343 0.88100004
-0.042334232 -0.29018193 0.87800002
-0.04084127 -0.29051244 0.87900007
-0.03921067 -0.28985143 0.87700003
-0.037587084 -0.28919041 0.87500006
-0.036011714 -0.2888599 0.87400001
-0.034360949 -0.28786841 0.87100005
-0.032833796 -0.28786841 0.87100005
-0.030177496 -0.39230746 1.187
-0.028119959 -0.39263797 1.1880001
-0.026037 -0.39263797 1.1880001
-0.023772569 -0.38966343 1.179
-0.021705389 -0.38966343 1.179
-0.019554926 -0.38801092 1.174
-0.017526319 -0.3886719 1.176
-0.015517 -0.38999394 1.1800001
-0.013448067 -0.38999394 1.1800001
-0.011330917 -0.38834143 1.1750001
-0.0092628598 -0.38801092 1.174
-0.0072289933 -0.38933292 1.1780001
-0.0051986333 -0.39197695 1.1860001
-0.00311918 -0.39197695 1.1860001
-0.0010397267 -0.39197695 1.1860001
0.0010397267 -0.39197695 1.1860001
0.00311918 -0.39197695 1.1860001
0.0052161668 -0.39329895 1.1900001
-0.39010704 -0.39219874 1.1930001
-0.3880153 -0.39219874 1.1930001
-0.38560009 -0.39186999 1.192
-0.04402357 -0.28962874 0.88100004
-0.042334232 -0.2886425 0.87800002
-0.04084127 -0.28897125 0.87900007
-0.039300092 -0.28897125 0.87900007
-0.037672997 -0.28831375 0.87700003
-0.036135323 -0.28831375 0.87700003
-0.41271186 -0.38389409 1.174
-0.41240242 -0.38552907 1.179
-0.40894309 -0.38422108 1.1750001
-0.40549779 -0.38291308 1.171
-0.4031001 -0.38258609 1.1700001
-0.40379092 -0.38520208 1.1780001
-0.40172547 -0.38520208 1.1780001
-0.39999932 -0.38552907 1.179
-0.40063229 -0.38814503 1.187
-0.4002299 -0.38978001 1.192
-0.39813992 -0.38978001 1.192
-0.39472091 -0.38847205 1.1880001
-0.39263797 -0.38847205 1.1880001
-0.39043403 -0.39043403 1.194
-0.38834053 -0.39043403 1.194
-0.043923631 -0.28743008 0.87900007
-0.042334232 -0.28710306 0.87800002
-0.04084127 -0.28743008 0.87900007
-0.039344799 -0.28775707 0.88000005
-0.037672997 -0.28677607 0.87700003
-0.036135323 -0.28677607 0.87700003
-0.034479301 -0.28579509 0.87400001
-0.032909188 -0.2854681 0.87300003
-0.030075803 -0.38683707 1.1830001
-0.027930601 -0.38585606 1.1800001
-0.025774 -0.38454807 1.176
-0.023611262 -0.38291308 1.171
-0.02150288 -0.38193211 1.1680001
-0.019471643 -0.3822591 1.169
-0.017466707 -0.3832401 1.1720001
-0.0154118 -0.3832401 1.1720001
-0.013311307 -0.38193211 1.1680001
-0.011244127 -0.3812781 1.166
-0.0091997404 -0.3812781 1.166
-0.0071553532 -0.3812781 1.166
-0.0051285001 -0.38258609 1.1700001
-0.0030771 -0.38258609 1.1700001
-0.0010292067 -0.38389409 1.174
0.0010292067 -0.38389409 1.174
-0.40960407 -0.38085994 1.171
-0.40615878 -0.37955898 1.1670001
-0.40272751 -0.37825799 1.1630001
-0.40034387 -0.37793276 1.1620001
-0.3979637 -0.37760749 1.161
-0.39592808 -0.37760749 1.161
-0.40033859 -0.38378713 1.1800001
-0.39043403 -0.38834053 1.194
-0.38834053 -0.38834053 1.194
-0.043923631 -0.28434771 0.87900007
-0.042382449 -0.28434771 0.87900007
-0.040794805 -0.28402421 0.87800002
-0.039255381 -0.28402421 0.87800002
-0.037672997 -0.28370073 0.87700003
-0.036011714 -0.28273025 0.87400001
-0.034479301 -0.28273025 0.87400001
-0.032909188 -0.28240678 0.87300003
-0.029821569 -0.37945378 1.1730001
-0.027788579 -0.37977725 1.174
-0.025642499 -0.3784833 1.1700001
-0.023510447 -0.37718934 1.166
-0.021447649 -0.37686583 1.1650001
-0.01933839 -0.37557188 1.161
-0.017347479 -0.37654236 1.164
-0.015306599 -0.37654236 1.164
-0.013254323 -0.37621886 1.1630001
-0.01116698 -0.37460142 1.1580001
-0.0091050602 -0.37330747 1.154
-0.0070817131 -0.37330747 1.154
-0.0050583668 -0.37330747 1.154
-0.0030455401 -0.37460142 1.1580001
-0.00101518 -0.37460142 1.1580001
0.00101518 -0.37460142 1.1580001
0.0030455401 -0.37460142 1.1580001
0.0050934334 -0.37589538 1.1620001
-0.40251711 -0.3663809 1.1450001
-0.40015975 -0.36606094 1.1440001
-0.39710984 -0.36510098 1.141
-0.39510927 -0.36510098 1.141
-0.39276421 -0.36478099 1.1400001
-0.38939428 -0.36350107 1.136
-0.38535637 -0.36158118 1.13
-0.38337511 -0.36158118 1.13
-0.04402357 -0.28190532 0.88100004
-0.042382449 -0.28126535 0.87900007
-0.04084127 -0.28126535 0.87900007
-0.039300092 -0.28126535 0.87900007
-0.03763004 -0.28030539 0.87600005
-0.036094118 -0.28030539 0.87600005
-0.034558199 -0.28030539 0.87600005
-0.033022281 -0.28030539 0.87600005
-0.031486358 -0.28030539 0.87600005
-0.029846992 -0.37566042 1.174
-0.02781225 -0.37598041 1.1750001
-0.025664417 -0.37470049 1.171
-0.023429792 -0.37182063 1.1620001
-0.02139242 -0.37182063 1.1620001
-0.01923845 -0.36958075 1.1550001
-0.01721335 -0.36958075 1.1550001
-0.01518825 -0.36958075 1.1550001
-0.01316315 -0.36958075 1.1550001
-0.011128407 -0.36926076 1.154
-0.0091050602 -0.36926076 1.154
-0.0070817131 -0.36926076 1.154
-0.0050583668 -0.36926076 1.154
-0.0030376499 -0.36958075 1.1550001
-0.00101255 -0.36958075 1.1550001
0.0010090433 -0.36830083 1.151
0.0030060899 -0.36574095 1.143
0.0049093333 -0.35838133 1.12
-0.39689243 -0.35730216 1.1290001
-0.39526269 -0.35761863 1.13
-0.3929334 -0.35730216 1.1290001
-0.39130017 -0.35761863 1.13
-0.38931888 -0.35761863 1.13
-0.38870874 -0.35888454 1.1340001
-0.044073541 -0.27913243 0.88200003
-0.042382449 -0.27818298 0.87900007
-0.04084127 -0.27818298 0.87900007
-0.039300092 -0.27818298 0.87900007
-0.037715953 -0.27786651 0.87800002
-0.03621773 -0.27818298 0.87900007
-0.034676548 -0.27818298 0.87900007
-0.033097673 -0.27786651 0.87800002
-0.02790693 -0.373126 1.179
-0.022946751 -0.33135107 1.0470001
-0.021090847 -0.3310346 1.046
-0.019201631 -0.33008516 1.0430001
-0.01738956 -0.33040163 1.044
-0.01555908 -0.33040163 1.044
-0.0138338 -0.33293346 1.052
-0.01316315 -0.36553055 1.1550001
-0.011099476 -0.36426464 1.151
-0.0090813898 -0.36426464 1.151
-0.0070633031 -0.36426464 1.151
-0.0050276835 -0.36299872 1.1470001
-0.00301924 -0.36331522 1.148
-0.0010064134 -0.36331522 1.148
0.0010029067 -0.36204931 1.1440001
0.00299557 -0.36046693 1.1390001
0.0049312501 -0.35603625 1.125
-0.045723427 -0.27821544 0.88400006
-0.044123508 -0.2779007 0.88300002
-0.042478882 -0.27727124 0.88100004
-0.040934198 -0.27727124 0.88100004
-0.039255381 -0.27632707 0.87800002
-0.037715953 -0.27632707 0.87800002
-0.036176525 -0.27632707 0.87800002
-0.034637101 -0.27632707 0.87800002
-0.033097673 -0.27632707 0.87800002
-0.031558245 -0.27632707 0.87800002
-0.02497185 -0.33203313 1.0550001
-0.023100166 -0.33171839 1.054
-0.021171499 -0.33045951 1.0500001
-0.0193305 -0.33045951 1.0500001
-0.017506156 -0.33077422 1.051
-0.015678307 -0.33108893 1.052
-0.0138338 -0.33108893 1.052
-0.011977897 -0.33077422 1.051
-0.010115856 -0.33014476 1.049
-0.0082766097 -0.33014476 1.049
-0.0070387567 -0.36098766 1.1470001
-0.0050276835 -0.36098766 1.1470001
-0.00301924 -0.36130238 1.148
-0.0010064134 -0.36130238 1.148
0.0010029067 -0.3600435 1.1440001
0.00298505 -0.35721099 1.1350001
0.0049268669 -0.35374904 1.1240001
-0.39302546 -0.34990045 1.118
-0.39071542 -0.3495875 1.1170001
-0.38875696 -0.3495875 1.1170001
-0.38679847 -0.3495875 1.1170001
-0.38621813 -0.35083938 1.1210001
-0.38562375 -0.35209125 1.125
-0.02123199 -0.32955742 1.0530001
-0.0193305 -0.3286185 1.0500001
-0.017506156 -0.32893148 1.051
-0.015723016 -0.33018336 1.0550001
-0.01387325 -0.33018336 1.0550001
-0.011977897 -0.32893148 1.051
-0.010115856 -0.32830554 1.049
-0.0082766097 -0.32830554 1.049
-0.0064373631 -0.32830554 1.049
-0.0050276835 -0.3589766 1.1470001
-0.0030166099 -0.3589766 1.1470001
-0.0010064134 -0.35928956 1.148
0.0010029067 -0.35803768 1.1440001
0.00298505 -0.35522094 1.1350001
0.0049750833 -0.35522094 1.1350001
-0.38845539 -0.34195697 1.105
-0.38651794 -0.34195697 1.105
-0.38562462 -0.34288538 1.108
-0.38472077 -0.34381375 1.1110001
-0.38380641 -0.34474215 1.1140001
-0.01429405 -0.33638665 1.087
-0.012365383 -0.33576772 1.085
-0.010463017 -0.33576772 1.085
-0.00824505 -0.32338917 1.0450001
-0.0064128167 -0.32338917 1.0450001
-0.0045805834 -0.32338917 1.0450001
-0.0028377699 -0.33391094 1.079
-0.00094592333 -0.33391094 1.079
0.00094592333 -0.33391094 1.079
0.0028377699 -0.33391094 1.079
0.0046945498 -0.33143523 1.0710001
-0.045826875 -0.27263105 0.88600004
-0.044273421 -0.27263105 0.88600004
-0.042575315 -0.27170792 0.88300002
-0.041027121 -0.27170792 0.88300002
-0.03938951 -0.2710925 0.88100004
-0.037758909 -0.27047709 0.87900007
-0.03621773 -0.27047709 0.87900007
-0.034676548 -0.27047709 0.87900007
-0.023363167 -0.32801884 1.0660001
-0.02141346 -0.32678801 1.062
-0.019551421 -0.32678801 1.062
-0.017706037 -0.32709572 1.0630001
-0.016259536 -0.3357116 1.0910001
-0.01429405 -0.33448076 1.087
-0.012365383 -0.33386534 1.085
-0.010405157 -0.33201909 1.079
-0.0082766097 -0.32278779 1.049
-0.0064373631 -0.32278779 1.049
-0.0045981165 -0.32278779 1.049
-0.0028377699 -0.33201909 1.079
-0.00094592333 -0.33201909 1.079
0.00094592333 -0.33201909 1.079
0.0028377699 -0.33201909 1.079
0.0046945498 -0.32955742 1.0710001
-0.38458839 -0.33471659 1.0940001
-0.38022172 -0.3325749 1.087
-0.37831587 -0.3325749 1.087
-0.38072142 -0.32945222 1.0830001
-0.37917235 -0.32975641 1.0840001
-0.3779678 -0.33036482 1.0860001
-0.048823319 -0.26891574 0.88400006
-0.047326848 -0.26921993 0.88500005
