# .PCD v0.7 - Point Cloud Data file format
VERSION 0.7
FIELDS x y z
SIZE 4 4 4
TYPE F F F
COUNT 1 1 1
WIDTH 1540
HEIGHT 1
VIEWPOINT 0 0 0 1 0 0 0
POINTS 1540
DATA ascii
0.073404178 0.44344166 1.1470001
0.075678252 0.4449881 1.151
0.077696338 0.4449881 1.151
0.079714425 0.4449881 1.151
0.081377462 0.44305506 1.146
0.083459541 0.44344166 1.1470001
0.08554513 0.44382828 1.148
0.087557957 0.44382828 1.148
0.089960903 0.44576132 1.153
0.092062272 0.44614795 1.154
0.093841031 0.4449881 1.151
0.0959424 0.44537473 1.1520001
0.097877204 0.4449881 1.151
0.099895291 0.4449881 1.151
0.10191338 0.4449881 1.151
0.10393146 0.4449881 1.151
0.10594955 0.4449881 1.151
0.10806144 0.44537473 1.1520001
0.11008128 0.44537473 1.1520001
0.11210112 0.44537473 1.1520001
0.11412096 0.44537473 1.1520001
0.1161408 0.44537473 1.1520001
0.11805807 0.4449881 1.151
0.12018048 0.44537473 1.1520001
0.12220032 0.44537473 1.1520001
0.12411233 0.4449881 1.151
0.12613042 0.4449881 1.151
0.12792583 0.44421488 1.149
0.12994041 0.44421488 1.149
0.13206983 0.44460151 1.1500001
0.13408616 0.44460151 1.1500001
0.1356291 0.44305506 1.146
0.13763842 0.44305506 1.146
0.13964774 0.44305506 1.146
0.14178067 0.44344166 1.1470001
0.097974509 0.24975006 0.64600003
0.099260584 0.25013667 0.64700001
0.10023982 0.24975006 0.64600003
0.10105862 0.24897684 0.64400005
0.10234645 0.24936345 0.64500004
0.10363778 0.24975006 0.64600003
0.10444607 0.24897684 0.64400005
0.10508341 0.24781701 0.64100003
0.10620729 0.24781701 0.64100003
0.10682885 0.24665718 0.63800001
0.10777827 0.24627057 0.63700002
0.10889515 0.24627057 0.63700002
0.10966662 0.24549735 0.63500005
0.11060552 0.24511074 0.634
0.11189335 0.24549735 0.63500005
0.11300672 0.24549735 0.63500005
0.11447952 0.24627057 0.63700002
0.11559639 0.24627057 0.63700002
0.11689649 0.24665718 0.63800001
0.11820009 0.24704379 0.63900006
0.11969393 0.24781701 0.64100003
0.12081782 0.24781701 0.64100003
0.12270265 0.24936345 0.64500004
0.12383355 0.24936345 0.64500004
0.12496445 0.24936345 0.64500004
0.12589985 0.24897684 0.64400005
0.12722625 0.24936345 0.64500004
0.12835714 0.24936345 0.64500004
0.12948805 0.24936345 0.64500004
0.13061894 0.24936345 0.64500004
0.13154559 0.24897684 0.64400005
0.13246872 0.24859023 0.64300001
0.13359611 0.24859023 0.64300001
0.1347235 0.24859023 0.64300001
0.14092153 0.25786886 0.66700006
0.14209101 0.25786886 0.66700006
0.14326048 0.25786886 0.66700006
0.14442995 0.25786886 0.66700006
0.14559942 0.25786886 0.66700006
0.14720899 0.25864208 0.66900003
0.14838196 0.25864208 0.66900003
0.14955495 0.25864208 0.66900003
0.15095323 0.2590287 0.67000002
0.15235502 0.2594153 0.671
0.1533027 0.2590287 0.67000002
0.154708 0.2594153 0.671
0.1561168 0.25980192 0.67200005
0.15776318 0.26057515 0.67400002
0.15941657 0.26134837 0.67600006
0.16060182 0.26134837 0.67600006
0.16202641 0.26173496 0.67700005
0.16321342 0.26173496 0.67700005
0.16464326 0.26212159 0.67800003
0.16583201 0.26212159 0.67800003
0.16726713 0.26250818 0.67900002
0.16870573 0.26289481 0.68000001
0.16964816 0.26250818 0.67900002
0.17109026 0.26289481 0.68000001
0.17278925 0.26366803 0.68200004
0.17398502 0.26366803 0.68200004
0.17518079 0.26366803 0.68200004
0.17637657 0.26366803 0.68200004
0.17809308 0.26444125 0.68400002
0.17929237 0.26444125 0.68400002
0.18049164 0.26444125 0.68400002
0.18195654 0.26482785 0.68500006
0.18369235 0.26560107 0.68700004
0.18570431 0.26676089 0.69000006
0.18772677 0.26792073 0.69300002
0.18921447 0.26830733 0.69400001
0.19043128 0.26830733 0.69400001
0.19137195 0.26792073 0.69300002
0.19230911 0.26753411 0.69200003
0.19380207 0.26792073 0.69300002
0.19529854 0.26830733 0.69400001
0.19679852 0.26869395 0.69500005
0.19801708 0.26869395 0.69500005
0.19980898 0.26946718 0.69700003
0.20131949 0.26985377 0.69800001
0.20283349 0.2702404 0.69900006
0.20405906 0.2702404 0.69900006
0.20645939 0.27178684 0.70300001
0.20798741 0.27217343 0.70400006
0.20922177 0.27217343 0.70400006
0.211054 0.27294666 0.70600003
0.21199115 0.27256006 0.70500004
0.21262234 0.27178684 0.70300001
0.21385494 0.27178684 0.70300001
0.2153935 0.27217343 0.70400006
0.21724325 0.27294666 0.70600003
0.21879058 0.27333328 0.70700002
0.21940775 0.27256006 0.70500004
0.22033088 0.27217343 0.70400006
0.35689625 0.43841574 1.1340001
0.35888454 0.43841574 1.1340001
0.36437336 0.44266844 1.1450001
0.3663809 0.44266844 1.1450001
0.36838847 0.44266844 1.1450001
0.36910209 0.441122 1.141
0.37175313 0.44189522 1.143
0.37375718 0.44189522 1.143
0.37707624 0.44344166 1.1470001
0.37908733 0.44344166 1.1470001
0.38076612 0.44305506 1.146
0.38110539 0.441122 1.141
0.38344172 0.44150862 1.1420001
0.38679409 0.44305506 1.146
0.38846415 0.44266844 1.1450001
0.39047173 0.44266844 1.1450001
0.39247927 0.44266844 1.1450001
0.39448684 0.44266844 1.1450001
0.39684069 0.44305506 1.146
0.39989412 0.44421488 1.149
0.40120912 0.44344166 1.1470001
0.40322021 0.44344166 1.1470001
0.4038181 0.44189522 1.143
0.40546709 0.44150862 1.1420001
0.40782622 0.44189522 1.143
0.41018882 0.44228184 1.1440001
0.41255495 0.44266844 1.1450001
0.41456252 0.44266844 1.1450001
0.41657007 0.44266844 1.1450001
0.41711536 0.441122 1.141
0.41911593 0.441122 1.141
0.42259279 0.44266844 1.1450001
0.4242295 0.44228184 1.1440001
0.42586276 0.44189522 1.143
0.42786682 0.44189522 1.143
0.42987087 0.44189522 1.143
0.43187493 0.44189522 1.143
0.4334994 0.44150862 1.1420001
0.43550169 0.44150862 1.1420001
0.43712091 0.441122 1.141
0.43950632 0.44150862 1.1420001
0.44150862 0.44150862 1.1420001
0.44273421 0.4407354 1.1400001
0.44395277 0.43996218 1.138
0.44633994 0.44034877 1.1390001
0.44833699 0.44034877 1.1390001
0.44875252 0.43880236 1.1350001
0.45074254 0.43880236 1.1350001
0.45432812 0.44034877 1.1390001
0.45672581 0.4407354 1.1400001
0.45872459 0.4407354 1.1400001
0.46031925 0.44034877 1.1390001
0.4623163 0.44034877 1.1390001
0.46431336 0.44034877 1.1390001
0.46631038 0.44034877 1.1390001
0.46789628 0.43996218 1.138
0.47030449 0.44034877 1.1390001
0.47230154 0.44034877 1.1390001
0.47429857 0.44034877 1.1390001
0.47671381 0.4407354 1.1400001
0.47913253 0.441122 1.141
0.48113307 0.441122 1.141
0.48398048 0.44189522 1.143
0.48598453 0.44189522 1.143
0.48926941 0.44305506 1.146
0.48999268 0.44189522 1.143
0.49113584 0.441122 1.141
0.49313641 0.441122 1.141
0.49513695 0.441122 1.141
0.49583039 0.43996218 1.138
0.49782568 0.43996218 1.138
0.49938178 0.43957555 1.1370001
0.50181627 0.43996218 1.138
0.50469702 0.4407354 1.1400001
0.50714028 0.441122 1.141
0.50958705 0.44150862 1.1420001
0.51203734 0.44189522 1.143
0.51539057 0.44305506 1.146
0.51920581 0.44460151 1.1500001
0.51895601 0.44266844 1.1450001
0.52096355 0.44266844 1.1450001
0.52205765 0.44189522 1.143
0.5236032 0.44150862 1.1420001
0.5256055 0.44150862 1.1420001
0.52806979 0.44189522 1.143
0.53007388 0.44189522 1.143
0.53207791 0.44189522 1.143
0.53314745 0.441122 1.141
0.53561705 0.44150862 1.1420001
0.53761935 0.44150862 1.1420001
0.54056668 0.44228184 1.1440001
0.5425725 0.44228184 1.1440001
0.54457831 0.44228184 1.1440001
0.54658413 0.44228184 1.1440001
0.54954904 0.44305506 1.146
0.5496332 0.44150862 1.1420001
0.55066937 0.4407354 1.1400001
0.55266821 0.4407354 1.1400001
0.554667 0.4407354 1.1400001
0.55715412 0.441122 1.141
0.5596447 0.44150862 1.1420001
0.56213886 0.44189522 1.143
0.56315577 0.441122 1.141
0.56565166 0.44150862 1.1420001
0.568151 0.44189522 1.143
-0.20559587 0.44428766 1.1440001
-0.20359005 0.44428766 1.1440001
-0.20176046 0.44467601 1.1450001
-0.19957842 0.44428766 1.1440001
-0.19757262 0.44428766 1.1440001
-0.19642155 0.44622946 1.149
-0.19423777 0.4458411 1.148
-0.19222495 0.4458411 1.148
-0.1903778 0.44622946 1.149
-0.18869111 0.4470062 1.151
-0.18667302 0.4470062 1.151
-0.1844945 0.44661784 1.1500001
-0.18247816 0.44661784 1.1500001
-0.18046184 0.44661784 1.1500001
-0.17782483 0.44506437 1.146
-0.17581549 0.44506437 1.146
-0.17380618 0.44506437 1.146
-0.17179686 0.44506437 1.146
-0.17038016 0.44661784 1.1500001
-0.16836384 0.44661784 1.1500001
-0.1663475 0.44661784 1.1500001
-0.16404538 0.4458411 1.148
-0.1618914 0.44545275 1.1470001
-0.15988033 0.44545275 1.1470001
-0.15800689 0.4458411 1.148
-0.15599407 0.4458411 1.148
-0.15398124 0.4458411 1.148
-0.15196842 0.4458411 1.148
-0.14982496 0.44545275 1.1470001
-0.14781389 0.44545275 1.1470001
-0.14580281 0.44545275 1.1470001
-0.14366637 0.44506437 1.146
-0.14140984 0.44428766 1.1440001
-0.13940403 0.44428766 1.1440001
-0.1369178 0.44273421 1.1400001
-0.134919 0.44273421 1.1400001
-0.13350318 0.44467601 1.1450001
-0.13103624 0.44312257 1.141
-0.12914878 0.44351092 1.1420001
-0.12714647 0.44351092 1.1420001
-0.12503459 0.44312257 1.141
-0.12303403 0.44312257 1.141
-0.12156386 0.44506437 1.146
-0.11955454 0.44506437 1.146
-0.11754522 0.44506437 1.146
-0.1155359 0.44506437 1.146
-0.11352658 0.44506437 1.146
-0.11151726 0.44506437 1.146
-0.10950794 0.44506437 1.146
-0.10749862 0.44506437 1.146
-0.10502905 0.44312257 1.141
-0.1029382 0.44273421 1.1400001
-0.1009394 0.44273421 1.1400001
-0.099374548 0.44467601 1.1450001
-0.097366981 0.44467601 1.1450001
-0.095359415 0.44467601 1.1450001
-0.093270317 0.44428766 1.1440001
-0.091264509 0.44428766 1.1440001
-0.089258693 0.44428766 1.1440001
-0.087252878 0.44428766 1.1440001
-0.08524707 0.44428766 1.1440001
-0.083241254 0.44428766 1.1440001
-0.081235439 0.44428766 1.1440001
-0.079229623 0.44428766 1.1440001
-0.077223815 0.44428766 1.1440001
-0.075218 0.44428766 1.1440001
-0.073276184 0.44467601 1.1450001
-0.071268618 0.44467601 1.1450001
-0.06920056 0.44428766 1.1440001
-0.067194745 0.44428766 1.1440001
-0.065188929 0.44428766 1.1440001
-0.063183121 0.44428766 1.1440001
-0.061177306 0.44428766 1.1440001
-0.059171494 0.44428766 1.1440001
-0.057165679 0.44428766 1.1440001
-0.055159867 0.44428766 1.1440001
-0.053339906 0.4458411 1.148
-0.05132708 0.4458411 1.148
-0.049185384 0.44467601 1.1450001
-0.047177818 0.44467601 1.1450001
-0.0451308 0.44428766 1.1440001
-0.043124985 0.44428766 1.1440001
-0.041119173 0.44428766 1.1440001
-0.038976599 0.44273421 1.1400001
-0.037042674 0.44351092 1.1420001
-0.035040367 0.44351092 1.1420001
-0.033038061 0.44351092 1.1420001
-0.030981399 0.44273421 1.1400001
-0.0289826 0.44273421 1.1400001
-0.02700747 0.44312257 1.141
-0.025028832 0.44351092 1.1420001
-0.023026526 0.44351092 1.1420001
-0.021005809 0.44312257 1.141
-0.019071883 0.44467601 1.1450001
-0.017094124 0.44545275 1.1470001
-0.01508305 0.44545275 1.1470001
-0.013117563 0.4470062 1.151
-0.011089833 0.44661784 1.1500001
-0.0090734996 0.44661784 1.1500001
-0.0070571667 0.44661784 1.1500001
-0.0050408333 0.44661784 1.1500001
-0.0030245001 0.44661784 1.1500001
-0.0010090433 0.4470062 1.151
0.0010090433 0.4470062 1.151
0.0030271299 0.4470062 1.151
0.0050452165 0.4470062 1.151
0.0070633031 0.4470062 1.151
0.0090892799 0.44739455 1.1520001
0.011118763 0.44778293 1.153
0.013140356 0.44778293 1.153
0.01516195 0.44778293 1.153
0.01712393 0.44622946 1.149
0.019138509 0.44622946 1.149
0.02111627 0.44545275 1.1470001
0.023147507 0.4458411 1.148
0.025182249 0.44622946 1.149
0.02726784 0.44739455 1.1520001
0.029185986 0.4458411 1.148
0.031198813 0.4458411 1.148
0.033211641 0.4458411 1.148
0.035224468 0.4458411 1.148
0.037204858 0.44545275 1.1470001
0.03921593 0.44545275 1.1470001
0.041083232 0.44389927 1.143
0.043049593 0.44351092 1.1420001
0.045051899 0.44351092 1.1420001
0.047013003 0.44312257 1.141
0.048970599 0.44273421 1.1400001
0.051103529 0.44389927 1.143
0.053107589 0.44389927 1.143
0.055159867 0.44428766 1.1440001
0.057365559 0.4458411 1.148
0.059378386 0.4458411 1.148
0.061391212 0.4458411 1.148
0.063404039 0.4458411 1.148
0.065416865 0.4458411 1.148
0.067664638 0.44739455 1.1520001
0.069684483 0.44739455 1.1520001
0.071393102 0.44545275 1.1470001
0.073404178 0.44545275 1.1470001
0.075678252 0.4470062 1.151
0.077426322 0.44545275 1.1470001
0.079437397 0.44545275 1.1470001
0.081377462 0.44506437 1.146
0.083459541 0.44545275 1.1470001
0.08554513 0.4458411 1.148
0.087557957 0.4458411 1.148
0.089648813 0.44622946 1.149
0.091743164 0.44661784 1.1500001
0.094004087 0.44778293 1.153
0.095692553 0.44622946 1.149
0.097622089 0.4458411 1.148
0.099548131 0.44545275 1.1470001
0.1015592 0.44545275 1.1470001
0.10393146 0.4470062 1.151
0.10594955 0.4470062 1.151
0.10806144 0.44739455 1.1520001
0.11008128 0.44739455 1.1520001
0.11210112 0.44739455 1.1520001
0.11412096 0.44739455 1.1520001
0.11603998 0.4470062 1.151
0.11805807 0.4470062 1.151
0.12007616 0.4470062 1.151
0.12209424 0.4470062 1.151
0.1240045 0.44661784 1.1500001
0.12591125 0.44622946 1.149
0.12781449 0.4458411 1.148
0.13005351 0.44661784 1.1500001
0.13184014 0.4458411 1.148
0.13385297 0.4458411 1.148
0.1353924 0.44428766 1.1440001
0.13727811 0.44389927 1.143
0.13916031 0.44351092 1.1420001
0.14190428 0.4458411 1.148
0.098126173 0.25127107 0.64700001
0.099413998 0.25165945 0.648
0.10023982 0.25088271 0.64600003
0.1015294 0.25127107 0.64700001
0.10250513 0.25088271 0.64600003
0.10363778 0.25088271 0.64600003
0.10444607 0.25010598 0.64400005
0.10557521 0.25010598 0.64400005
0.1060416 0.24855253 0.64000005
0.10716373 0.24855253 0.64000005
0.10777827 0.24738744 0.63700002
0.10889515 0.24738744 0.63700002
0.10983932 0.24699908 0.63600004
0.11077999 0.24661072 0.63500005
0.11189335 0.24661072 0.63500005
0.11300672 0.24661072 0.63500005
0.11447952 0.24738744 0.63700002
0.11559639 0.24738744 0.63700002
0.11689649 0.24777581 0.63800001
0.11820009 0.24816416 0.63900006
0.1195072 0.24855253 0.64000005
0.12062933 0.24855253 0.64000005
0.12270265 0.25049436 0.64500004
0.12383355 0.25049436 0.64500004
0.12496445 0.25049436 0.64500004
0.12629084 0.25088271 0.64600003
0.12762076 0.25127107 0.64700001
0.12815815 0.25010598 0.64400005
0.12928729 0.25010598 0.64400005
0.13061894 0.25049436 0.64500004
0.13154559 0.25010598 0.64400005
0.13246872 0.24971762 0.64300001
0.13899814 0.25981507 0.66900003
0.14038064 0.26020342 0.67000002
0.14113282 0.25942671 0.66800004
0.14230403 0.25942671 0.66800004
0.14369005 0.25981507 0.66900003
0.1446465 0.25942671 0.66800004
0.14581771 0.25942671 0.66800004
0.14742903 0.26020342 0.67000002
0.14838196 0.25981507 0.66900003
0.1497785 0.26020342 0.67000002
0.15095323 0.26020342 0.67000002
0.15235502 0.2605918 0.671
0.15353151 0.2605918 0.671
0.15516913 0.26136851 0.67300004
0.15634912 0.26136851 0.67300004
0.15776318 0.2617569 0.67400002
0.15918075 0.26214525 0.67500001
0.16083941 0.26292199 0.67700005
0.16250508 0.2636987 0.67900002
0.16369559 0.2636987 0.67900002
0.16464326 0.26331034 0.67800003
0.16607662 0.2636987 0.67900002
0.16775981 0.26447544 0.68100005
0.16895384 0.26447544 0.68100005
0.169898 0.26408705 0.68000001
0.17134187 0.26447544 0.68100005
0.1730426 0.26525214 0.68300003
0.17449524 0.26564053 0.68400002
0.17569453 0.26564053 0.68400002
0.17715241 0.26602888 0.68500006
0.17861381 0.26641724 0.68600005
0.1798166 0.26641724 0.68600005
0.18128327 0.26680562 0.68700004
0.18275344 0.26719397 0.68800002
0.18422711 0.26758233 0.68900001
0.18597344 0.26835907 0.69100004
0.18799765 0.26952416 0.69400001
0.18921447 0.26952416 0.69400001
0.19043128 0.26952416 0.69400001
0.1910958 0.26874742 0.69200003
0.192587 0.2691358 0.69300002
0.19380207 0.2691358 0.69300002
0.19529854 0.26952416 0.69400001
0.19651535 0.26952416 0.69400001
0.19801708 0.26991251 0.69500005
0.19980898 0.27068925 0.69700003
0.20131949 0.2710776 0.69800001
0.20283349 0.27146596 0.69900006
0.20405906 0.27146596 0.69900006
0.20734043 0.27418453 0.70600003
0.20857829 0.27418453 0.70600003
0.20981614 0.27418453 0.70600003
0.211054 0.27418453 0.70600003
0.21199115 0.27379614 0.70500004
0.21262234 0.27301943 0.70300001
0.21385494 0.27301943 0.70300001
0.2153935 0.27340779 0.70400006
0.21724325 0.27418453 0.70600003
0.35371658 0.44389927 1.143
0.35260847 0.44001564 1.133
0.35428205 0.43962729 1.1320001
0.3562668 0.43962729 1.1320001
0.35825157 0.43962729 1.1320001
0.36055458 0.44001564 1.133
0.36510098 0.44312257 1.141
0.36710152 0.44312257 1.141
0.36910209 0.44312257 1.141
0.37175313 0.44389927 1.143
0.37375718 0.44389927 1.143
0.37576124 0.44389927 1.143
0.3777653 0.44389927 1.143
0.37943712 0.44351092 1.1420001
0.38110539 0.44312257 1.141
0.38478479 0.44506437 1.146
0.38679409 0.44506437 1.146
0.38846415 0.44467601 1.1450001
0.39047173 0.44467601 1.1450001
0.39247927 0.44467601 1.1450001
0.39448684 0.44467601 1.1450001
0.39649442 0.44467601 1.1450001
0.39815393 0.44428766 1.1440001
0.39980996 0.44389927 1.143
0.40181401 0.44389927 1.143
0.4038181 0.44389927 1.143
0.40546709 0.44351092 1.1420001
0.40782622 0.44389927 1.143
0.40983027 0.44389927 1.143
0.41255495 0.44467601 1.1450001
0.41311425 0.44312257 1.141
0.41511482 0.44312257 1.141
0.41565308 0.44156912 1.1370001
0.41764662 0.44156912 1.1370001
0.42111647 0.44312257 1.141
0.42274621 0.44273421 1.1400001
0.42474499 0.44273421 1.1400001
0.42599511 0.44195747 1.138
0.42799041 0.44195747 1.138
0.4314971 0.44351092 1.1420001
0.4331198 0.44312257 1.141
0.43512034 0.44312257 1.141
0.43712091 0.44312257 1.141
0.43950632 0.44351092 1.1420001
0.441122 0.44312257 1.141
0.44234583 0.44234583 1.1390001
0.44395277 0.44195747 1.138
0.44477245 0.44079238 1.1350001
0.44676247 0.44079238 1.1350001
0.44875252 0.44079238 1.1350001
0.45074254 0.44079238 1.1350001
0.45432812 0.44234583 1.1390001
0.45672581 0.44273421 1.1400001
0.45872459 0.44273421 1.1400001
0.4599151 0.44195747 1.138
0.4619104 0.44195747 1.138
0.46472099 0.44273421 1.1400001
0.46671981 0.44273421 1.1400001
0.46789628 0.44195747 1.138
0.47030449 0.44234583 1.1390001
0.47230154 0.44234583 1.1390001
0.47429857 0.44234583 1.1390001
0.47713196 0.44312257 1.141
0.47913253 0.44312257 1.141
0.48113307 0.44312257 1.141
0.48440391 0.44428766 1.1440001
0.48598453 0.44389927 1.143
0.48798862 0.44389927 1.143
0.48999268 0.44389927 1.143
0.49199674 0.44389927 1.143
0.4914076 0.44156912 1.1370001
0.49340114 0.44156912 1.1370001
0.49539468 0.44156912 1.1370001
0.4956384 0.44001564 1.133
0.49806413 0.44040403 1.1340001
0.50049341 0.44079238 1.1350001
0.50513971 0.44312257 1.141
0.50714028 0.44312257 1.141
0.50958705 0.44351092 1.1420001
0.51203734 0.44389927 1.143
0.51539057 0.44506437 1.146
0.51920581 0.44661784 1.1500001
0.51895601 0.44467601 1.1450001
0.52096355 0.44467601 1.1450001
0.5216009 0.44351092 1.1420001
0.5236032 0.44351092 1.1420001
0.52376449 0.44195747 1.138
0.52575982 0.44195747 1.138
0.52914637 0.44312257 1.141
0.5316124 0.44351092 1.1420001
0.5336147 0.44351092 1.1420001
0.53608602 0.44389927 1.143
0.53761935 0.44351092 1.1420001
0.54056668 0.44428766 1.1440001
0.5425725 0.44428766 1.1440001
0.54457831 0.44428766 1.1440001
0.54658413 0.44428766 1.1440001
0.54715133 0.44312257 1.141
0.5496332 0.44351092 1.1420001
0.55066937 0.44273421 1.1400001
0.55266821 0.44273421 1.1400001
0.554667 0.44273421 1.1400001
0.55715412 0.44312257 1.141
0.55768448 0.44195747 1.138
0.5606634 0.44273421 1.1400001
0.56167507 0.44195747 1.138
0.56565166 0.44351092 1.1420001
0.568151 0.44389927 1.143
-0.21156509 0.44200218 1.133
-0.20976354 0.44239229 1.1340001
-0.20905782 0.44512311 1.141
-0.20705727 0.44512311 1.141
-0.20523643 0.44551322 1.1420001
-0.20323412 0.44551322 1.1420001
-0.20123182 0.44551322 1.1420001
-0.19922951 0.44551322 1.1420001
-0.19774531 0.44668359 1.1450001
-0.19573775 0.44668359 1.1450001
-0.19373018 0.44668359 1.1450001
-0.19155517 0.44629347 1.1440001
-0.1903778 0.44824404 1.149
-0.18803535 0.44746381 1.1470001
-0.18602428 0.44746381 1.1470001
-0.18385278 0.4470737 1.146
-0.18184346 0.4470737 1.146
-0.17983414 0.4470737 1.146
-0.17735931 0.44590336 1.143
-0.17535526 0.44590336 1.143
-0.17335118 0.44590336 1.143
-0.17134713 0.44590336 1.143
-0.16978754 0.4470737 1.146
-0.16777822 0.4470737 1.146
-0.16576889 0.4470737 1.146
-0.16347378 0.44629347 1.1440001
-0.16132683 0.44590336 1.143
-0.15932277 0.44590336 1.143
-0.15731871 0.44590336 1.143
-0.15545054 0.44629347 1.1440001
-0.15344472 0.44629347 1.1440001
-0.15104178 0.44512311 1.141
-0.1489106 0.44473299 1.1400001
-0.1469118 0.44473299 1.1400001
-0.14529435 0.44590336 1.143
-0.14316493 0.44551322 1.1420001
-0.14091539 0.44473299 1.1400001
-0.1389166 0.44473299 1.1400001
-0.1369178 0.44473299 1.1400001
-0.13456395 0.44356266 1.1370001
-0.132687 0.44395277 1.138
-0.13069171 0.44395277 1.138
-0.12869641 0.44395277 1.138
-0.12714647 0.44551322 1.1420001
-0.12503459 0.44512311 1.141
-0.12303403 0.44512311 1.141
-0.12145779 0.44668359 1.1450001
-0.11945022 0.44668359 1.1450001
-0.11754522 0.4470737 1.146
-0.1155359 0.4470737 1.146
-0.11352658 0.4470737 1.146
-0.11112802 0.44551322 1.1420001
-0.10912571 0.44551322 1.1420001
-0.10749862 0.4470737 1.146
-0.10502905 0.44512311 1.141
-0.1029382 0.44473299 1.1400001
-0.1009394 0.44473299 1.1400001
-0.098680228 0.44356266 1.1370001
-0.096686691 0.44356266 1.1370001
-0.095026284 0.44512311 1.141
-0.09269961 0.44356266 1.1370001
-0.090785846 0.44395277 1.138
-0.089024626 0.44512311 1.141
-0.08702407 0.44512311 1.141
-0.084949002 0.44473299 1.1400001
-0.082950197 0.44473299 1.1400001
-0.081022412 0.44512311 1.141
-0.079298884 0.44668359 1.1450001
-0.077223815 0.44629347 1.1440001
-0.075218 0.44629347 1.1440001
-0.073404178 0.44746381 1.1470001
-0.071144126 0.44590336 1.143
-0.069019087 0.44512311 1.141
-0.066959798 0.44473299 1.1400001
-0.064961001 0.44473299 1.1400001
-0.062962197 0.44473299 1.1400001
-0.0609634 0.44473299 1.1400001
-0.059171494 0.44629347 1.1440001
-0.057165679 0.44629347 1.1440001
-0.055159867 0.44629347 1.1440001
-0.053107589 0.44590336 1.143
-0.05114824 0.44629347 1.1440001
-0.049142428 0.44629347 1.1440001
-0.046971798 0.44473299 1.1400001
-0.044973001 0.44473299 1.1400001
-0.0429742 0.44473299 1.1400001
-0.041011345 0.44512311 1.141
-0.039010789 0.44512311 1.141
-0.036912926 0.44395277 1.138
-0.034948315 0.44434288 1.1390001
-0.032951269 0.44434288 1.1390001
-0.030899869 0.44356266 1.1370001
-0.028931754 0.44395277 1.138
-0.02693646 0.44395277 1.138
-0.024963083 0.44434288 1.1390001
-0.022966037 0.44434288 1.1390001
-0.021005809 0.44512311 1.141
-0.019005256 0.44512311 1.141
-0.01703451 0.44590336 1.143
-0.01503045 0.44590336 1.143
-0.01306058 0.4470737 1.146
-0.01105126 0.4470737 1.146
-0.0090419399 0.4470737 1.146
-0.0070571667 0.44863418 1.1500001
-0.0050408333 0.44863418 1.1500001
-0.0030245001 0.44863418 1.1500001
-0.0010081667 0.44863418 1.1500001
0.0010081667 0.44863418 1.1500001
0.0030245001 0.44863418 1.1500001
0.0050452165 0.44902429 1.151
0.0070633031 0.44902429 1.151
0.0090892799 0.4494144 1.1520001
0.01110912 0.4494144 1.1520001
0.01312896 0.4494144 1.1520001
0.01516195 0.44980451 1.153
0.01712393 0.44824404 1.149
0.019138509 0.44824404 1.149
0.02111627 0.44746381 1.1470001
0.023147507 0.44785392 1.148
0.025182249 0.44824404 1.149
0.02717316 0.44785392 1.148
0.029185986 0.44785392 1.148
0.031198813 0.44785392 1.148
0.03318271 0.44746381 1.1470001
0.035071049 0.44590336 1.143
0.03707511 0.44590336 1.143
0.03904498 0.44551322 1.1420001
0.041047286 0.44551322 1.1420001
0.043049593 0.44551322 1.1420001
0.045051899 0.44551322 1.1420001
0.046971798 0.44473299 1.1400001
0.048927642 0.44434288 1.1390001
0.051103529 0.44590336 1.143
0.053107589 0.44590336 1.143
0.055159867 0.44629347 1.1440001
0.057165679 0.44629347 1.1440001
0.059378386 0.44785392 1.148
0.061391212 0.44785392 1.148
0.063404039 0.44785392 1.148
0.065416865 0.44785392 1.148
0.067429692 0.44785392 1.148
0.069442518 0.44785392 1.148
0.07133086 0.4470737 1.146
0.073404178 0.44746381 1.1470001
0.075480998 0.44785392 1.148
0.077156313 0.44590336 1.143
0.07916037 0.44590336 1.143
0.081235439 0.44629347 1.1440001
0.08302296 0.44512311 1.141
0.085023515 0.44512311 1.141
0.086947799 0.44473299 1.1400001
0.089024626 0.44512311 1.141
0.091424063 0.4470737 1.146
0.093759499 0.44863418 1.1500001
0.095609263 0.44785392 1.148
0.097622089 0.44785392 1.148
0.099548131 0.44746381 1.1470001
0.1015592 0.44746381 1.1470001
0.10357028 0.44746381 1.1470001
0.10558135 0.44746381 1.1470001
0.10806144 0.4494144 1.1520001
0.11008128 0.4494144 1.1520001
0.11210112 0.4494144 1.1520001
0.11412096 0.4494144 1.1520001
0.11603998 0.44902429 1.151
0.11754522 0.4470737 1.146
0.11955454 0.4470737 1.146
0.12209424 0.44902429 1.151
0.12357318 0.4470737 1.146
0.1255825 0.4470737 1.146
0.12759182 0.4470737 1.146
0.12971424 0.44746381 1.1470001
0.13184014 0.44785392 1.148
0.13338658 0.44629347 1.1440001
0.134919 0.44473299 1.1400001
0.1369178 0.44473299 1.1400001
0.13867289 0.44395277 1.138
0.098277837 0.25279561 0.648
0.099413998 0.25279561 0.648
0.10039499 0.25240549 0.64700001
0.1015294 0.25240549 0.64700001
0.10250513 0.25201535 0.64600003
0.10363778 0.25201535 0.64600003
0.10444607 0.25123513 0.64400005
0.10557521 0.25123513 0.64400005
0.10653867 0.25084502 0.64300001
0.10716373 0.24967466 0.64000005
0.10811667 0.24928455 0.63900006
0.1090661 0.24889444 0.63800001
0.10983932 0.2481142 0.63600004
0.11077999 0.24772409 0.63500005
0.11206956 0.2481142 0.63600004
0.11318468 0.2481142 0.63600004
0.11447952 0.24850431 0.63700002
0.11559639 0.24850431 0.63700002
0.11689649 0.24889444 0.63800001
0.11820009 0.24928455 0.63900006
0.11932047 0.24928455 0.63900006
0.12062933 0.24967466 0.64000005
0.12270265 0.25162524 0.64500004
0.12402554 0.25201535 0.64600003
0.12515819 0.25201535 0.64600003
0.12609535 0.25162524 0.64500004
0.12722625 0.25162524 0.64500004
0.12815815 0.25123513 0.64400005
0.12928729 0.25123513 0.64400005
0.13061894 0.25162524 0.64500004
0.13644791 0.26059794 0.66800004
0.13741311 0.2602078 0.66700006
0.13899814 0.26098806 0.66900003
0.14059016 0.26176828 0.671
0.14176664 0.26176828 0.671
0.1427301 0.26137817 0.67000002
0.14369005 0.26098806 0.66900003
0.1446465 0.26059794 0.66800004
0.14603601 0.26098806 0.66900003
0.14742903 0.26137817 0.67000002
0.14882556 0.26176828 0.671
0.1497785 0.26137817 0.67000002
0.15117854 0.26176828 0.671
0.15235502 0.26176828 0.671
0.15398914 0.26254851 0.67300004
0.15539968 0.26293862 0.67400002
0.15658143 0.26293862 0.67400002
0.15799725 0.26332876 0.67500001
0.15941657 0.26371887 0.67600006
0.16131456 0.26488921 0.67900002
0.16226573 0.2644991 0.67800003
0.16321342 0.26410899 0.67700005
0.16512893 0.26527932 0.68000001
0.16681038 0.26605958 0.68200004
0.16751346 0.26527932 0.68000001
0.16895384 0.26566944 0.68100005
0.17014785 0.26566944 0.68100005
0.17184508 0.26644969 0.68300003
0.17354931 0.26722991 0.68500006
0.17500547 0.26762003 0.68600005
0.17595138 0.26722991 0.68500006
0.17766964 0.26801014 0.68700004
0.17887419 0.26801014 0.68700004
0.18034086 0.26840025 0.68800002
0.1820749 0.26918051 0.69000006
0.18381596 0.26996073 0.69200003
0.18583141 0.27113107 0.69500005
0.18678084 0.27074096 0.69400001
0.18799765 0.27074096 0.69400001
0.18948711 0.27113107 0.69500005
0.19043128 0.27074096 0.69400001
0.19137195 0.27035084 0.69300002
0.192587 0.27035084 0.69300002
0.19380207 0.27035084 0.69300002
0.19501713 0.27035084 0.69300002
0.19651535 0.27074096 0.69400001
0.19773217 0.27074096 0.69400001
0.19952232 0.27152121 0.69600004
0.20103106 0.27191132 0.69700003
0.20283349 0.27269155 0.69900006
0.20857829 0.27542236 0.70600003
0.20981614 0.27542236 0.70600003
0.21075505 0.27503225 0.70500004
0.21229185 0.27542236 0.70600003
0.21292479 0.27464214 0.70400006
0.21415915 0.27464214 0.70400006
0.21631137 0.27581248 0.70700002
0.2181664 0.2765927 0.70900005
0.35185981 0.44356266 1.1370001
0.35229728 0.44161206 1.1320001
0.35428205 0.44161206 1.1320001
0.35595208 0.44122195 1.131
0.3579351 0.44122195 1.131
0.36055458 0.44200218 1.133
0.36254111 0.44200218 1.133
0.36452764 0.44200218 1.133
0.36910209 0.44512311 1.141
0.37175313 0.44590336 1.143
0.37375718 0.44590336 1.143
0.37576124 0.44590336 1.143
0.37743479 0.44551322 1.1420001
0.37910485 0.44512311 1.141
0.38110539 0.44512311 1.141
0.38478479 0.4470737 1.146
0.38679409 0.4470737 1.146
0.38846415 0.44668359 1.1450001
0.39047173 0.44668359 1.1450001
0.39247927 0.44668359 1.1450001
0.39448684 0.44668359 1.1450001
0.39614815 0.44629347 1.1440001
0.3978059 0.44590336 1.143
0.39980996 0.44590336 1.143
0.4014625 0.44551322 1.1420001
0.40346479 0.44551322 1.1420001
0.40546709 0.44551322 1.1420001
0.40782622 0.44590336 1.143
0.40983027 0.44590336 1.143
0.41183433 0.44590336 1.143
0.41275221 0.44473299 1.1400001
0.41475099 0.44473299 1.1400001
0.41528752 0.44317254 1.136
0.4172793 0.44317254 1.136
0.42111647 0.44512311 1.141
0.42126289 0.44317254 1.136
0.42288208 0.4427824 1.1350001
0.42412344 0.44200218 1.133
0.42761433 0.44356266 1.1370001
0.4299857 0.44395277 1.138
0.4334994 0.44551322 1.1420001
0.43550169 0.44551322 1.1420001
0.43750399 0.44551322 1.1420001
0.43950632 0.44551322 1.1420001
0.44034877 0.44434288 1.1390001
0.44195747 0.44395277 1.138
0.44200218 0.44200218 1.133
0.44398871 0.44200218 1.133
0.44636884 0.44239229 1.1340001
0.44835714 0.44239229 1.1340001
0.45034543 0.44239229 1.1340001
0.45273259 0.4427824 1.1350001
0.45472261 0.4427824 1.1350001
0.4583222 0.44434288 1.1390001
0.45829853 0.44239229 1.1340001
0.46028683 0.44239229 1.1340001
0.46431336 0.44434288 1.1390001
0.46631038 0.44434288 1.1390001
0.46789628 0.44395277 1.138
0.46823993 0.44239229 1.1340001
0.46939889 0.44161206 1.1320001
0.47221649 0.44239229 1.1340001
0.47504112 0.44317254 1.136
0.47871259 0.44473299 1.1400001
0.4807114 0.44473299 1.1400001
0.48101649 0.44317254 1.136
0.48258308 0.4427824 1.1350001
0.48628086 0.44434288 1.1390001
0.48827791 0.44434288 1.1390001
0.49027497 0.44434288 1.1390001
0.4914076 0.44356266 1.1370001
0.49340114 0.44356266 1.1370001
0.49365187 0.44200218 1.133
0.4956384 0.44200218 1.133
0.49674651 0.44122195 1.131
0.49872953 0.44122195 1.131
0.50336885 0.44356266 1.1370001
0.50536239 0.44356266 1.1370001
0.50735593 0.44356266 1.1370001
0.51248533 0.44629347 1.1440001
0.51539057 0.4470737 1.146
0.51739991 0.4470737 1.146
0.51895601 0.44668359 1.1450001
0.52096355 0.44668359 1.1450001
0.5216009 0.44551322 1.1420001
0.52176923 0.44395277 1.138
0.52192348 0.44239229 1.1340001
0.52344978 0.44200218 1.133
0.5272913 0.44356266 1.1370001
0.52975035 0.44395277 1.138
0.53174567 0.44395277 1.138
0.53374094 0.44395277 1.138
0.53573626 0.44395277 1.138
0.54009414 0.44590336 1.143
0.54304677 0.44668359 1.1450001
0.54315025 0.44512311 1.141
0.54562855 0.44551322 1.1420001
0.54715133 0.44512311 1.141
0.54674542 0.44317254 1.136
0.54922026 0.44356266 1.1370001
0.5512138 0.44356266 1.1370001
0.55320734 0.44356266 1.1370001
0.55520087 0.44356266 1.1370001
0.55768448 0.44395277 1.138
0.55967975 0.44395277 1.138
0.56167507 0.44395277 1.138
0.56367034 0.44395277 1.138
0.56566566 0.44395277 1.138
-0.21355161 0.44398871 1.133
-0.21156509 0.44398871 1.133
-0.20976354 0.44438058 1.1340001
-0.20777526 0.44438058 1.1340001
-0.20669433 0.44633994 1.1390001
-0.204877 0.44673181 1.1400001
-0.20270024 0.44633994 1.1390001
-0.19999835 0.44477245 1.1350001
-0.19853169 0.44594806 1.138
-0.19774531 0.44869116 1.1450001
-0.19573775 0.44869116 1.1450001
-0.19356099 0.44829929 1.1440001
-0.19155517 0.44829929 1.1440001
-0.18971504 0.44869116 1.1450001
-0.18787141 0.44908303 1.146
-0.18586209 0.44908303 1.146
-0.18337148 0.44790742 1.143
-0.18136743 0.44790742 1.143
-0.17936337 0.44790742 1.143
-0.17735931 0.44790742 1.143
-0.17535526 0.44790742 1.143
-0.17274454 0.44633994 1.1390001
-0.17074749 0.44633994 1.1390001
-0.16934307 0.44790742 1.143
-0.16733901 0.44790742 1.143
-0.16519029 0.44751555 1.1420001
-0.16304509 0.44712368 1.141
-0.16132683 0.44790742 1.143
-0.15932277 0.44790742 1.143
-0.15704344 0.44712368 1.141
-0.15504289 0.44712368 1.141
-0.15290821 0.44673181 1.1400001
-0.15090939 0.44673181 1.1400001
-0.1483881 0.44516432 1.136
-0.14639632 0.44516432 1.136
-0.144913 0.44673181 1.1400001
-0.14278884 0.44633994 1.1390001
-0.14079179 0.44633994 1.1390001
-0.13806361 0.44398871 1.133
-0.13619718 0.44438058 1.1340001
-0.13409054 0.44398871 1.133
-0.13210402 0.44398871 1.133
-0.13057686 0.44555619 1.1370001
-0.12858333 0.44555619 1.1370001
-0.12658979 0.44555619 1.1370001
-0.12459625 0.44555619 1.1370001
-0.12260271 0.44555619 1.1370001
-0.1209274 0.44673181 1.1400001
-0.1193459 0.44829929 1.1440001
-0.11754522 0.44908303 1.146
-0.1155359 0.44908303 1.146
-0.11352658 0.44908303 1.146
-0.11112802 0.44751555 1.1420001
-0.10912571 0.44751555 1.1420001
-0.1071234 0.44751555 1.1420001
-0.10466085 0.44555619 1.1370001
-0.1027576 0.44594806 1.138
-0.10067377 0.44555619 1.1370001
-0.098680228 0.44555619 1.1370001
-0.096686691 0.44555619 1.1370001
-0.094693147 0.44555619 1.1370001
-0.09269961 0.44555619 1.1370001
-0.090785846 0.44594806 1.138
-0.088868573 0.44633994 1.1390001
-0.086795263 0.44594806 1.138
-0.084799968 0.44594806 1.138
-0.082804672 0.44594806 1.138
-0.0809514 0.44673181 1.1400001
-0.078952603 0.44673181 1.1400001
-0.076953799 0.44673181 1.1400001
-0.075086497 0.44751555 1.1420001
-0.073148191 0.44790742 1.143
-0.071144126 0.44790742 1.143
-0.068898112 0.44633994 1.1390001
-0.066783592 0.44555619 1.1370001
-0.064961001 0.44673181 1.1400001
-0.06274128 0.44516432 1.136
-0.060749494 0.44516432 1.136
-0.058757707 0.44516432 1.136
-0.056965798 0.44673181 1.1400001
-0.054967001 0.44673181 1.1400001
-0.052921735 0.44633994 1.1390001
-0.05114824 0.44829929 1.1440001
-0.049142428 0.44829929 1.1440001
-0.046971798 0.44673181 1.1400001
-0.044973001 0.44673181 1.1400001
-0.0429742 0.44673181 1.1400001
-0.041047286 0.44751555 1.1420001
-0.038908221 0.44594806 1.138
-0.036912926 0.44594806 1.138
-0.034948315 0.44633994 1.1390001
-0.032922339 0.44594806 1.138
-0.030927047 0.44594806 1.138
-0.028931754 0.44594806 1.138
-0.02684178 0.44438058 1.1340001
-0.0248535 0.44438058 1.1340001
-0.022885384 0.44477245 1.1350001
-0.02095058 0.44594806 1.138
-0.018971942 0.44633994 1.1390001
-0.017049413 0.44829929 1.1440001
-0.0150436 0.44829929 1.1440001
-0.013014994 0.44751555 1.1420001
-0.011041617 0.44869116 1.1450001
-0.0090340497 0.44869116 1.1450001
-0.0070571667 0.45065048 1.1500001
-0.0050408333 0.45065048 1.1500001
-0.0030245001 0.45065048 1.1500001
-0.0010081667 0.45065048 1.1500001
0.0010081667 0.45065048 1.1500001
0.0030245001 0.45065048 1.1500001
0.0050408333 0.45065048 1.1500001
0.0070633031 0.45104235 1.151
0.0090813898 0.45104235 1.151
0.01105126 0.44908303 1.146
0.01306058 0.44908303 1.146
0.0150962 0.44986677 1.148
0.017049413 0.44829929 1.1440001
0.019055227 0.44829929 1.1440001
0.02104263 0.44790742 1.143
0.023046689 0.44790742 1.143
0.025160333 0.44986677 1.148
0.02717316 0.44986677 1.148
0.029160563 0.4494749 1.1470001
0.031062929 0.44790742 1.143
0.033066988 0.44790742 1.143
0.035071049 0.44790742 1.143
0.03707511 0.44790742 1.143
0.039010789 0.44712368 1.141
0.040903512 0.44594806 1.138
0.042861111 0.44555619 1.1370001
0.044815201 0.44516432 1.136
0.046930596 0.44633994 1.1390001
0.048884686 0.44594806 1.138
0.051058821 0.44751555 1.1420001
0.053107589 0.44790742 1.143
0.055159867 0.44829929 1.1440001
0.057165679 0.44829929 1.1440001
0.059378386 0.44986677 1.148
0.061391212 0.44986677 1.148
0.063183121 0.44829929 1.1440001
0.065188929 0.44829929 1.1440001
0.067194745 0.44829929 1.1440001
0.06920056 0.44829929 1.1440001
0.071393102 0.4494749 1.1470001
0.073212184 0.44829929 1.1440001
0.075218 0.44829929 1.1440001
0.077223815 0.44829929 1.1440001
0.078952603 0.44673181 1.1400001
0.081022412 0.44712368 1.141
0.08302296 0.44712368 1.141
0.085023515 0.44712368 1.141
0.087100342 0.44751555 1.1420001
0.088946596 0.44673181 1.1400001
0.0909454 0.44673181 1.1400001
0.093270317 0.44829929 1.1440001
0.095276132 0.44829929 1.1440001
0.097196907 0.44790742 1.143
0.09911418 0.44751555 1.1420001
0.10111649 0.44751555 1.1420001
0.10347998 0.44908303 1.146
0.10558135 0.4494749 1.1470001
0.10768623 0.44986677 1.148
0.10960349 0.4494749 1.1470001
0.11161457 0.4494749 1.1470001
0.11362565 0.4494749 1.1470001
0.11563671 0.4494749 1.1470001
0.11754522 0.44908303 1.146
0.11945022 0.44869116 1.1450001
0.12156386 0.44908303 1.146
0.12314186 0.44751555 1.1420001
0.12514417 0.44751555 1.1420001
0.12714647 0.44751555 1.1420001
0.12869641 0.44594806 1.138
0.13103624 0.44712368 1.141
0.13303679 0.44712368 1.141
0.13456395 0.44555619 1.1370001
0.13655749 0.44555619 1.1370001
0.13842918 0.44516432 1.136
0.099413998 0.25393176 0.648
0.10055016 0.25393176 0.648
0.1015294 0.25353989 0.64700001
0.10250513 0.25314802 0.64600003
0.10363778 0.25314802 0.64600003
0.10460825 0.25275615 0.64500004
0.10557521 0.25236428 0.64400005
0.10653867 0.25197241 0.64300001
0.10749862 0.25158054 0.64200002
0.10828587 0.25079679 0.64000005
0.10923705 0.25040492 0.63900006
0.11018473 0.25001305 0.63800001
0.11095444 0.24922931 0.63600004
0.11189335 0.24883744 0.63500005
0.11300672 0.24883744 0.63500005
0.1142998 0.24922931 0.63600004
0.11541492 0.24922931 0.63600004
0.11671326 0.24962118 0.63700002
0.11801511 0.25001305 0.63800001
0.11932047 0.25040492 0.63900006
0.12062933 0.25079679 0.64000005
0.12517573 0.25785047 0.65800005
0.1247935 0.2547155 0.65000004
0.12573943 0.25432363 0.64900005
0.12668183 0.25393176 0.648
0.12762076 0.25353989 0.64700001
0.12835714 0.25275615 0.64500004
0.12928729 0.25236428 0.64400005
0.13527668 0.26176915 0.66800004
0.13665217 0.26216102 0.66900003
0.13741311 0.26137727 0.66700006
0.13899814 0.26216102 0.66900003
0.14059016 0.26294476 0.671
0.14176664 0.26294476 0.671
0.1427301 0.26255289 0.67000002
0.14369005 0.26216102 0.66900003
0.14486302 0.26216102 0.66900003
0.14581771 0.26176915 0.66800004
0.14764908 0.26294476 0.671
0.14882556 0.26294476 0.671
0.1497785 0.26255289 0.67000002
0.15162914 0.2637285 0.67300004
0.15303619 0.26412037 0.67400002
0.15421794 0.26412037 0.67400002
0.15563025 0.26451224 0.67500001
0.15681376 0.26451224 0.67500001
0.15846539 0.26529598 0.67700005
0.1596524 0.26529598 0.67700005
0.16155213 0.26647159 0.68000001
0.1627444 0.26647159 0.68000001
0.16465992 0.26764721 0.68300003
0.16585745 0.26764721 0.68300003
0.16729955 0.26803908 0.68400002
0.16899152 0.26882282 0.68600005
0.17019431 0.26882282 0.68600005
0.17089739 0.26803908 0.68400002
0.17259988 0.26882282 0.68600005
0.17405602 0.26921469 0.68700004
0.17551568 0.26960656 0.68800002
0.17620824 0.26882282 0.68600005
0.17766964 0.26921469 0.68700004
0.1796553 0.2703903 0.69000006
0.18112722 0.27078217 0.69100004
0.18286653 0.27156591 0.69300002
0.18487848 0.27274153 0.69600004
0.1860988 0.27274153 0.69600004
0.18704998 0.27234966 0.69500005
0.18853945 0.27274153 0.69600004
0.18921447 0.27195778 0.69400001
0.19043128 0.27195778 0.69400001
0.19137195 0.27156591 0.69300002
0.19230911 0.27117404 0.69200003
0.19408172 0.27195778 0.69400001
0.19473572 0.27117404 0.69200003
0.19623218 0.27156591 0.69300002
0.19801708 0.27234966 0.69500005
0.33354801 0.44242123 1.1290001
0.33671626 0.44398871 1.133
0.3387028 0.44398871 1.133
0.34068933 0.44398871 1.133
0.3435832 0.44516432 1.136
0.3458792 0.44555619 1.1370001
0.34909657 0.44712368 1.141
0.34986627 0.44555619 1.1370001
0.35185981 0.44555619 1.1370001
0.35229728 0.44359684 1.1320001
0.35428205 0.44359684 1.1320001
0.3562668 0.44359684 1.1320001
0.35825157 0.44359684 1.1320001
0.36055458 0.44398871 1.133
0.36254111 0.44398871 1.133
0.36452764 0.44398871 1.133
0.36910209 0.44712368 1.141
0.37175313 0.44790742 1.143
0.37375718 0.44790742 1.143
0.37576124 0.44790742 1.143
0.37743479 0.44751555 1.1420001
0.37910485 0.44712368 1.141
0.38110539 0.44712368 1.141
0.38444901 0.44869116 1.1450001
0.38645658 0.44869116 1.1450001
0.38846415 0.44869116 1.1450001
0.39047173 0.44869116 1.1450001
0.39247927 0.44869116 1.1450001
0.39448684 0.44869116 1.1450001
0.39580184 0.44790742 1.143
0.3978059 0.44790742 1.143
0.39980996 0.44790742 1.143
0.40111095 0.44712368 1.141
0.40311149 0.44712368 1.141
0.40404689 0.44594806 1.138
0.40639898 0.44633994 1.1390001
0.40839604 0.44633994 1.1390001
0.41039309 0.44633994 1.1390001
0.41311425 0.44712368 1.141
0.41511482 0.44712368 1.141
0.41674981 0.44673181 1.1400001
0.41691199 0.44477245 1.1350001
0.41927108 0.44516432 1.136
0.42089206 0.44477245 1.1350001
0.42139176 0.44320497 1.131
0.42300043 0.4428131 1.13
0.42610997 0.44398871 1.133
0.42960787 0.44555619 1.1370001
0.43160141 0.44555619 1.1370001
0.43359494 0.44555619 1.1370001
0.43712091 0.44712368 1.141
0.43873659 0.44673181 1.1400001
0.44034877 0.44633994 1.1390001
0.44195747 0.44594806 1.138
0.44200218 0.44398871 1.133
0.44438058 0.44438058 1.1340001
0.44597524 0.44398871 1.133
0.44796175 0.44398871 1.133
0.44994828 0.44398871 1.133
0.45233369 0.44438058 1.1340001
0.45472261 0.44477245 1.1350001
0.45671263 0.44477245 1.1350001
0.45829853 0.44438058 1.1340001
0.46028683 0.44438058 1.1340001
0.46186745 0.44398871 1.133
0.46385399 0.44398871 1.133
0.46584049 0.44398871 1.133
0.46617538 0.44242123 1.1290001
0.46774024 0.44202936 1.128
0.46971801 0.44202936 1.128
0.47295028 0.44320497 1.131
0.4770329 0.44516432 1.136
0.47902468 0.44516432 1.136
0.48101649 0.44516432 1.136
0.48258308 0.44477245 1.1350001
0.48457313 0.44477245 1.1350001
0.48827791 0.44633994 1.1390001
0.4898445 0.44594806 1.138
0.49097541 0.44516432 1.136
0.49166533 0.44398871 1.133
0.49365187 0.44398871 1.133
0.49432603 0.4428131 1.13
0.49542889 0.44202936 1.128
0.49740663 0.44202936 1.128
0.50071257 0.44320497 1.131
0.50225109 0.4428131 1.13
0.50423235 0.4428131 1.13
0.51024544 0.44633994 1.1390001
0.51269221 0.44673181 1.1400001
0.514691 0.44673181 1.1400001
0.51850277 0.44829929 1.1440001
0.52050853 0.44829929 1.1440001
0.5216009 0.44751555 1.1420001
0.52176923 0.44594806 1.138
0.52146327 0.44398871 1.133
0.52344978 0.44398871 1.133
0.52682757 0.44516432 1.136
0.52928489 0.44555619 1.1370001
0.53127843 0.44555619 1.1370001
0.53374094 0.44594806 1.138
0.53573626 0.44594806 1.138
0.53820407 0.44633994 1.1390001
0.54114968 0.44712368 1.141
0.54315025 0.44712368 1.141
0.54371744 0.44594806 1.138
0.54331505 0.44398871 1.133
0.54626417 0.44477245 1.1350001
0.54873723 0.44516432 1.136
0.5512138 0.44555619 1.1370001
0.55320734 0.44555619 1.1370001
0.55520087 0.44555619 1.1370001
0.55719441 0.44555619 1.1370001
0.5572207 0.44398871 1.133
0.55970079 0.44438058 1.1340001
0.56367034 0.44594806 1.138
0.56367737 0.44438058 1.1340001
-0.21355161 0.44597524 1.133
-0.21156509 0.44597524 1.133
-0.20976354 0.44636884 1.1340001
-0.20777526 0.44636884 1.1340001
-0.20651285 0.44794336 1.138
-0.204877 0.44873059 1.1400001
-0.20287819 0.44873059 1.1400001
-0.19982214 0.44636884 1.1340001
-0.19800831 0.44676247 1.1350001
-0.19739991 0.44991148 1.143
-0.19539584 0.44991148 1.143
-0.19305339 0.44912422 1.141
-0.19105284 0.44912422 1.141
-0.18905228 0.44912422 1.141
-0.18754354 0.4503051 1.1440001
-0.18569991 0.4506987 1.1450001
-0.18305063 0.44912422 1.141
-0.18120876 0.44951785 1.1420001
-0.17920645 0.44951785 1.1420001
-0.17720413 0.44951785 1.1420001
-0.17535526 0.44991148 1.143
-0.17274454 0.44833699 1.1390001
-0.17059758 0.44794336 1.138
-0.16904676 0.44912422 1.141
-0.1670462 0.44912422 1.141
-0.16504565 0.44912422 1.141
-0.16290221 0.44873059 1.1400001
-0.16132683 0.44991148 1.143
-0.15932277 0.44991148 1.143
-0.1569058 0.44873059 1.1400001
-0.154907 0.44873059 1.1400001
-0.15290821 0.44873059 1.1400001
-0.15090939 0.44873059 1.1400001
-0.1483881 0.4471561 1.136
-0.14639632 0.4471561 1.136
-0.144913 0.44873059 1.1400001
-0.14278884 0.44833699 1.1390001
-0.14079179 0.44833699 1.1390001
-0.13806361 0.44597524 1.133
-0.13619718 0.44636884 1.1340001
-0.1342089 0.44636884 1.1340001
-0.13210402 0.44597524 1.133
-0.13057686 0.44754973 1.1370001
-0.12847024 0.4471561 1.136
-0.12658979 0.44754973 1.1370001
-0.12459625 0.44754973 1.1370001
-0.12249488 0.4471561 1.136
-0.1209274 0.44873059 1.1400001
-0.1193459 0.4503051 1.1440001
-0.11754522 0.45109233 1.146
-0.1155359 0.45109233 1.146
-0.11342751 0.4506987 1.1450001
-0.1109334 0.44873059 1.1400001
-0.10903016 0.44912422 1.141
-0.1070296 0.44912422 1.141
-0.10466085 0.44754973 1.1370001
-0.1027576 0.44794336 1.138
-0.10067377 0.44754973 1.1370001
-0.098680228 0.44754973 1.1370001
-0.096686691 0.44754973 1.1370001
-0.094693147 0.44754973 1.1370001
-0.09269961 0.44754973 1.1370001
-0.090785846 0.44794336 1.138
-0.088868573 0.44833699 1.1390001
-0.086795263 0.44794336 1.138
-0.084799968 0.44794336 1.138
-0.082804672 0.44794336 1.138
-0.0809514 0.44873059 1.1400001
-0.078952603 0.44873059 1.1400001
-0.076953799 0.44873059 1.1400001
-0.075086497 0.44951785 1.1420001
-0.073148191 0.44991148 1.143
-0.071144126 0.44991148 1.143
-0.068898112 0.44833699 1.1390001
-0.066783592 0.44754973 1.1370001
-0.064961001 0.44873059 1.1400001
-0.06274128 0.4471561 1.136
-0.060696017 0.44676247 1.1350001
-0.058705982 0.44676247 1.1350001
-0.056915831 0.44833699 1.1390001
-0.054918785 0.44833699 1.1390001
-0.052875273 0.44794336 1.138
-0.051103529 0.44991148 1.143
-0.049099471 0.44991148 1.143
-0.046971798 0.44873059 1.1400001
-0.044973001 0.44873059 1.1400001
-0.0429742 0.44873059 1.1400001
-0.041047286 0.44951785 1.1420001
-0.038908221 0.44794336 1.138
-0.036912926 0.44794336 1.138
-0.034948315 0.44833699 1.1390001
-0.032951269 0.44833699 1.1390001
-0.030927047 0.44794336 1.138
-0.02890633 0.44754973 1.1370001
-0.02684178 0.44636884 1.1340001
-0.0248535 0.44636884 1.1340001
-0.022885384 0.44676247 1.1350001
-0.02093217 0.44754973 1.1370001
-0.018971942 0.44833699 1.1390001
-0.017049413 0.4503051 1.1440001
-0.0150436 0.4503051 1.1440001
-0.013014994 0.44951785 1.1420001
-0.011041617 0.4506987 1.1450001
-0.0090340497 0.4506987 1.1450001
-0.0070571667 0.45266682 1.1500001
-0.0050408333 0.45266682 1.1500001
-0.0030245001 0.45266682 1.1500001
-0.0010081667 0.45266682 1.1500001
0.0010081667 0.45266682 1.1500001
0.0030245001 0.45266682 1.1500001
0.0050408333 0.45266682 1.1500001
0.0070510302 0.45227322 1.149
0.0090656104 0.45227322 1.149
0.01105126 0.45109233 1.146
0.01306058 0.45109233 1.146
0.01508305 0.45148596 1.1470001
0.01703451 0.44991148 1.143
0.019038569 0.44991148 1.143
0.02104263 0.44991148 1.143
0.023046689 0.44991148 1.143
0.025138417 0.45148596 1.1470001
0.027125821 0.45109233 1.146
0.02913514 0.45109233 1.146
0.031035753 0.44951785 1.1420001
0.033066988 0.44991148 1.143
0.035071049 0.44991148 1.143
0.037042674 0.44951785 1.1420001
0.039010789 0.44912422 1.141
0.040903512 0.44794336 1.138
0.042861111 0.44754973 1.1370001
0.044815201 0.4471561 1.136
0.046889395 0.44794336 1.138
0.048884686 0.44794336 1.138
0.051058821 0.44951785 1.1420001
0.053107589 0.44991148 1.143
0.055159867 0.4503051 1.1440001
0.057165679 0.4503051 1.1440001
0.059378386 0.45187959 1.148
0.061391212 0.45187959 1.148
0.063183121 0.4503051 1.1440001
0.065188929 0.4503051 1.1440001
0.067194745 0.4503051 1.1440001
0.06920056 0.4503051 1.1440001
0.071393102 0.45148596 1.1470001
0.073212184 0.4503051 1.1440001
0.075218 0.4503051 1.1440001
0.077223815 0.4503051 1.1440001
0.078952603 0.44873059 1.1400001
0.081093423 0.44951785 1.1420001
0.083095729 0.44951785 1.1420001
0.085098036 0.44951785 1.1420001
0.087100342 0.44951785 1.1420001
0.088946596 0.44873059 1.1400001
0.0909454 0.44873059 1.1400001
0.093270317 0.4503051 1.1440001
0.095276132 0.4503051 1.1440001
0.097196907 0.44991148 1.143
0.09911418 0.44951785 1.1420001
0.10111649 0.44951785 1.1420001
0.10347998 0.45109233 1.146
0.10558135 0.45148596 1.1470001
0.10768623 0.45187959 1.148
0.10960349 0.45148596 1.1470001
0.11161457 0.45148596 1.1470001
0.11362565 0.45148596 1.1470001
0.11563671 0.45148596 1.1470001
0.11744265 0.4506987 1.1450001
0.11945022 0.4506987 1.1450001
0.12156386 0.45109233 1.146
0.12314186 0.44951785 1.1420001
0.12514417 0.44951785 1.1420001
0.12714647 0.44951785 1.1420001
0.12869641 0.44794336 1.138
0.13103624 0.44912422 1.141
0.13303679 0.44912422 1.141
0.13456395 0.44754973 1.1370001
0.13655749 0.44754973 1.1370001
0.13830732 0.44676247 1.1350001
0.14042096 0.4471561 1.136
0.10055016 0.25506791 0.648
0.1015294 0.25467429 0.64700001
0.1026638 0.25467429 0.64700001
0.10363778 0.25428069 0.64600003
0.10444607 0.25349343 0.64400005
0.10557521 0.25349343 0.64400005
0.10653867 0.2530998 0.64300001
0.10766606 0.2530998 0.64300001
0.10862426 0.25270617 0.64200002
0.10923705 0.25152531 0.63900006
0.11018473 0.25113168 0.63800001
0.1111289 0.25073805 0.63700002
0.11206956 0.25034443 0.63600004
