# .PCD v0.7 - Point Cloud Data file format
VERSION 0.7
FIELDS x y z
SIZE 4 4 4
TYPE F F F
COUNT 1 1 1
WIDTH 909
HEIGHT 1
VIEWPOINT 0 0 0 1 0 0 0
POINTS 909
DATA ascii
0.2076648 0.091523997 0.72000003
0.20921737 0.091651119 0.72100002
0.21048152 0.091651119 0.72100002
0.34659892 0.14237067 1.12
0.34731779 0.1418622 1.1160001
0.34927452 0.1418622 1.1160001
0.35123125 0.1418622 1.1160001
0.35318795 0.1418622 1.1160001
0.35546291 0.14198932 1.1170001
0.35614145 0.14148085 1.113
0.35680595 0.14097238 1.1090001
0.35680947 0.14020969 1.103
0.35841814 0.14008257 1.102
0.3619853 0.14071815 1.107
0.36392626 0.14071815 1.107
0.3658672 0.14071815 1.107
0.36780813 0.14071815 1.107
0.36974907 0.14071815 1.107
0.37169001 0.14071815 1.107
0.37565604 0.14148085 1.113
0.37625042 0.14097238 1.1090001
0.37819487 0.14097238 1.1090001
0.38288152 0.14198932 1.1170001
0.38380641 0.14160797 1.1140001
0.3843745 0.1410995 1.11
0.38666874 0.14122662 1.1110001
0.20737638 0.092657529 0.71900004
0.20921737 0.092915267 0.72100002
0.21048152 0.092915267 0.72100002
0.34463519 0.14433441 1.12
0.34659892 0.14433441 1.12
0.34731779 0.14381891 1.1160001
0.34833559 0.1434323 1.113
0.35028708 0.1434323 1.113
0.35097262 0.14291683 1.1090001
0.35291708 0.14291683 1.1090001
0.35358158 0.14240135 1.105
0.35455382 0.14201474 1.102
0.35680947 0.14214361 1.103
0.35841814 0.14201474 1.102
0.36100432 0.14227247 1.1040001
0.36392626 0.14265908 1.107
0.3658672 0.14265908 1.107
0.36681136 0.14227247 1.1040001
0.36874703 0.14227247 1.1040001
0.37034696 0.14214361 1.103
0.37295592 0.14240135 1.105
0.37387553 0.14201474 1.102
0.3758077 0.14201474 1.102
0.37911099 0.14253022 1.1060001
0.38105017 0.14253022 1.1060001
0.38195053 0.14214361 1.103
0.38388443 0.14214361 1.103
0.20708795 0.093787551 0.71800005
0.20921737 0.094179422 0.72100002
0.21048152 0.094179422 0.72100002
0.21233305 0.094440669 0.72300005
0.34463519 0.14629813 1.12
0.34659892 0.14629813 1.12
0.34638414 0.14538378 1.113
0.34708372 0.14486128 1.1090001
0.34902817 0.14486128 1.1090001
0.34970671 0.14433879 1.105
0.35164416 0.14433879 1.105
0.35262164 0.14394692 1.102
0.35455382 0.14394692 1.102
0.35551551 0.14355505 1.0990001
0.35646668 0.14316317 1.0960001
0.35871536 0.1432938 1.097
0.36162499 0.14368567 1.1
0.36487567 0.14420816 1.1040001
0.36548233 0.14368567 1.1
0.36607495 0.14316317 1.0960001
0.3679966 0.14316317 1.0960001
0.36958075 0.14303255 1.095
0.37150064 0.14303255 1.095
0.37342054 0.14303255 1.095
0.37568322 0.14316317 1.0960001
0.37760487 0.14316317 1.0960001
0.38056538 0.14355505 1.0990001
0.3824923 0.14355505 1.0990001
0.20737638 0.09517882 0.71900004
0.2089272 0.095311202 0.72000003
0.21048152 0.095443577 0.72100002
0.21262673 0.095840707 0.72400004
0.34659892 0.14826186 1.12
0.34638414 0.14733523 1.113
0.34708372 0.14680572 1.1090001
0.34902817 0.14680572 1.1090001
0.3487573 0.14587909 1.102
0.35068947 0.14587909 1.102
0.35262164 0.14587909 1.102
0.3510147 0.14442295 1.0910001
0.35357457 0.1446877 1.0930001
0.35418999 0.14415818 1.0890001
0.35642636 0.14429057 1.09
0.35965249 0.14482008 1.0940001
0.36124015 0.1446877 1.0930001
0.36315653 0.1446877 1.0930001
0.3637369 0.14415818 1.0890001
0.36531049 0.14402582 1.0880001
0.36924323 0.14482008 1.0940001
0.36878648 0.14389344 1.087
0.36932826 0.14336392 1.0830001
0.37122712 0.14336392 1.0830001
0.373126 0.14336392 1.0830001
0.37502486 0.14336392 1.0830001
0.38179621 0.1452172 1.097
0.20737638 0.096439466 0.71900004
0.20950755 0.096841857 0.72200006
0.21077345 0.096841857 0.72200006
0.21233305 0.09697599 0.72300005
0.21360071 0.09697599 0.72300005
0.28569689 0.12313134 0.91800004
0.34489295 0.14781126 1.102
0.34682512 0.14781126 1.102
0.3487573 0.14781126 1.102
0.35068947 0.14781126 1.102
0.35262164 0.14781126 1.102
0.3510147 0.14633583 1.0910001
0.35131013 0.14566518 1.0860001
0.35093755 0.14472628 1.079
0.35184842 0.14432389 1.0760001
0.353735 0.14432389 1.0760001
0.36024863 0.1462017 1.09
0.36149526 0.14593343 1.0880001
0.36240086 0.14553104 1.085
0.35389456 0.14137302 1.054
0.3564176 0.14164127 1.056
0.36166182 0.14298257 1.0660001
0.36353087 0.14298257 1.0660001
0.3643716 0.1425802 1.0630001
0.36623538 0.1425802 1.0630001
0.36809918 0.1425802 1.0630001
0.36996296 0.1425802 1.0630001
0.20737638 0.097700119 0.71900004
0.20921737 0.097971886 0.72100002
0.21048152 0.097971886 0.72100002
0.21115832 0.097700119 0.71900004
0.2127144 0.097836003 0.72000003
0.28730646 0.1247409 0.91800004
0.28828657 0.12446913 0.91600007
0.28989261 0.12446913 0.91600007
0.29149869 0.12446913 0.91600007
0.34046227 0.14457987 1.064
0.34425822 0.14539516 1.0700001
0.34645778 0.14553104 1.0710001
0.34833559 0.14553104 1.0710001
0.34759745 0.14444399 1.0630001
0.34814626 0.14390045 1.059
0.34901151 0.1434928 1.056
0.35086304 0.1434928 1.056
0.35171252 0.14308515 1.0530001
0.35355878 0.14308515 1.0530001
0.35540506 0.14308515 1.0530001
0.35826913 0.1434928 1.056
0.36114371 0.14390045 1.059
0.36265773 0.14376457 1.0580001
0.36451274 0.14376457 1.0580001
0.36567521 0.1434928 1.056
0.36752671 0.1434928 1.056
0.20737638 0.098960765 0.71900004
0.20921737 0.099236034 0.72100002
0.21077345 0.099373676 0.72200006
0.21115832 0.098960765 0.71900004
0.2127144 0.099098399 0.72000003
0.273783 0.123873 0.90000004
0.275361 0.123873 0.90000004
0.27786213 0.12428591 0.90300006
0.28377786 0.12621282 0.91700006
0.28538567 0.12621282 0.91700006
0.28699347 0.12621282 0.91700006
0.28797185 0.12593755 0.91500002
0.28957614 0.12593755 0.91500002
0.29118046 0.12593755 0.91500002
0.34046227 0.14644541 1.064
0.3423278 0.14644541 1.064
0.34484035 0.14672069 1.0660001
0.34638414 0.14658305 1.0650001
0.34759745 0.14630778 1.0630001
0.34814626 0.14575723 1.059
0.34901151 0.14534432 1.056
0.35086304 0.14534432 1.056
0.35171252 0.14493141 1.0530001
0.35355878 0.14493141 1.0530001
0.35540506 0.14493141 1.0530001
0.35826913 0.14534432 1.056
0.36012062 0.14534432 1.056
0.36094382 0.14493141 1.0530001
0.36382368 0.14534432 1.056
0.36359751 0.14451849 1.0500001
0.36543849 0.14451849 1.0500001
0.20795321 0.10050019 0.72100002
0.20921737 0.10050019 0.72100002
0.21106538 0.10077897 0.72300005
0.21174568 0.10050019 0.72100002
0.273783 0.125451 0.90000004
0.275361 0.125451 0.90000004
0.27786213 0.12586917 0.90300006
0.28006431 0.12614796 0.90500003
0.28320718 0.1268449 0.91000003
0.28699347 0.12782063 0.91700006
0.28765711 0.12740245 0.91400003
0.28957614 0.12754185 0.91500002
0.29118046 0.12754185 0.91500002
0.34046227 0.14831096 1.064
0.3423278 0.14831096 1.064
0.34451684 0.14845034 1.0650001
0.34638414 0.14845034 1.0650001
0.34759745 0.14817157 1.0630001
0.34716001 0.14719585 1.056
0.34901151 0.14719585 1.056
0.34986627 0.14677767 1.0530001
0.35037649 0.1462201 1.049
0.35221574 0.1462201 1.049
0.35405499 0.1462201 1.049
0.35589424 0.1462201 1.049
0.35807449 0.1463595 1.0500001
0.35991549 0.1463595 1.0500001
0.3617565 0.1463595 1.0500001
0.36359751 0.1463595 1.0500001
0.36578652 0.14649889 1.051
0.2076648 0.1016232 0.72000003
0.20921737 0.10176434 0.72100002
0.21048152 0.10176434 0.72100002
0.21203937 0.10190549 0.72200006
0.26875004 0.12688786 0.89900005
0.27032632 0.12688786 0.89900005
0.27190256 0.12688786 0.89900005
0.27317458 0.12674671 0.89800006
0.27474907 0.12674671 0.89800006
0.276939 0.127029 0.90000004
0.27851701 0.127029 0.90000004
0.28165108 0.12773472 0.90500003
0.28292489 0.12759358 0.90400004
0.28639823 0.12844044 0.91000003
0.28799376 0.12844044 0.91000003
0.28958929 0.12844044 0.91000003
0.2915048 0.12858157 0.91100007
0.29117167 0.12773472 0.90500003
0.34354639 0.14989422 1.062
0.34759745 0.15003537 1.0630001
0.34617373 0.14862393 1.0530001
0.34802002 0.14862393 1.0530001
0.34986627 0.14862393 1.0530001
0.34937444 0.14763592 1.046
0.35120845 0.14763592 1.046
0.35304242 0.14763592 1.046
0.35487643 0.14763592 1.046
0.3567104 0.14763592 1.046
0.35820162 0.14749478 1.0450001
0.36003384 0.14749478 1.0450001
0.36186609 0.14749478 1.0450001
0.3636983 0.14749478 1.0450001
0.2076648 0.1028856 0.72000003
0.20921737 0.1030285 0.72100002
0.21106538 0.10331429 0.72300005
0.21174568 0.1030285 0.72100002
0.21360071 0.10331429 0.72300005
0.26657942 0.12817831 0.89700001
0.26875004 0.1284641 0.89900005
0.27032632 0.1284641 0.89900005
0.27190256 0.1284641 0.89900005
0.27317458 0.1283212 0.89800006
0.27474907 0.1283212 0.89800006
0.27632359 0.1283212 0.89800006
0.27789807 0.1283212 0.89800006
0.28009501 0.128607 0.90000004
0.28261191 0.1290357 0.90300006
0.28419515 0.1290357 0.90300006
0.28736082 0.12975018 0.90800005
0.28895283 0.12975018 0.90800005
0.34617373 0.15047018 1.0530001
0.34802002 0.15047018 1.0530001
0.34986627 0.15047018 1.0530001
0.34937444 0.14946991 1.046
0.3478508 0.14804095 1.036
0.34966725 0.14804095 1.036
0.35148373 0.14804095 1.036
0.35534632 0.14889832 1.0420001
0.35580218 0.14832674 1.0380001
0.35796666 0.14846964 1.039
0.36048093 0.14875543 1.041
0.36230618 0.14875543 1.041
0.20795321 0.10429265 0.72100002
0.21008791 0.1047266 0.72400004
0.21135733 0.1047266 0.72400004
0.21203937 0.1044373 0.72200006
0.26412037 0.1293171 0.89400005
0.26568785 0.1293171 0.89400005
0.26755428 0.12946175 0.89500004
0.26972491 0.12975106 0.89700001
0.27129763 0.12975106 0.89700001
0.27317458 0.1298957 0.89800006
0.27474907 0.1298957 0.89800006
0.27632359 0.1298957 0.89800006
0.27789807 0.1298957 0.89800006
0.28009501 0.13018499 0.90000004
0.28167298 0.13018499 0.90000004
0.28419515 0.13061894 0.90300006
0.28641137 0.13090825 0.90500003
0.28799814 0.13090825 0.90500003
0.2895849 0.13090825 0.90500003
0.29052821 0.13061894 0.90300006
0.3478508 0.1498574 1.036
0.34730464 0.14884485 1.029
0.34910882 0.14884485 1.029
0.35330018 0.1498574 1.036
0.35477385 0.14971276 1.0350001
0.35796666 0.15029135 1.039
0.35944209 0.15014669 1.0380001
0.36126205 0.15014669 1.0380001
0.20795321 0.1055568 0.72100002
0.21008791 0.10599601 0.72400004
0.21135733 0.10599601 0.72400004
0.21262673 0.10599601 0.72400004
0.26412037 0.13088457 0.89400005
0.26568785 0.13088457 0.89400005
0.26725534 0.13088457 0.89400005
0.26882282 0.13088457 0.89400005
0.2703903 0.13088457 0.89400005
0.27317458 0.13147019 0.89800006
0.27474907 0.13147019 0.89800006
0.27632359 0.13147019 0.89800006
0.27789807 0.13147019 0.89800006
0.27947256 0.13147019 0.89800006
0.28167298 0.131763 0.90000004
0.28325099 0.131763 0.90000004
0.28577843 0.13220221 0.90300006
0.28736168 0.13220221 0.90300006
0.28894496 0.13220221 0.90300006
0.29052821 0.13220221 0.90300006
0.29243496 0.13234861 0.90400004
0.34348589 0.1497706 1.023
0.34527954 0.1497706 1.023
0.34300196 0.14801377 1.011
0.34443358 0.14786737 1.01
0.35066053 0.1497706 1.023
0.35900027 0.15255228 1.0420001
0.35944209 0.15196666 1.0380001
0.36126205 0.15196666 1.0380001
0.20795321 0.10682096 0.72100002
0.21008791 0.10726543 0.72400004
0.21135733 0.10726543 0.72400004
0.21262673 0.10726543 0.72400004
0.26412037 0.13245206 0.89400005
0.26568785 0.13245206 0.89400005
0.26785323 0.13274837 0.89600003
0.2694242 0.13274837 0.89600003
0.2709952 0.13274837 0.89600003
0.2725662 0.13274837 0.89600003
0.27413717 0.13274837 0.89600003
0.27632359 0.13304469 0.89800006
0.27789807 0.13304469 0.89800006
0.27947256 0.13304469 0.89800006
0.28167298 0.133341 0.90000004
0.28325099 0.133341 0.90000004
0.28577843 0.13378547 0.90300006
0.28736168 0.13378547 0.90300006
0.28894496 0.13378547 0.90300006
0.29052821 0.13378547 0.90300006
0.34012824 0.15008271 1.013
0.34122935 0.14978638 1.011
0.34096634 0.14889745 1.005
0.34272844 0.14889745 1.005
0.34311944 0.14830482 1.001
0.34487453 0.14830482 1.001
0.34766847 0.14874929 1.0040001
0.3494288 0.14874929 1.0040001
0.20795321 0.10808511 0.72100002
0.20950755 0.10823502 0.72200006
0.21135733 0.10853484 0.72400004
0.21262673 0.10853484 0.72400004
0.26382494 0.13386963 0.89300007
0.26539066 0.13386963 0.89300007
0.26695639 0.13386963 0.89300007
0.2694242 0.13431937 0.89600003
0.2709952 0.13431937 0.89600003
0.27287039 0.13446927 0.89700001
0.27413717 0.13431937 0.89600003
0.27570817 0.13431937 0.89600003
0.27727914 0.13431937 0.89600003
0.27947256 0.13461918 0.89800006
0.28042111 0.13431937 0.89600003
0.28199211 0.13431937 0.89600003
0.28419605 0.13461918 0.89800006
0.28736168 0.13536873 0.90300006
0.28894496 0.13536873 0.90300006
0.28988475 0.13506891 0.90100002
0.33912095 0.1514091 1.01
0.34021679 0.15110928 1.008
0.34096634 0.15065955 1.005
0.34170538 0.15020981 1.0020001
0.34380499 0.15035973 1.003
0.34556359 0.15035973 1.003
0.34697589 0.15020981 1.0020001
0.3501249 0.15080945 1.006
0.20853007 0.10965259 0.72300005
0.20979773 0.10965259 0.72300005
0.21077345 0.10950092 0.72200006
0.26255289 0.13558702 0.89400005
0.26382494 0.13543536 0.89300007
0.26539066 0.13543536 0.89300007
0.26695639 0.13543536 0.89300007
0.2694242 0.13589035 0.89600003
0.2709952 0.13589035 0.89600003
0.2725662 0.13589035 0.89600003
0.27413717 0.13589035 0.89600003
0.27601588 0.13604201 0.89700001
0.27727914 0.13589035 0.89600003
0.27885014 0.13589035 0.89600003
0.28042111 0.13589035 0.89600003
0.28199211 0.13589035 0.89600003
0.28419605 0.13619368 0.89800006
0.28513408 0.13589035 0.89600003
0.28670508 0.13589035 0.89600003
0.28763258 0.13558702 0.89400005
0.28855309 0.13528369 0.89200002
0.29076755 0.13558702 0.89400005
0.33811367 0.15272498 1.0070001
0.33920425 0.15242165 1.005
0.33960927 0.151815 1.001
0.34170538 0.15196666 1.0020001
0.3424339 0.15151167 0.99900007
0.34418547 0.15151167 0.99900007
0.34697589 0.15196666 1.0020001
0.34908077 0.15211833 1.003
0.20853007 0.11092025 0.72300005
0.20979773 0.11092025 0.72300005
0.21048152 0.11061341 0.72100002
0.26255289 0.1371545 0.89400005
0.26382494 0.13700108 0.89300007
0.26539066 0.13700108 0.89300007
0.26695639 0.13700108 0.89300007
0.26852211 0.13700108 0.89300007
0.27008784 0.13700108 0.89300007
0.27165356 0.13700108 0.89300007
0.27321929 0.13700108 0.89300007
0.27509275 0.1371545 0.89400005
0.2766602 0.1371545 0.89400005
0.27822769 0.1371545 0.89400005
0.27948222 0.13700108 0.89300007
0.28104794 0.13700108 0.89300007
0.28261366 0.13700108 0.89300007
0.28417939 0.13700108 0.89300007
0.28574511 0.13700108 0.89300007
0.28763258 0.1371545 0.89400005
0.28758261 0.13638742 0.88900006
0.28979182 0.13669425 0.89100003
0.29168102 0.13684766 0.89200002
0.29324499 0.13684766 0.89200002
0.33609909 0.15357009 1.001
0.33785418 0.15357009 1.001
0.33893073 0.15326326 0.99900007
0.3406823 0.15326326 0.99900007
0.34106278 0.15264958 0.99500006
0.34315187 0.152803 0.99600005
0.34593704 0.15326326 0.99900007
0.34664452 0.152803 0.99600005
0.20795321 0.11187757 0.72100002
0.20979773 0.11218791 0.72300005
0.21106538 0.11218791 0.72300005
0.21233305 0.11218791 0.72300005
0.26412037 0.13872197 0.89400005
0.26539066 0.13856681 0.89300007
0.26725534 0.13872197 0.89400005
0.26882282 0.13872197 0.89400005
0.27008784 0.13856681 0.89300007
0.27165356 0.13856681 0.89300007
0.27352527 0.13872197 0.89400005
0.27509275 0.13872197 0.89400005
0.2766602 0.13872197 0.89400005
0.27760527 0.13841164 0.89200002
0.27885628 0.13825648 0.89100003
0.28041849 0.13825648 0.89100003
0.28198069 0.13825648 0.89100003
0.28354293 0.13825648 0.89100003
0.28478515 0.13810129 0.89000005
0.28634563 0.13810129 0.89000005
0.28758261 0.13794613 0.88900006
0.28979182 0.13825648 0.89100003
0.29168102 0.13841164 0.89200002
0.29357374 0.13856681 0.89300007
0.29803422 0.13918748 0.89700001
0.33408451 0.15439415 0.99500006
0.33582908 0.15439415 0.99500006
0.33791292 0.15454932 0.99600005
0.33897719 0.15423898 0.99400002
0.34072 0.15423898 0.99400002
0.34246281 0.15423898 0.99400002
0.34489819 0.15454932 0.99600005
0.34664452 0.15454932 0.99600005
0.2076648 0.1129848 0.72000003
0.2089272 0.1129848 0.72000003
0.21048152 0.11314172 0.72100002
0.21174568 0.11314172 0.72100002
0.26412037 0.14028946 0.89400005
0.26539066 0.14013253 0.89300007
0.26725534 0.14028946 0.89400005
0.26912352 0.14044638 0.89500004
0.2703903 0.14028946 0.89400005
0.27195778 0.14028946 0.89400005
0.27352527 0.14028946 0.89400005
0.27478504 0.14013253 0.89300007
0.2760413 0.13997561 0.89200002
0.27760527 0.13997561 0.89200002
0.27885628 0.13981868 0.89100003
0.28041849 0.13981868 0.89100003
0.28198069 0.13981868 0.89100003
0.28354293 0.13981868 0.89100003
0.28478515 0.13966176 0.89000005
0.28570217 0.13934793 0.88800007
0.28693563 0.139191 0.88700002
0.28914133 0.13950484 0.88900006
0.29135403 0.13981868 0.89100003
0.29521748 0.14091715 0.89800006
0.296792 0.14091715 0.89800006
0.29836649 0.14091715 0.89800006
0.3279978 0.15409872 0.98200005
0.32938382 0.1539418 0.98100007
0.33110386 0.1539418 0.98100007
0.33655584 0.15566795 0.99200004
0.33829513 0.15566795 0.99200004
0.33763501 0.15456948 0.98500007
0.33936206 0.15456948 0.98500007
0.34420562 0.15598179 0.99400002
0.34386024 0.15504025 0.98800004
0.2076648 0.1142472 0.72000003
0.2089272 0.1142472 0.72000003
0.21048152 0.11440588 0.72100002
0.21174568 0.11440588 0.72100002
0.26412037 0.14185694 0.89400005
0.26568785 0.14185694 0.89400005
0.26725534 0.14185694 0.89400005
0.26882282 0.14185694 0.89400005
0.2697854 0.14153959 0.89200002
0.27104518 0.14138091 0.89100003
0.27260739 0.14138091 0.89100003
0.27416959 0.14138091 0.89100003
0.2760413 0.14153959 0.89200002
0.27760527 0.14153959 0.89200002
0.27885628 0.14138091 0.89100003
0.27978903 0.14106356 0.88900006
0.28134775 0.14106356 0.88900006
0.28290647 0.14106356 0.88900006
0.28414521 0.14090487 0.88800007
0.28634563 0.14122224 0.89000005
0.28822958 0.14138091 0.89100003
0.28914133 0.14106356 0.88900006
0.29102704 0.14122224 0.89000005
0.29390249 0.14185694 0.89400005
0.29546997 0.14185694 0.89400005
0.29770198 0.14217429 0.89600003
0.29893896 0.14201562 0.89500004
0.32770503 0.15486842 0.97600007
0.32975379 0.15502711 0.97700006
0.32909191 0.15391636 0.97000003
0.33045161 0.15375769 0.96900004
0.33180782 0.15359901 0.96800005
0.3307488 0.15232959 0.96000004
0.332432 0.15232959 0.96000004
0.33411521 0.15232959 0.96000004
0.20737638 0.11534917 0.71900004
0.20863703 0.11534917 0.71900004
0.21077345 0.11583046 0.72200006
0.21203937 0.11583046 0.72200006
0.26412037 0.14342442 0.89400005
0.26568785 0.14342442 0.89400005
0.26725534 0.14342442 0.89400005
0.26882282 0.14342442 0.89400005
0.26948294 0.14294313 0.89100003
0.27104518 0.14294313 0.89100003
0.27260739 0.14294313 0.89100003
0.27416959 0.14294313 0.89100003
0.27573183 0.14294313 0.89100003
0.27729404 0.14294313 0.89100003
0.27885628 0.14294313 0.89100003
0.27978903 0.14262226 0.88900006
0.28134775 0.14262226 0.88900006
0.28290647 0.14262226 0.88900006
0.28414521 0.14246184 0.88800007
0.28570217 0.14246184 0.88800007
0.28758261 0.14262226 0.88900006
0.28946656 0.1427827 0.89000005
0.29135403 0.14294313 0.89100003
0.29390249 0.14342442 0.89400005
0.29546997 0.14342442 0.89400005
0.29703745 0.14342442 0.89400005
0.29860494 0.14342442 0.89400005
0.3223328 0.1540128 0.96000004
0.324016 0.1540128 0.96000004
0.32773483 0.15497538 0.96600002
0.32942852 0.15497538 0.96600002
0.32940838 0.15417323 0.96100003
0.32937068 0.15337108 0.95600003
0.33104688 0.15337108 0.95600003
0.33272305 0.15337108 0.95600003
0.2076648 0.116772 0.72000003
0.2089272 0.116772 0.72000003
0.21164925 0.11758292 0.72500002
0.21292041 0.11758292 0.72500002
0.26412037 0.1449919 0.89400005
0.26568785 0.1449919 0.89400005
0.26725534 0.1449919 0.89400005
0.26852211 0.14482972 0.89300007
0.26948294 0.14450535 0.89100003
0.27104518 0.14450535 0.89100003
0.27260739 0.14450535 0.89100003
0.27416959 0.14450535 0.89100003
0.27573183 0.14450535 0.89100003
0.27729404 0.14450535 0.89100003
0.27823034 0.14418098 0.88900006
0.27978903 0.14418098 0.88900006
0.28198069 0.14450535 0.89100003
0.28290647 0.14418098 0.88900006
0.28414521 0.1440188 0.88800007
0.28505868 0.14369443 0.88600004
0.28661215 0.14369443 0.88600004
0.28849083 0.14385661 0.88700002
0.29070005 0.14418098 0.88900006
0.29390249 0.1449919 0.89400005
0.29546997 0.1449919 0.89400005
0.29736972 0.14515409 0.89500004
0.29860494 0.1449919 0.89400005
0.3223328 0.155696 0.96000004
0.32300344 0.15520945 0.95700002
0.32366359 0.1547229 0.95400006
0.32533625 0.1547229 0.95400006
0.32803726 0.15520945 0.95700002
0.32833707 0.15456071 0.95300007
0.32931545 0.15423635 0.95100003
0.33098286 0.15423635 0.95100003
0.2076648 0.1180344 0.72000003
0.20979773 0.11852621 0.72300005
0.21135733 0.11869015 0.72400004
0.21262673 0.11869015 0.72400004
0.21389614 0.11869015 0.72400004
0.26539066 0.14639544 0.89300007
0.26695639 0.14639544 0.89300007
0.26852211 0.14639544 0.89300007
0.27008784 0.14639544 0.89300007
0.27165356 0.14639544 0.89300007
0.27199548 0.14573969 0.88900006
0.27416959 0.14606757 0.89100003
0.27573183 0.14606757 0.89100003
0.27729404 0.14606757 0.89100003
0.27823034 0.14573969 0.88900006
0.27978903 0.14573969 0.88900006
0.28198069 0.14606757 0.89100003
0.28290647 0.14573969 0.88900006
0.28414521 0.14557576 0.88800007
0.28505868 0.14524789 0.88600004
0.28693563 0.14541182 0.88700002
0.28849083 0.14541182 0.88700002
0.29070005 0.14573969 0.88900006
0.29324499 0.1462315 0.89200002
0.29480898 0.1462315 0.89200002
0.29736972 0.14672332 0.89500004
0.29827094 0.14639544 0.89300007
0.29983667 0.14639544 0.89300007
0.32199091 0.15639558 0.95400006
0.32196721 0.1555759 0.94900006
0.32363114 0.1555759 0.94900006
0.32529506 0.1555759 0.94900006
0.32558084 0.15492015 0.94500005
0.32723776 0.15492015 0.94500005
0.32889464 0.15492015 0.94500005
0.20795321 0.11946249 0.72100002
0.20950755 0.11962818 0.72200006
0.21135733 0.11995956 0.72400004
0.21262673 0.11995956 0.72400004
0.26539066 0.14796117 0.89300007
0.26695639 0.14796117 0.89300007
0.26852211 0.14796117 0.89300007
0.27008784 0.14796117 0.89300007
0.27165356 0.14796117 0.89300007
0.27321929 0.14796117 0.89300007
0.27478504 0.14796117 0.89300007
0.27635077 0.14796117 0.89300007
0.27729404 0.14762978 0.89100003
0.27823034 0.14729841 0.88900006
0.27978903 0.14729841 0.88900006
0.28134775 0.14729841 0.88900006
0.28290647 0.14729841 0.88900006
0.28414521 0.14713272 0.88800007
0.28570217 0.14713272 0.88800007
0.28758261 0.14729841 0.88900006
0.28881606 0.14713272 0.88800007
0.29070005 0.14729841 0.88900006
0.29324499 0.14779548 0.89200002
0.29480898 0.14779548 0.89200002
0.29703745 0.14812686 0.89400005
0.29827094 0.14796117 0.89300007
0.29983667 0.14796117 0.89300007
0.32199091 0.15806825 0.95400006
0.32196721 0.15723981 0.94900006
0.32192603 0.15641136 0.94400007
0.32358116 0.15641136 0.94400007
0.3238582 0.15574861 0.94000006
0.32550633 0.15574861 0.94000006
0.32715446 0.15574861 0.94000006
0.20824164 0.12089409 0.72200006
0.20950755 0.12089409 0.72200006
0.21135733 0.12122897 0.72400004
0.21262673 0.12122897 0.72400004
0.26539066 0.14952689 0.89300007
0.26695639 0.14952689 0.89300007
0.26852211 0.14952689 0.89300007
0.27008784 0.14952689 0.89300007
0.27165356 0.14952689 0.89300007
0.27321929 0.14952689 0.89300007
0.27478504 0.14952689 0.89300007
0.27635077 0.14952689 0.89300007
0.27791649 0.14952689 0.89300007
0.27823034 0.14885712 0.88900006
0.27978903 0.14885712 0.88900006
0.28134775 0.14885712 0.88900006
0.28354293 0.14919201 0.89100003
0.28414521 0.14868967 0.88800007
0.28570217 0.14868967 0.88800007
0.28790611 0.14902456 0.89000005
0.28946656 0.14902456 0.89000005
0.293643 0.15036412 0.89800006
0.29554623 0.15053156 0.89900005
0.29613099 0.15002923 0.89600003
0.29770198 0.15002923 0.89600003
0.30060899 0.150699 0.90000004
0.302187 0.150699 0.90000004
0.30849022 0.15304321 0.91400003
0.31043205 0.15321065 0.91500002
0.31203634 0.15321065 0.91500002
0.31466898 0.15371297 0.91800004
0.32213554 0.15655951 0.93500006
0.32342863 0.15639207 0.93400002
0.32437018 0.15605718 0.93200004
0.20853007 0.12232919 0.72300005
0.20950755 0.12216 0.72200006
0.21135733 0.12249839 0.72400004
0.21262673 0.12249839 0.72400004
0.21389614 0.12249839 0.72400004
0.26628223 0.15160021 0.89600003
0.26785323 0.15160021 0.89600003
0.2694242 0.15160021 0.89600003
0.2709952 0.15160021 0.89600003
0.27226198 0.15143101 0.89500004
0.27352527 0.15126182 0.89400005
0.27509275 0.15126182 0.89400005
0.2766602 0.15126182 0.89400005
0.27698284 0.15058503 0.89000005
0.27854329 0.15058503 0.89000005
0.28010377 0.15058503 0.89000005
0.28229719 0.15092343 0.89200002
0.28417939 0.15109262 0.89300007
0.28542513 0.15092343 0.89200002
0.28666738 0.15075423 0.89100003
0.28855309 0.15092343 0.89200002
0.2949957 0.15346138 0.90700006
0.29396999 0.15210781 0.89900005
0.29554623 0.15210781 0.89900005
0.29712251 0.15210781 0.89900005
0.29936326 0.1524462 0.90100002
0.30060899 0.15227699 0.90000004
0.30453736 0.15346138 0.90700006
0.30714017 0.15396896 0.91000003
0.31043205 0.15481494 0.91500002
0.31203634 0.15481494 0.91500002
0.31466898 0.15532254 0.91800004
0.31696761 0.15566093 0.92000002
0.31961951 0.15616852 0.92300004
0.32193393 0.15650691 0.92500007
0.20795321 0.12325495 0.72100002
0.20950755 0.1234259 0.72200006
0.21135733 0.1237678 0.72400004
0.21262673 0.1237678 0.72400004
0.21389614 0.1237678 0.72400004
0.26747099 0.153855 0.90000004
0.26904899 0.153855 0.90000004
0.27062699 0.153855 0.90000004
0.272205 0.153855 0.90000004
0.273783 0.153855 0.90000004
0.27505505 0.15368405 0.89900005
0.2766313 0.15368405 0.89900005
0.27820754 0.15368405 0.89900005
0.27916133 0.15334214 0.89700001
0.28136003 0.15368405 0.89900005
0.28388044 0.1541969 0.90200007
0.28577843 0.15436785 0.90300006
0.28736168 0.15436785 0.90300006
0.28894496 0.15436785 0.90300006
0.29084995 0.1545388 0.90400004
0.29275844 0.15470976 0.90500003
0.2949957 0.15505165 0.90700006
0.29625899 0.1548807 0.90600002
0.29686126 0.15436785 0.90300006
0.29844451 0.15436785 0.90300006
0.30002776 0.15436785 0.90300006
0.30227906 0.15470976 0.90500003
0.30453736 0.15505165 0.90700006
0.30612761 0.15505165 0.90700006
0.30941424 0.15590639 0.91200006
0.31169534 0.1562483 0.91400003
0.31364065 0.15641925 0.91500002
0.31627855 0.1569321 0.91800004
0.31961951 0.15778685 0.92300004
0.32193393 0.15812875 0.92500007
0.20824164 0.12469181 0.72200006
0.21008791 0.12503721 0.72400004
0.21135733 0.12503721 0.72400004
0.21262673 0.12503721 0.72400004
0.21389614 0.12503721 0.72400004
0.21516556 0.12503721 0.72400004
0.26904899 0.155433 0.90000004
0.27062699 0.155433 0.90000004
0.272205 0.155433 0.90000004
0.273783 0.155433 0.90000004
0.27627885 0.15595111 0.90300006
0.27786213 0.15595111 0.90300006
0.27944538 0.15595111 0.90300006
0.27978379 0.15526029 0.89900005
0.28136003 0.15526029 0.89900005
0.28293628 0.15526029 0.89900005
0.28577843 0.15595111 0.90300006
0.28799814 0.15629652 0.90500003
0.28894496 0.15595111 0.90300006
0.29052821 0.15595111 0.90300006
0.29275844 0.15629652 0.90500003
0.2943452 0.15629652 0.90500003
0.29625899 0.15646923 0.90600002
0.29784751 0.15646923 0.90600002
0.29943603 0.15646923 0.90600002
0.30102453 0.15646923 0.90600002
0.30227906 0.15629652 0.90500003
0.30453736 0.15664192 0.90700006
0.30612761 0.15664192 0.90700006
0.3087357 0.15716003 0.91000003
0.31033123 0.15716003 0.91000003
0.31295508 0.15767814 0.91300005
0.31455588 0.15767814 0.91300005
0.31684926 0.15802355 0.91500002
0.32019374 0.15888706 0.92000002
0.20824164 0.12595771 0.72200006
0.20950755 0.12595771 0.72200006
0.21135733 0.12630662 0.72400004
0.21262673 0.12630662 0.72400004
0.21448702 0.12665553 0.72600001
0.26845112 0.15666209 0.89800006
0.27002561 0.15666209 0.89800006
0.2716001 0.15666209 0.89800006
0.273783 0.157011 0.90000004
0.275361 0.157011 0.90000004
0.27786213 0.15753438 0.90300006
0.27851701 0.157011 0.90000004
0.28009501 0.157011 0.90000004
0.28136003 0.15683654 0.89900005
0.28293628 0.15683654 0.89900005
0.28546196 0.15735991 0.90200007
0.28704345 0.15735991 0.90200007
0.287985 0.157011 0.90000004
0.289563 0.157011 0.90000004
0.29178798 0.15735991 0.90200007
0.29336947 0.15735991 0.90200007
0.29625899 0.15805773 0.90600002
0.29784751 0.15805773 0.90600002
0.29943603 0.15805773 0.90600002
0.30102453 0.15805773 0.90600002
0.30227906 0.15788329 0.90500003
0.30386582 0.15788329 0.90500003
0.30545259 0.15788329 0.90500003
0.3087357 0.15875557 0.91000003
0.31033123 0.15875557 0.91000003
0.31055567 0.15805773 0.90600002
0.31214419 0.15805773 0.90600002
0.31684926 0.15962785 0.91500002
0.32019374 0.16050014 0.92000002
0.20824164 0.12722363 0.72200006
0.20950755 0.12722363 0.72200006
0.21135733 0.12757604 0.72400004
0.21262673 0.12757604 0.72400004
0.21448702 0.12792847 0.72600001
0.26539066 0.15735553 0.89300007
0.26785323 0.15788417 0.89600003
0.2694242 0.15788417 0.89600003
0.2709952 0.15788417 0.89600003
0.2725662 0.15788417 0.89600003
0.27474907 0.15823658 0.89800006
0.27632359 0.15823658 0.89800006
0.27758861 0.15806037 0.89700001
0.27947256 0.15823658 0.89800006
0.28073409 0.15806037 0.89700001
0.28325099 0.15858901 0.90000004
0.28482899 0.15858901 0.90000004
0.28608876 0.15841278 0.89900005
0.287985 0.15858901 0.90000004
0.289563 0.15858901 0.90000004
0.2908175 0.15841278 0.89900005
0.29239374 0.15841278 0.89900005
0.29331601 0.15806037 0.89700001
0.29488873 0.15806037 0.89700001
0.29778349 0.15876521 0.90100002
0.29936326 0.15876521 0.90100002
0.30227906 0.15947005 0.90500003
0.30386582 0.15947005 0.90500003
0.30545259 0.15947005 0.90500003
0.30670008 0.15929385 0.90400004
0.30828509 0.15929385 0.90400004
0.31055567 0.15964626 0.90600002
0.31214419 0.15964626 0.90600002
0.31407899 0.15982246 0.90700006
0.31566927 0.15982246 0.90700006
