# .PCD v0.7 - Point Cloud Data file format
VERSION 0.7
FIELDS x y z
SIZE 4 4 4
TYPE F F F
COUNT 1 1 1
WIDTH 1499
HEIGHT 1
VIEWPOINT 0 0 0 1 0 0 0
POINTS 1499
DATA ascii
-0.17426117 -0.19843613 1.149
-0.1723965 -0.19860883 1.1500001
-0.17038016 -0.19860883 1.1500001
-0.16836384 -0.19860883 1.1500001
-0.1663475 -0.19860883 1.1500001
-0.16433117 -0.19860883 1.1500001
-0.16259712 -0.19895424 1.1520001
-0.16113484 -0.19964506 1.156
-0.15897036 -0.19947235 1.1550001
-0.15680936 -0.19929965 1.154
-0.15478602 -0.19929965 1.154
-0.15329218 -0.19999045 1.1580001
-0.15126182 -0.19999045 1.1580001
-0.14871597 -0.19929965 1.154
-0.14656551 -0.19912694 1.153
-0.14441855 -0.19895424 1.1520001
-0.14239872 -0.19895424 1.1520001
-0.14074445 -0.19947235 1.1550001
-0.13871935 -0.19947235 1.1550001
-0.13716765 -0.20016316 1.159
-0.13501894 -0.19999045 1.1580001
-0.13275889 -0.19964506 1.156
-0.13073204 -0.19964506 1.156
-0.12848251 -0.19929965 1.154
-0.12645917 -0.19929965 1.154
-0.12465148 -0.19964506 1.156
-0.1227307 -0.19981776 1.1570001
-0.12080642 -0.19999045 1.1580001
-0.11877606 -0.19999045 1.1580001
-0.11664488 -0.19981776 1.1570001
-0.11461627 -0.19981776 1.1570001
-0.11258767 -0.19981776 1.1570001
-0.11094129 -0.20050856 1.161
-0.10881186 -0.20033586 1.1600001
-0.10687005 -0.20050856 1.161
-0.10483443 -0.20050856 1.161
-0.10235609 -0.19964506 1.156
-0.10032924 -0.19964506 1.156
-0.098302387 -0.19964506 1.156
-0.096192248 -0.19947235 1.1550001
-0.094167151 -0.19947235 1.1550001
-0.092461154 -0.20016316 1.159
-0.09058509 -0.20050856 1.161
-0.088549472 -0.20050856 1.161
-0.086513847 -0.20050856 1.161
-0.084478229 -0.20050856 1.161
-0.082442611 -0.20050856 1.161
-0.080684014 -0.20119938 1.1650001
-0.078641385 -0.20119938 1.1650001
-0.076598749 -0.20119938 1.1650001
-0.074300133 -0.20050856 1.161
-0.072264507 -0.20050856 1.161
-0.07022889 -0.20050856 1.161
-0.068428218 -0.20119938 1.1650001
-0.0663286 -0.20102668 1.164
-0.06417726 -0.20068127 1.1620001
-0.062139887 -0.20068127 1.1620001
-0.060102511 -0.20068127 1.1620001
-0.058065139 -0.20068127 1.1620001
-0.056220632 -0.20137209 1.166
-0.054176245 -0.20137209 1.166
-0.051953021 -0.20068127 1.1620001
-0.049872689 -0.20050856 1.161
-0.047878273 -0.20068127 1.1620001
-0.0458409 -0.20068127 1.1620001
-0.043841224 -0.20085397 1.1630001
-0.041802097 -0.20085397 1.1630001
-0.03976297 -0.20085397 1.1630001
-0.037723843 -0.20085397 1.1630001
-0.035684716 -0.20085397 1.1630001
-0.033645589 -0.20085397 1.1630001
-0.031606462 -0.20085397 1.1630001
-0.029567337 -0.20085397 1.1630001
-0.02755188 -0.20102668 1.164
-0.025511 -0.20102668 1.164
-0.023490284 -0.20119938 1.1650001
-0.021521291 -0.2018902 1.169
-0.019471643 -0.2018902 1.169
-0.017421996 -0.2018902 1.169
-0.01542495 -0.202581 1.1730001
-0.013322704 -0.2018902 1.169
-0.011273056 -0.2018902 1.169
-0.0092234099 -0.2018902 1.169
-0.00719831 -0.202581 1.1730001
-0.0051416499 -0.202581 1.1730001
-0.00308499 -0.202581 1.1730001
-0.0010283299 -0.202581 1.1730001
0.0010318366 -0.20327182 1.177
0.00309551 -0.20327182 1.177
0.0051591834 -0.20327182 1.177
0.0072228564 -0.20327182 1.177
0.0092865303 -0.20327182 1.177
0.011350203 -0.20327182 1.177
0.013459464 -0.20396264 1.1810001
0.015517 -0.20378993 1.1800001
0.017585933 -0.20378993 1.1800001
0.019671524 -0.20396264 1.1810001
0.02174221 -0.20396264 1.1810001
0.023792733 -0.20378993 1.1800001
0.025861666 -0.20378993 1.1800001
0.02790693 -0.20361723 1.179
0.02997411 -0.20361723 1.179
0.032014113 -0.20344453 1.1780001
0.034079541 -0.20344453 1.1780001
0.03617565 -0.20361723 1.179
0.038210392 -0.20344453 1.1780001
0.04027582 -0.20344453 1.1780001
0.042377189 -0.20361723 1.179
0.044293582 -0.20292641 1.1750001
0.046314299 -0.20275371 1.174
0.048372712 -0.20275371 1.174
0.050602954 -0.20344453 1.1780001
0.052668381 -0.20344453 1.1780001
0.054733805 -0.20344453 1.1780001
0.056799233 -0.20344453 1.1780001
0.058864661 -0.20344453 1.1780001
0.060930084 -0.20344453 1.1780001
0.062995516 -0.20344453 1.1780001
0.065060936 -0.20344453 1.1780001
0.067126364 -0.20344453 1.1780001
0.069191791 -0.20344453 1.1780001
0.071257219 -0.20344453 1.1780001
0.073322646 -0.20344453 1.1780001
0.075388074 -0.20344453 1.1780001
0.077453502 -0.20344453 1.1780001
0.079518929 -0.20344453 1.1780001
0.081584349 -0.20344453 1.1780001
0.083933823 -0.20413534 1.182
0.086006261 -0.20413534 1.182
0.0880787 -0.20413534 1.182
0.090151139 -0.20413534 1.182
0.092145555 -0.20396264 1.1810001
0.094136469 -0.20378993 1.1800001
0.096042342 -0.20344453 1.1780001
0.098191053 -0.20361723 1.179
0.10034326 -0.20378993 1.1800001
0.10293294 -0.20482615 1.1860001
0.10501239 -0.20482615 1.1860001
0.10754333 -0.20568967 1.1910001
0.1097236 -0.20586237 1.192
0.11171977 -0.20568967 1.1910001
0.11371243 -0.20551696 1.1900001
0.1157989 -0.20551696 1.1900001
0.11748911 -0.20482615 1.1860001
0.1191653 -0.20413534 1.182
0.12113517 -0.20396264 1.1810001
0.12299721 -0.20361723 1.179
0.12570085 -0.20465344 1.1850001
0.12777855 -0.20465344 1.1850001
0.12996583 -0.20482615 1.1860001
0.13204528 -0.20482615 1.1860001
0.13446401 -0.20534426 1.189
0.1370081 -0.20603508 1.1930001
0.13909982 -0.20603508 1.1930001
0.14119154 -0.20603508 1.1930001
0.14304307 -0.20568967 1.1910001
0.14513129 -0.20568967 1.1910001
0.14721951 -0.20568967 1.1910001
0.14893164 -0.20517156 1.1880001
0.15088749 -0.20499885 1.187
0.15271094 -0.20465344 1.1850001
0.15478864 -0.20465344 1.1850001
0.15686634 -0.20465344 1.1850001
0.15907818 -0.20482615 1.1860001
0.16115764 -0.20482615 1.1860001
0.16323708 -0.20482615 1.1860001
0.16545592 -0.20499885 1.187
0.16753714 -0.20499885 1.187
0.16976124 -0.20517156 1.1880001
0.1724228 -0.20586237 1.192
0.17451277 -0.20586237 1.192
0.17660275 -0.20586237 1.192
0.17899254 -0.20620778 1.194
0.18108602 -0.20620778 1.194
0.1831795 -0.20620778 1.194
0.18558332 -0.20655319 1.1960001
0.18705261 -0.20586237 1.192
0.18850788 -0.20517156 1.1880001
0.19059084 -0.20517156 1.1880001
0.1926738 -0.20517156 1.1880001
0.19475676 -0.20517156 1.1880001
0.19683972 -0.20517156 1.1880001
0.19959246 -0.20586237 1.192
0.20168242 -0.20586237 1.192
0.20394334 -0.20603508 1.1930001
0.20551696 -0.20551696 1.1900001
0.20760342 -0.20551696 1.1900001
0.21039474 -0.20620778 1.194
0.21177636 -0.20551696 1.1900001
0.21386284 -0.20551696 1.1900001
0.2159493 -0.20551696 1.1900001
0.21803577 -0.20551696 1.1900001
0.22086214 -0.20620778 1.194
0.22295561 -0.20620778 1.194
0.22429517 -0.20551696 1.1900001
0.22638163 -0.20551696 1.1900001
0.2282761 -0.20534426 1.189
0.23055457 -0.20551696 1.1900001
0.23342302 -0.20620778 1.194
0.2347275 -0.20551696 1.1900001
0.23681396 -0.20551696 1.1900001
0.2395027 -0.20603508 1.1930001
0.24159443 -0.20603508 1.1930001
0.24368615 -0.20603508 1.1930001
0.2447478 -0.20517156 1.1880001
0.24683076 -0.20517156 1.1880001
0.24933277 -0.20551696 1.1900001
0.25141925 -0.20551696 1.1900001
0.25435781 -0.20620778 1.194
0.25666609 -0.20638049 1.1950001
0.25876132 -0.20638049 1.1950001
0.26559231 -0.20845293 1.207
0.26770857 -0.20845293 1.207
0.26714224 -0.20638049 1.1950001
0.26923749 -0.20638049 1.1950001
0.27133271 -0.20638049 1.1950001
0.27365676 -0.20655319 1.1960001
0.27529261 -0.20620778 1.194
0.2773861 -0.20620778 1.194
0.27947959 -0.20620778 1.194
-0.48034757 -0.18548074 1.085
-0.4784452 -0.18548074 1.085
-0.47522521 -0.18496791 1.082
-0.47332811 -0.18496791 1.082
-0.47143102 -0.18496791 1.082
-0.46953389 -0.18496791 1.082
-0.46763679 -0.18496791 1.082
-0.4657397 -0.18496791 1.082
-0.46384257 -0.18496791 1.082
-0.46322629 -0.18548074 1.085
-0.46089873 -0.1853098 1.0840001
-0.45899811 -0.1853098 1.0840001
-0.45878422 -0.1859936 1.0880001
-0.45771644 -0.1863355 1.09
-0.45747799 -0.1870193 1.0940001
-0.45555982 -0.1870193 1.0940001
-0.45364168 -0.1870193 1.0940001
-0.45172355 -0.1870193 1.0940001
-0.44898307 -0.1866774 1.092
-0.44706842 -0.1866774 1.092
-0.4451538 -0.1866774 1.092
-0.44323915 -0.1866774 1.092
-0.44172865 -0.18684834 1.0930001
-0.43981227 -0.18684834 1.0930001
-0.43789586 -0.18684834 1.0930001
-0.43717614 -0.1873612 1.0960001
-0.43525448 -0.1873612 1.0960001
-0.4321467 -0.18684834 1.0930001
-0.43023029 -0.18684834 1.0930001
-0.42948952 -0.1873612 1.0960001
-0.42756787 -0.1873612 1.0960001
-0.42564622 -0.1873612 1.0960001
-0.42372456 -0.1873612 1.0960001
-0.42180291 -0.1873612 1.0960001
-0.42103055 -0.18787405 1.0990001
-0.4179596 -0.1873612 1.0960001
-0.41603795 -0.1873612 1.0960001
-0.41524982 -0.18787405 1.0990001
-0.4133229 -0.18787405 1.0990001
-0.411396 -0.18787405 1.0990001
-0.40909651 -0.1877031 1.098
-0.40680051 -0.18753214 1.097
-0.40524617 -0.1877031 1.098
-0.40479031 -0.1883869 1.102
-0.40285814 -0.1883869 1.102
-0.40092596 -0.1883869 1.102
-0.39935586 -0.18855785 1.103
-0.39814255 -0.18889976 1.105
-0.39620513 -0.18889976 1.105
-0.39426768 -0.18889976 1.105
-0.39233026 -0.18889976 1.105
-0.39039281 -0.18889976 1.105
-0.38845539 -0.18889976 1.105
-0.38651794 -0.18889976 1.105
-0.3835364 -0.1883869 1.102
-0.38160422 -0.1883869 1.102
-0.38036111 -0.18872879 1.1040001
-0.37979653 -0.18941259 1.108
-0.37751284 -0.18924165 1.107
-0.37658969 -0.1897545 1.11
-0.37498102 -0.18992545 1.1110001
-0.37303305 -0.18992545 1.1110001
-0.37208715 -0.1904383 1.1140001
-0.37013394 -0.1904383 1.1140001
-0.3671892 -0.18992545 1.1110001
-0.36524126 -0.18992545 1.1110001
-0.36460128 -0.19060925 1.115
-0.36264631 -0.19060925 1.115
-0.35972089 -0.19009639 1.1120001
-0.35744944 -0.18992545 1.1110001
-0.35550147 -0.18992545 1.1110001
-0.35355353 -0.18992545 1.1110001
-0.35160556 -0.18992545 1.1110001
-0.3509165 -0.19060925 1.115
-0.34896156 -0.19060925 1.115
-0.34825146 -0.19129305 1.1190001
-0.34598002 -0.1911221 1.118
-0.34463519 -0.19146399 1.12
-0.34267145 -0.19146399 1.12
-0.34070772 -0.19146399 1.12
-0.33874398 -0.19146399 1.12
-0.33678025 -0.19146399 1.12
-0.33481655 -0.19146399 1.12
-0.33285281 -0.19146399 1.12
-0.33088908 -0.19146399 1.12
-0.32892534 -0.19146399 1.12
-0.32696161 -0.19146399 1.12
-0.32499787 -0.19146399 1.12
-0.32389939 -0.19197685 1.123
-0.3210704 -0.19146399 1.12
-0.31910667 -0.19146399 1.12
-0.31714293 -0.19146399 1.12
-0.3151792 -0.19146399 1.12
-0.31321546 -0.19146399 1.12
-0.31236336 -0.19214779 1.1240001
-0.31039259 -0.19214779 1.1240001
-0.30842185 -0.19214779 1.1240001
-0.30645111 -0.19214779 1.1240001
-0.30448034 -0.19214779 1.1240001
-0.30250961 -0.19214779 1.1240001
-0.30053887 -0.19214779 1.1240001
-0.29750559 -0.19146399 1.12
-0.29554185 -0.19146399 1.12
-0.29462662 -0.19214779 1.1240001
-0.29265589 -0.19214779 1.1240001
-0.29068512 -0.19214779 1.1240001
-0.28922811 -0.1924897 1.126
-0.28801918 -0.19300255 1.1290001
-0.2852796 -0.1924897 1.126
-0.28305376 -0.19231875 1.125
-0.28233051 -0.1931735 1.13
-0.28034922 -0.1931735 1.13
-0.27836797 -0.1931735 1.13
-0.27638671 -0.1931735 1.13
-0.27440542 -0.1931735 1.13
-0.2731474 -0.19368635 1.133
-0.27092156 -0.19351541 1.1320001
-0.26941195 -0.1938573 1.1340001
-0.26742366 -0.1938573 1.1340001
-0.26543537 -0.1938573 1.1340001
-0.26344711 -0.1938573 1.1340001
-0.26145881 -0.1938573 1.1340001
-0.25947055 -0.1938573 1.1340001
-0.25793636 -0.1941992 1.136
-0.25571927 -0.19402824 1.1350001
-0.2539528 -0.1941992 1.136
-0.25196102 -0.1941992 1.136
-0.24974918 -0.19402824 1.1350001
-0.24775915 -0.19402824 1.1350001
-0.24576911 -0.19402824 1.1350001
-0.24377908 -0.19402824 1.1350001
-0.24178904 -0.19402824 1.1350001
-0.23979901 -0.19402824 1.1350001
-0.23780899 -0.19402824 1.1350001
-0.23665003 -0.19471204 1.1390001
-0.23465298 -0.19471204 1.1390001
-0.23245168 -0.1945411 1.138
-0.23126642 -0.1952249 1.1420001
-0.22906336 -0.19505395 1.141
-0.22706281 -0.19505395 1.141
-0.22565399 -0.1955668 1.1440001
-0.2230617 -0.19505395 1.141
-0.22106114 -0.19505395 1.141
-0.21829262 -0.19437015 1.1370001
-0.21629909 -0.19437015 1.1370001
-0.21505949 -0.19505395 1.141
-0.21305893 -0.19505395 1.141
-0.21105838 -0.19505395 1.141
-0.20905782 -0.19505395 1.141
-0.20705727 -0.19505395 1.141
-0.20505671 -0.19505395 1.141
-0.20359005 -0.1955668 1.1440001
-0.20158423 -0.1955668 1.1440001
-0.19957842 -0.1955668 1.1440001
-0.19757262 -0.1955668 1.1440001
-0.1955668 -0.1955668 1.1440001
-0.19356099 -0.1955668 1.1440001
-0.19155517 -0.1955668 1.1440001
-0.18954936 -0.1955668 1.1440001
-0.18787141 -0.1959087 1.146
-0.18586209 -0.1959087 1.146
-0.18369235 -0.19573775 1.1450001
-0.18216081 -0.1962506 1.148
-0.18014799 -0.1962506 1.148
-0.17829032 -0.19642155 1.149
-0.17627575 -0.19642155 1.149
-0.17426117 -0.19642155 1.149
-0.1723965 -0.19659249 1.1500001
-0.17038016 -0.19659249 1.1500001
-0.16836384 -0.19659249 1.1500001
-0.1663475 -0.19659249 1.1500001
-0.16433117 -0.19659249 1.1500001
-0.1631617 -0.1976182 1.156
-0.16113484 -0.1976182 1.156
-0.15883271 -0.19727629 1.154
-0.15680936 -0.19727629 1.154
-0.15478602 -0.19727629 1.154
-0.15276267 -0.19727629 1.154
-0.15073933 -0.19727629 1.154
-0.14871597 -0.19727629 1.154
-0.1464384 -0.1969344 1.1520001
-0.14441855 -0.1969344 1.1520001
-0.14239872 -0.1969344 1.1520001
-0.14037888 -0.1969344 1.1520001
-0.13835904 -0.1969344 1.1520001
-0.13669425 -0.19744726 1.1550001
-0.13455255 -0.19727629 1.154
-0.13275889 -0.1976182 1.156
-0.13073204 -0.1976182 1.156
-0.12859385 -0.19744726 1.1550001
-0.12645917 -0.19727629 1.154
-0.12475931 -0.19778915 1.1570001
-0.1227307 -0.19778915 1.1570001
-0.12038913 -0.19727629 1.154
-0.11836578 -0.19727629 1.154
-0.11664488 -0.19778915 1.1570001
-0.11451721 -0.1976182 1.156
-0.11297691 -0.19847295 1.161
-0.11094129 -0.19847295 1.161
-0.10881186 -0.198302 1.1600001
-0.106778 -0.198302 1.1600001
-0.10483443 -0.19847295 1.161
-0.10262172 -0.19813105 1.159
-0.10058961 -0.19813105 1.159
-0.098217346 -0.19744726 1.1550001
-0.096192248 -0.19744726 1.1550001
-0.094167151 -0.19744726 1.1550001
-0.092461154 -0.19813105 1.159
-0.090429045 -0.19813105 1.159
-0.088396929 -0.19813105 1.159
-0.086439334 -0.198302 1.1600001
-0.084405467 -0.198302 1.1600001
-0.0823716 -0.198302 1.1600001
-0.080684014 -0.19915675 1.1650001
-0.078641385 -0.19915675 1.1650001
-0.076532997 -0.1989858 1.164
-0.074428126 -0.19881485 1.1630001
-0.072513483 -0.19915675 1.1650001
-0.070470847 -0.19915675 1.1650001
-0.068428218 -0.19915675 1.1650001
-0.0663286 -0.1989858 1.164
-0.064232491 -0.19881485 1.1630001
-0.062139887 -0.19864389 1.1620001
-0.060102511 -0.19864389 1.1620001
-0.058065139 -0.19864389 1.1620001
-0.056220632 -0.19932769 1.166
-0.054176245 -0.19932769 1.166
-0.051953021 -0.19864389 1.1620001
-0.049872689 -0.19847295 1.161
-0.047878273 -0.19864389 1.1620001
-0.0458409 -0.19864389 1.1620001
-0.043803528 -0.19864389 1.1620001
-0.041802097 -0.19881485 1.1630001
-0.03976297 -0.19881485 1.1630001
-0.037723843 -0.19881485 1.1630001
-0.035684716 -0.19881485 1.1630001
-0.033645589 -0.19881485 1.1630001
-0.031606462 -0.19881485 1.1630001
-0.029567337 -0.19881485 1.1630001
-0.02752821 -0.19881485 1.1630001
-0.025511 -0.1989858 1.164
-0.023470121 -0.1989858 1.164
-0.02150288 -0.1996696 1.1680001
-0.019471643 -0.19984055 1.169
-0.017421996 -0.19984055 1.169
-0.01537235 -0.19984055 1.169
-0.013322704 -0.19984055 1.169
-0.011273056 -0.19984055 1.169
-0.0092234099 -0.19984055 1.169
-0.00719831 -0.20052435 1.1730001
-0.0051416499 -0.20052435 1.1730001
-0.00308499 -0.20052435 1.1730001
-0.0010283299 -0.20052435 1.1730001
0.0010318366 -0.20120814 1.177
0.00309551 -0.20120814 1.177
0.0051591834 -0.20120814 1.177
0.0072228564 -0.20120814 1.177
0.00931809 -0.20189194 1.1810001
0.011388777 -0.20189194 1.1810001
0.013459464 -0.20189194 1.1810001
0.015530149 -0.20189194 1.1810001
0.017526319 -0.2010372 1.176
0.019588239 -0.2010372 1.176
0.02174221 -0.20189194 1.1810001
0.023772569 -0.20155005 1.179
0.02583975 -0.20155005 1.179
0.02788326 -0.20137911 1.1780001
0.029948687 -0.20137911 1.1780001
0.032014113 -0.20137911 1.1780001
0.034079541 -0.20137911 1.1780001
0.03617565 -0.20155005 1.179
0.038210392 -0.20137911 1.1780001
0.04027582 -0.20137911 1.1780001
0.042377189 -0.20155005 1.179
0.044293582 -0.20086625 1.1750001
0.04635375 -0.20086625 1.1750001
0.048413917 -0.20086625 1.1750001
0.05064591 -0.20155005 1.179
0.052668381 -0.20137911 1.1780001
0.054733805 -0.20137911 1.1780001
0.056895666 -0.201721 1.1800001
0.058964599 -0.201721 1.1800001
0.060930084 -0.20137911 1.1780001
0.062995516 -0.20137911 1.1780001
0.065060936 -0.20137911 1.1780001
0.067126364 -0.20137911 1.1780001
0.069191791 -0.20137911 1.1780001
0.071257219 -0.20137911 1.1780001
0.073322646 -0.20137911 1.1780001
0.075388074 -0.20137911 1.1780001
0.077453502 -0.20137911 1.1780001
0.079518929 -0.20137911 1.1780001
0.081584349 -0.20137911 1.1780001
0.083933823 -0.2020629 1.182
0.085715204 -0.20137911 1.1780001
0.087780632 -0.20137911 1.1780001
0.08984606 -0.20137911 1.1780001
0.091833465 -0.20120814 1.177
0.094136469 -0.201721 1.1800001
0.096123867 -0.20155005 1.179
0.098191053 -0.20155005 1.179
0.10034326 -0.201721 1.1800001
0.10293294 -0.2027467 1.1860001
0.10501239 -0.2027467 1.1860001
0.10754333 -0.20360145 1.1910001
0.1097236 -0.2037724 1.192
0.11171977 -0.20360145 1.1910001
0.11371243 -0.2034305 1.1900001
0.1157989 -0.2034305 1.1900001
0.11788537 -0.2034305 1.1900001
0.11956856 -0.2027467 1.1860001
0.12154545 -0.20257574 1.1850001
0.12362315 -0.20257574 1.1850001
0.12570085 -0.20257574 1.1850001
0.12777855 -0.20257574 1.1850001
0.12985624 -0.20257574 1.1850001
0.13193394 -0.20257574 1.1850001
0.13446401 -0.20325954 1.189
0.1370081 -0.20394334 1.1930001
0.13909982 -0.20394334 1.1930001
0.14119154 -0.20394334 1.1930001
0.14304307 -0.20360145 1.1910001
0.14513129 -0.20360145 1.1910001
0.14721951 -0.20360145 1.1910001
0.14893164 -0.2030886 1.1880001
0.15088749 -0.20291765 1.187
0.15283982 -0.2027467 1.1860001
0.15478864 -0.20257574 1.1850001
0.15699872 -0.2027467 1.1860001
0.15907818 -0.2027467 1.1860001
0.16115764 -0.2027467 1.1860001
0.16323708 -0.2027467 1.1860001
0.16531654 -0.2027467 1.1860001
0.16739599 -0.2027467 1.1860001
0.16976124 -0.2030886 1.1880001
0.17300139 -0.2044562 1.1960001
0.17451277 -0.2037724 1.192
0.17660275 -0.2037724 1.192
0.17884263 -0.20394334 1.1930001
0.18108602 -0.2041143 1.194
0.18379317 -0.2047981 1.1980001
0.18558332 -0.2044562 1.1960001
0.18705261 -0.2037724 1.192
0.18882523 -0.2034305 1.1900001
0.19075127 -0.20325954 1.189
0.19348471 -0.20394334 1.1930001
0.19492069 -0.20325954 1.189
0.19683972 -0.2030886 1.1880001
0.19909012 -0.20325954 1.189
0.20134403 -0.2034305 1.1900001
0.2041143 -0.2041143 1.194
0.20551696 -0.2034305 1.1900001
0.20760342 -0.2034305 1.1900001
0.21039474 -0.2041143 1.194
0.21177636 -0.2034305 1.1900001
0.21386284 -0.2034305 1.1900001
0.2159493 -0.2034305 1.1900001
0.21803577 -0.2034305 1.1900001
0.22086214 -0.2041143 1.194
0.22295561 -0.2041143 1.194
0.22429517 -0.2034305 1.1900001
0.22638163 -0.2034305 1.1900001
0.2282761 -0.20325954 1.189
0.23055457 -0.2034305 1.1900001
0.23264103 -0.2034305 1.1900001
0.2347275 -0.2034305 1.1900001
0.23681396 -0.2034305 1.1900001
0.23869967 -0.20325954 1.189
0.24078439 -0.20325954 1.189
0.24286911 -0.20325954 1.189
0.24495381 -0.20325954 1.189
0.24683076 -0.2030886 1.1880001
0.24933277 -0.2034305 1.1900001
0.25141925 -0.2034305 1.1900001
0.25435781 -0.2041143 1.194
0.25666609 -0.20428525 1.1950001
0.25876132 -0.20428525 1.1950001
0.26347601 -0.20633665 1.207
0.26559231 -0.20633665 1.207
0.26770857 -0.20633665 1.207
0.26982486 -0.20633665 1.207
0.26901218 -0.2041143 1.194
0.27087861 -0.20394334 1.1930001
0.27365676 -0.2044562 1.1960001
0.27552319 -0.20428525 1.1950001
0.2773861 -0.2041143 1.194
0.2801818 -0.20462714 1.197
-0.48034757 -0.18357839 1.085
-0.4784452 -0.18357839 1.085
-0.47522521 -0.18307079 1.082
-0.47332811 -0.18307079 1.082
-0.47143102 -0.18307079 1.082
-0.46953389 -0.18307079 1.082
-0.46763679 -0.18307079 1.082
-0.4657397 -0.18307079 1.082
-0.46384257 -0.18307079 1.082
-0.46279934 -0.18340918 1.0840001
-0.46089873 -0.18340918 1.0840001
-0.45942155 -0.18357839 1.085
-0.4592059 -0.18425517 1.0890001
-0.45939612 -0.18510115 1.0940001
-0.45747799 -0.18510115 1.0940001
-0.45555982 -0.18510115 1.0940001
-0.45364168 -0.18510115 1.0940001
-0.45131063 -0.18493195 1.0930001
-0.44733846 -0.18408597 1.0880001
-0.44543082 -0.18408597 1.0880001
-0.4451538 -0.18476276 1.092
-0.44323915 -0.18476276 1.092
-0.44132453 -0.18476276 1.092
-0.43940988 -0.18476276 1.092
-0.43749523 -0.18476276 1.092
-0.43558061 -0.18476276 1.092
-0.43406308 -0.18493195 1.0930001
-0.4321467 -0.18493195 1.0930001
-0.43023029 -0.18493195 1.0930001
-0.42831391 -0.18493195 1.0930001
-0.4263975 -0.18493195 1.0930001
-0.42564622 -0.18543954 1.0960001
-0.42372456 -0.18543954 1.0960001
-0.42180291 -0.18543954 1.0960001
-0.42103055 -0.18594714 1.0990001
-0.4179596 -0.18543954 1.0960001
-0.41603795 -0.18543954 1.0960001
-0.41524982 -0.18594714 1.0990001
-0.4133229 -0.18594714 1.0990001
-0.411396 -0.18594714 1.0990001
-0.40946907 -0.18594714 1.0990001
-0.40680051 -0.18560874 1.097
-0.40524617 -0.18577793 1.098
-0.40479031 -0.18645473 1.102
-0.40285814 -0.18645473 1.102
-0.40092596 -0.18645473 1.102
-0.40008 -0.18696232 1.105
-0.39814255 -0.18696232 1.105
-0.39620513 -0.18696232 1.105
-0.39426768 -0.18696232 1.105
-0.39233026 -0.18696232 1.105
-0.39039281 -0.18696232 1.105
-0.38740075 -0.18645473 1.102
-0.38546857 -0.18645473 1.102
-0.38318837 -0.18628553 1.1010001
-0.38125795 -0.18628553 1.1010001
-0.38036111 -0.18679312 1.1040001
-0.37808266 -0.18662392 1.103
-0.37751284 -0.18730071 1.107
-0.37658969 -0.18780831 1.11
-0.37498102 -0.18797749 1.1110001
-0.37303305 -0.18797749 1.1110001
-0.37075108 -0.18780831 1.11
-0.37013394 -0.18848509 1.1140001
-0.3671892 -0.18797749 1.1110001
-0.36557001 -0.1881467 1.1120001
-0.36460128 -0.18865429 1.115
-0.36264631 -0.18865429 1.115
-0.36004436 -0.18831588 1.113
-0.35744944 -0.18797749 1.1110001
-0.35550147 -0.18797749 1.1110001
-0.35291708 -0.1876391 1.1090001
-0.35223854 -0.18831588 1.113
-0.35060179 -0.18848509 1.1140001
-0.34833559 -0.18831588 1.113
-0.34762901 -0.18899268 1.1170001
-0.34598002 -0.18916187 1.118
-0.34463519 -0.18950027 1.12
-0.34267145 -0.18950027 1.12
-0.34070772 -0.18950027 1.12
-0.33874398 -0.18950027 1.12
-0.33678025 -0.18950027 1.12
-0.33481655 -0.18950027 1.12
-0.33285281 -0.18950027 1.12
-0.33088908 -0.18950027 1.12
-0.32892534 -0.18950027 1.12
-0.32696161 -0.18950027 1.12
-0.3244175 -0.18916187 1.118
-0.32332256 -0.18966946 1.1210001
-0.3210704 -0.18950027 1.12
-0.31910667 -0.18950027 1.12
-0.31714293 -0.18950027 1.12
-0.3151792 -0.18950027 1.12
-0.31321546 -0.18950027 1.12
-0.31236336 -0.19017705 1.1240001
-0.31039259 -0.19017705 1.1240001
-0.30842185 -0.19017705 1.1240001
-0.30645111 -0.19017705 1.1240001
-0.30448034 -0.19017705 1.1240001
-0.30250961 -0.19017705 1.1240001
-0.30053887 -0.19017705 1.1240001
-0.29750559 -0.18950027 1.12
-0.29554185 -0.18950027 1.12
-0.29357812 -0.18950027 1.12
-0.29161438 -0.18950027 1.12
-0.29068512 -0.19017705 1.1240001
-0.28922811 -0.19051544 1.126
-0.28750896 -0.19068465 1.1270001
-0.28553295 -0.19068465 1.1270001
-0.28305376 -0.19034626 1.125
-0.28233051 -0.19119224 1.13
-0.28034922 -0.19119224 1.13
-0.279107 -0.19169982 1.133
-0.27736506 -0.19186902 1.1340001
-0.27537677 -0.19186902 1.1340001
-0.2731474 -0.19169982 1.133
-0.27092156 -0.19153063 1.1320001
-0.26917437 -0.19169982 1.133
-0.26742366 -0.19186902 1.1340001
-0.2652013 -0.19169982 1.133
-0.26321477 -0.19169982 1.133
-0.26145881 -0.19186902 1.1340001
-0.25947055 -0.19186902 1.1340001
-0.2572552 -0.19169982 1.133
-0.25571927 -0.19203821 1.1350001
-0.25372925 -0.19203821 1.1350001
-0.2517392 -0.19203821 1.1350001
-0.24974918 -0.19203821 1.1350001
-0.24775915 -0.19203821 1.1350001
-0.24576911 -0.19203821 1.1350001
-0.24377908 -0.19203821 1.1350001
-0.24136299 -0.19169982 1.133
-0.23937646 -0.19169982 1.133
-0.23738994 -0.19169982 1.133
-0.23623449 -0.19237661 1.1370001
-0.23424095 -0.19237661 1.1370001
-0.23224741 -0.19237661 1.1370001
-0.2310639 -0.19305339 1.141
-0.22906336 -0.19305339 1.141
-0.22706281 -0.19305339 1.141
-0.22506225 -0.19305339 1.141
-0.2230617 -0.19305339 1.141
-0.22106114 -0.19305339 1.141
-0.21829262 -0.19237661 1.1370001
-0.21629909 -0.19237661 1.1370001
-0.21505949 -0.19305339 1.141
-0.21305893 -0.19305339 1.141
-0.21105838 -0.19305339 1.141
-0.20905782 -0.19305339 1.141
-0.20705727 -0.19305339 1.141
-0.20505671 -0.19305339 1.141
-0.20305616 -0.19305339 1.141
-0.20105562 -0.19305339 1.141
-0.19905506 -0.19305339 1.141
-0.19705451 -0.19305339 1.141
-0.1955668 -0.19356099 1.1440001
-0.19356099 -0.19356099 1.1440001
-0.19155517 -0.19356099 1.1440001
-0.18954936 -0.19356099 1.1440001
-0.18754354 -0.19356099 1.1440001
-0.18553773 -0.19356099 1.1440001
-0.18353193 -0.19356099 1.1440001
-0.18216081 -0.19423777 1.148
-0.18014799 -0.19423777 1.148
-0.17813516 -0.19423777 1.148
-0.17627575 -0.19440697 1.149
-0.17426117 -0.19440697 1.149
-0.17224659 -0.19440697 1.149
-0.17023201 -0.19440697 1.149
-0.16894944 -0.19525295 1.154
-0.1669261 -0.19525295 1.154
-0.16475986 -0.19508375 1.153
-0.16273826 -0.19508375 1.153
-0.16085605 -0.19525295 1.154
-0.15883271 -0.19525295 1.154
-0.15680936 -0.19525295 1.154
-0.15478602 -0.19525295 1.154
-0.15276267 -0.19525295 1.154
-0.1506087 -0.19508375 1.153
-0.14871597 -0.19525295 1.154
-0.1464384 -0.19491456 1.1520001
-0.14441855 -0.19491456 1.1520001
-0.14239872 -0.19491456 1.1520001
-0.14037888 -0.19491456 1.1520001
-0.13835904 -0.19491456 1.1520001
-0.13657589 -0.19525295 1.154
-0.13455255 -0.19525295 1.154
-0.13275889 -0.19559135 1.156
-0.13073204 -0.19559135 1.156
-0.12859385 -0.19542214 1.1550001
-0.12645917 -0.19525295 1.154
-0.12475931 -0.19576055 1.1570001
-0.1227307 -0.19576055 1.1570001
-0.12038913 -0.19525295 1.154
-0.11836578 -0.19525295 1.154
-0.11664488 -0.19576055 1.1570001
-0.11451721 -0.19559135 1.156
-0.1128796 -0.19626813 1.1600001
-0.11084573 -0.19626813 1.1600001
-0.10871806 -0.19609894 1.159
-0.10668595 -0.19609894 1.159
-0.10465384 -0.19609894 1.159
-0.10262172 -0.19609894 1.159
-0.10058961 -0.19609894 1.159
-0.098557495 -0.19609894 1.159
-0.096192248 -0.19542214 1.1550001
-0.094167151 -0.19542214 1.1550001
-0.092461154 -0.19609894 1.159
-0.090507068 -0.19626813 1.1600001
-0.088473201 -0.19626813 1.1600001
-0.086439334 -0.19626813 1.1600001
-0.084769286 -0.19711411 1.1650001
-0.082655638 -0.19694492 1.164
-0.080684014 -0.19711411 1.1650001
-0.078641385 -0.19711411 1.1650001
-0.076401502 -0.19660653 1.1620001
-0.074364126 -0.19660653 1.1620001
-0.072388999 -0.19677572 1.1630001
-0.070349872 -0.19677572 1.1630001
-0.068310745 -0.19677572 1.1630001
-0.066271618 -0.19677572 1.1630001
-0.064232491 -0.19677572 1.1630001
-0.062139887 -0.19660653 1.1620001
-0.060102511 -0.19660653 1.1620001
-0.058065139 -0.19660653 1.1620001
-0.056220632 -0.19728331 1.166
-0.054176245 -0.19728331 1.166
-0.051953021 -0.19660653 1.1620001
-0.049915645 -0.19660653 1.1620001
-0.047919475 -0.19677572 1.1630001
-0.045880351 -0.19677572 1.1630001
-0.043803528 -0.19660653 1.1620001
-0.041766152 -0.19660653 1.1620001
-0.03976297 -0.19677572 1.1630001
-0.037723843 -0.19677572 1.1630001
-0.035746083 -0.19711411 1.1650001
-0.033819169 -0.19779091 1.169
-0.031742346 -0.1976217 1.1680001
-0.029694453 -0.1976217 1.1680001
-0.02764656 -0.1976217 1.1680001
-0.025598666 -0.1976217 1.1680001
-0.023550773 -0.1976217 1.1680001
-0.02150288 -0.1976217 1.1680001
-0.019471643 -0.19779091 1.169
-0.017421996 -0.19779091 1.169
-0.01537235 -0.19779091 1.169
-0.013322704 -0.19779091 1.169
-0.0112827 -0.19796009 1.1700001
-0.0092313001 -0.19796009 1.1700001
-0.00719831 -0.19846769 1.1730001
-0.0051416499 -0.19846769 1.1730001
-0.00308499 -0.19846769 1.1730001
-0.0010318366 -0.19914448 1.177
0.0010318366 -0.19914448 1.177
0.00309551 -0.19914448 1.177
0.0051591834 -0.19914448 1.177
0.0072228564 -0.19914448 1.177
0.00931809 -0.19982126 1.1810001
0.011388777 -0.19982126 1.1810001
0.013459464 -0.19982126 1.1810001
0.015530149 -0.19982126 1.1810001
0.017541224 -0.19914448 1.177
0.019621553 -0.19931367 1.1780001
0.02176062 -0.19999045 1.182
0.023812896 -0.19982126 1.1810001
0.025883583 -0.19982126 1.1810001
0.02790693 -0.19948287 1.179
0.029948687 -0.19931367 1.1780001
0.032014113 -0.19931367 1.1780001
0.034079541 -0.19931367 1.1780001
0.036144968 -0.19931367 1.1780001
0.038210392 -0.19931367 1.1780001
0.04027582 -0.19931367 1.1780001
0.042341247 -0.19931367 1.1780001
0.044406675 -0.19931367 1.1780001
0.04651155 -0.19948287 1.179
0.048578728 -0.19948287 1.179
0.05064591 -0.19948287 1.179
0.052668381 -0.19931367 1.1780001
0.054733805 -0.19931367 1.1780001
0.056895666 -0.19965206 1.1800001
0.058964599 -0.19965206 1.1800001
0.060930084 -0.19931367 1.1780001
0.062995516 -0.19931367 1.1780001
0.065060936 -0.19931367 1.1780001
0.067126364 -0.19931367 1.1780001
0.069191791 -0.19931367 1.1780001
0.071257219 -0.19931367 1.1780001
0.073322646 -0.19931367 1.1780001
0.075644061 -0.19999045 1.182
0.0777165 -0.19999045 1.182
0.079788938 -0.19999045 1.182
0.081861377 -0.19999045 1.182
0.083933823 -0.19999045 1.182
0.085715204 -0.19931367 1.1780001
0.087780632 -0.19931367 1.1780001
0.089769788 -0.19914448 1.177
0.091677412 -0.19880608 1.1750001
0.093897134 -0.19914448 1.177
0.095960811 -0.19914448 1.177
0.098191053 -0.19948287 1.179
0.10042831 -0.19982126 1.1810001
0.10293294 -0.20066725 1.1860001
0.10501239 -0.20066725 1.1860001
0.10754333 -0.20151323 1.1910001
0.1097236 -0.20168242 1.192
0.11162597 -0.20134403 1.1900001
0.11371243 -0.20134403 1.1900001
0.1157989 -0.20134403 1.1900001
0.11739005 -0.20049804 1.1850001
0.11946775 -0.20049804 1.1850001
0.12154545 -0.20049804 1.1850001
0.12362315 -0.20049804 1.1850001
0.12570085 -0.20049804 1.1850001
0.12788638 -0.20066725 1.1860001
0.13040416 -0.20134403 1.1900001
0.13249063 -0.20134403 1.1900001
0.13491637 -0.20185162 1.1930001
0.1370081 -0.20185162 1.1930001
0.13909982 -0.20185162 1.1930001
0.14095485 -0.20151323 1.1910001
0.14304307 -0.20151323 1.1910001
0.14464386 -0.20083643 1.187
0.14660145 -0.20066725 1.1860001
0.14893164 -0.20100564 1.1880001
0.15076037 -0.20066725 1.1860001
0.15283982 -0.20066725 1.1860001
0.15491927 -0.20066725 1.1860001
0.15699872 -0.20066725 1.1860001
0.15907818 -0.20066725 1.1860001
0.16115764 -0.20066725 1.1860001
0.16323708 -0.20066725 1.1860001
0.16531654 -0.20066725 1.1860001
0.16796057 -0.20134403 1.1900001
0.17033282 -0.20168242 1.192
0.17300139 -0.20235921 1.1960001
0.17451277 -0.20168242 1.192
0.17660275 -0.20168242 1.192
0.17869271 -0.20168242 1.192
0.18078269 -0.20168242 1.192
0.18348633 -0.20235921 1.1960001
0.18558332 -0.20235921 1.1960001
0.18705261 -0.20168242 1.192
0.18882523 -0.20134403 1.1900001
0.19075127 -0.20117484 1.189
0.19299817 -0.20134403 1.1900001
0.19524857 -0.20151323 1.1910001
0.19717109 -0.20134403 1.1900001
0.19925757 -0.20134403 1.1900001
0.20134403 -0.20134403 1.1900001
0.2034305 -0.20134403 1.1900001
0.20551696 -0.20134403 1.1900001
0.20760342 -0.20134403 1.1900001
0.2096899 -0.20134403 1.1900001
0.21177636 -0.20134403 1.1900001
0.21386284 -0.20134403 1.1900001
0.2159493 -0.20134403 1.1900001
0.21803577 -0.20134403 1.1900001
0.22104712 -0.20219001 1.1950001
0.22314236 -0.20219001 1.1950001
0.22429517 -0.20134403 1.1900001
0.22638163 -0.20134403 1.1900001
0.22846811 -0.20134403 1.1900001
0.23055457 -0.20134403 1.1900001
0.23264103 -0.20134403 1.1900001
0.2331495 -0.19999045 1.182
0.23522194 -0.19999045 1.182
0.23789665 -0.20049804 1.1850001
0.24078439 -0.20117484 1.189
0.24286911 -0.20117484 1.189
0.24412975 -0.20049804 1.1850001
0.24620745 -0.20049804 1.1850001
0.24849467 -0.20066725 1.1860001
0.25247562 -0.20219001 1.1950001
0.25457084 -0.20219001 1.1950001
0.25666609 -0.20219001 1.1950001
0.26135975 -0.20422037 1.207
0.26347601 -0.20422037 1.207
0.26559231 -0.20422037 1.207
0.26770857 -0.20422037 1.207
0.26982486 -0.20422037 1.207
0.2710399 -0.20354359 1.2030001
0.2729221 -0.20337439 1.202
0.27457199 -0.203036 1.2
0.27644545 -0.20286681 1.199
0.27831537 -0.2026976 1.1980001
0.28111807 -0.2032052 1.2010001
-0.48034757 -0.18167602 1.085
-0.47888619 -0.18184346 1.0860001
-0.47786048 -0.18217835 1.0880001
-0.47420302 -0.18150857 1.0840001
-0.4718667 -0.18134113 1.0830001
-0.46996784 -0.18134113 1.0830001
-0.46763679 -0.18117368 1.082
-0.467031 -0.18167602 1.085
-0.46512866 -0.18167602 1.085
-0.46322629 -0.18167602 1.085
-0.46132392 -0.18167602 1.085
-0.45942155 -0.18167602 1.085
-0.45878422 -0.18217835 1.0880001
-0.45897621 -0.18301556 1.0930001
-0.45747799 -0.183183 1.0940001
-0.45555982 -0.183183 1.0940001
-0.45281234 -0.18284813 1.092
-0.45089772 -0.18284813 1.092
-0.44733846 -0.18217835 1.0880001
-0.44543082 -0.18217835 1.0880001
-0.4451538 -0.18284813 1.092
-0.44323915 -0.18284813 1.092
-0.44132453 -0.18284813 1.092
-0.43940988 -0.18284813 1.092
-0.43749523 -0.18284813 1.092
-0.43558061 -0.18284813 1.092
-0.43406308 -0.18301556 1.0930001
-0.4321467 -0.18301556 1.0930001
-0.43023029 -0.18301556 1.0930001
-0.42831391 -0.18301556 1.0930001
-0.4263975 -0.18301556 1.0930001
-0.42564622 -0.18351789 1.0960001
-0.42372456 -0.18351789 1.0960001
-0.42180291 -0.18351789 1.0960001
-0.41988125 -0.18351789 1.0960001
-0.4179596 -0.18351789 1.0960001
-0.41603795 -0.18351789 1.0960001
-0.41524982 -0.18402022 1.0990001
-0.4133229 -0.18402022 1.0990001
-0.41064733 -0.18368533 1.097
-0.40835133 -0.18351789 1.0960001
-0.40605885 -0.18335044 1.095
-0.4048771 -0.18368533 1.097
-0.404423 -0.18435511 1.1010001
-0.40285814 -0.18452255 1.102
-0.40092596 -0.18452255 1.102
-0.40008 -0.18502489 1.105
-0.39814255 -0.18502489 1.105
-0.39620513 -0.18502489 1.105
-0.39319727 -0.18452255 1.102
-0.39126509 -0.18452255 1.102
-0.38933292 -0.18452255 1.102
-0.38740075 -0.18452255 1.102
-0.38546857 -0.18452255 1.102
-0.38318837 -0.18435511 1.1010001
-0.38125795 -0.18435511 1.1010001
-0.38036111 -0.18485744 1.1040001
-0.37808266 -0.18469 1.103
-0.37819487 -0.18569465 1.1090001
-0.37726822 -0.18619698 1.1120001
-0.37498102 -0.18602954 1.1110001
-0.37303305 -0.18602954 1.1110001
-0.37108511 -0.18602954 1.1110001
-0.36913717 -0.18602954 1.1110001
-0.36751971 -0.18619698 1.1120001
-0.36655626 -0.18669932 1.115
-0.36460128 -0.18669932 1.115
-0.36264631 -0.18669932 1.115
-0.36004436 -0.18636443 1.113
-0.35744944 -0.18602954 1.1110001
-0.35550147 -0.18602954 1.1110001
-0.3532353 -0.18586209 1.11
-0.35255501 -0.18653187 1.1140001
-0.35060179 -0.18653187 1.1140001
-0.34864858 -0.18653187 1.1140001
-0.34669536 -0.18653187 1.1140001
-0.34536108 -0.18686676 1.1160001
-0.34463519 -0.18753654 1.12
-0.34267145 -0.18753654 1.12
-0.34070772 -0.18753654 1.12
-0.33874398 -0.18753654 1.12
-0.33678025 -0.18753654 1.12
-0.33481655 -0.18753654 1.12
-0.3322584 -0.18720165 1.118
-0.33088908 -0.18753654 1.12
-0.32892534 -0.18753654 1.12
-0.32696161 -0.18753654 1.12
-0.32383716 -0.18686676 1.1160001
-0.32389939 -0.18803886 1.123
-0.32193041 -0.18803886 1.123
-0.31939158 -0.18770398 1.1210001
-0.31714293 -0.18753654 1.12
-0.3151792 -0.18753654 1.12
-0.31377476 -0.18787141 1.1220001
-0.31180754 -0.18787141 1.1220001
-0.309288 -0.18753654 1.12
-0.30732426 -0.18753654 1.12
-0.30536053 -0.18753654 1.12
-0.30339679 -0.18753654 1.12
-0.30250961 -0.1882063 1.1240001
-0.30053887 -0.1882063 1.1240001
-0.29750559 -0.18753654 1.12
-0.29554185 -0.18753654 1.12
-0.29331601 -0.18736909 1.1190001
-0.29135403 -0.18736909 1.1190001
-0.29042652 -0.18803886 1.123
-0.28922811 -0.18854119 1.126
-0.28750896 -0.18870863 1.1270001
-0.28553295 -0.18870863 1.1270001
-0.28355697 -0.18870863 1.1270001
-0.28233051 -0.18921097 1.13
-0.28034922 -0.18921097 1.13
-0.27935335 -0.18988074 1.1340001
-0.27712047 -0.1897133 1.133
-0.27513394 -0.1897133 1.133
-0.2731474 -0.1897133 1.133
-0.27163956 -0.19004819 1.1350001
-0.26988709 -0.19021563 1.136
-0.26789531 -0.19021563 1.136
-0.26473317 -0.18937841 1.131
-0.26275015 -0.18937841 1.131
-0.26122826 -0.1897133 1.133
-0.25947055 -0.18988074 1.1340001
-0.25748226 -0.18988074 1.1340001
-0.25526866 -0.1897133 1.133
-0.25372925 -0.19004819 1.1350001
-0.2517392 -0.19004819 1.1350001
-0.24974918 -0.19004819 1.1350001
-0.24775915 -0.19004819 1.1350001
-0.24533604 -0.1897133 1.133
-0.24334952 -0.1897133 1.133
-0.24136299 -0.1897133 1.133
-0.23937646 -0.1897133 1.133
-0.23738994 -0.1897133 1.133
-0.2354034 -0.1897133 1.133
-0.23424095 -0.19038306 1.1370001
-0.23224741 -0.19038306 1.1370001
-0.2310639 -0.19105284 1.141
-0.22926411 -0.19122028 1.1420001
-0.22726181 -0.19122028 1.1420001
-0.22506225 -0.19105284 1.141
-0.2230617 -0.19105284 1.141
-0.22106114 -0.19105284 1.141
-0.21829262 -0.19038306 1.1370001
-0.21629909 -0.19038306 1.1370001
-0.21430555 -0.19038306 1.1370001
-0.21305893 -0.19105284 1.141
-0.21105838 -0.19105284 1.141
-0.20832492 -0.19038306 1.1370001
-0.20633139 -0.19038306 1.1370001
-0.20505671 -0.19105284 1.141
-0.20305616 -0.19105284 1.141
-0.20105562 -0.19105284 1.141
-0.19905506 -0.19105284 1.141
-0.19705451 -0.19105284 1.141
-0.1955668 -0.19155517 1.1440001
-0.19356099 -0.19155517 1.1440001
-0.19155517 -0.19155517 1.1440001
-0.18954936 -0.19155517 1.1440001
-0.18754354 -0.19155517 1.1440001
-0.18553773 -0.19155517 1.1440001
-0.18353193 -0.19155517 1.1440001
-0.18152611 -0.19155517 1.1440001
-0.18014799 -0.19222495 1.148
-0.17813516 -0.19222495 1.148
-0.17627575 -0.19239239 1.149
-0.17441283 -0.19255984 1.1500001
-0.1723965 -0.19255984 1.1500001
-0.17097279 -0.1932296 1.154
-0.16894944 -0.1932296 1.154
-0.1669261 -0.1932296 1.154
-0.16461696 -0.19289471 1.1520001
-0.16273826 -0.19306216 1.153
-0.16085605 -0.1932296 1.154
-0.15883271 -0.1932296 1.154
-0.15680936 -0.1932296 1.154
-0.15478602 -0.1932296 1.154
-0.15276267 -0.1932296 1.154
-0.15034746 -0.19272728 1.151
-0.14858711 -0.19306216 1.153
-0.1464384 -0.19289471 1.1520001
-0.14441855 -0.19289471 1.1520001
-0.14239872 -0.19289471 1.1520001
-0.14062259 -0.1932296 1.154
-0.13871935 -0.19339705 1.1550001
-0.13669425 -0.19339705 1.1550001
-0.13466915 -0.19339705 1.1550001
-0.1325292 -0.1932296 1.154
-0.13027968 -0.19289471 1.1520001
-0.12803717 -0.19255984 1.1500001
-0.12645917 -0.1932296 1.154
-0.12475931 -0.19373193 1.1570001
-0.1227307 -0.19373193 1.1570001
-0.12038913 -0.1932296 1.154
-0.11836578 -0.1932296 1.154
-0.11664488 -0.19373193 1.1570001
-0.11451721 -0.19356449 1.156
-0.1128796 -0.19423427 1.1600001
-0.11084573 -0.19423427 1.1600001
-0.10890567 -0.19440171 1.161
-0.10668595 -0.19406682 1.159
-0.10456354 -0.19389938 1.1580001
-0.10262172 -0.19406682 1.159
-0.10058961 -0.19406682 1.159
-0.098642536 -0.19423427 1.1600001
-0.096608669 -0.19423427 1.1600001
-0.094574802 -0.19423427 1.1600001
-0.092540935 -0.19423427 1.1600001
-0.090663113 -0.19456916 1.1620001
-0.088625737 -0.19456916 1.1620001
-0.086588368 -0.19456916 1.1620001
-0.084478229 -0.19440171 1.161
-0.08272665 -0.19507149 1.1650001
-0.080684014 -0.19507149 1.1650001
-0.078573883 -0.19490404 1.164
-0.076467246 -0.1947366 1.1630001
-0.074428126 -0.1947366 1.1630001
-0.072388999 -0.1947366 1.1630001
-0.070349872 -0.1947366 1.1630001
-0.068310745 -0.1947366 1.1630001
-0.066271618 -0.1947366 1.1630001
-0.064232491 -0.1947366 1.1630001
-0.062139887 -0.19456916 1.1620001
-0.060154237 -0.1947366 1.1630001
-0.05811511 -0.1947366 1.1630001
-0.056027766 -0.19456916 1.1620001
-0.054036856 -0.1947366 1.1630001
-0.051997729 -0.1947366 1.1630001
-0.049915645 -0.19456916 1.1620001
-0.047919475 -0.1947366 1.1630001
-0.045880351 -0.1947366 1.1630001
-0.043803528 -0.19456916 1.1620001
-0.041766152 -0.19456916 1.1620001
-0.03976297 -0.1947366 1.1630001
-0.037723843 -0.1947366 1.1630001
-0.035746083 -0.19507149 1.1650001
-0.033819169 -0.19574125 1.169
-0.031742346 -0.19557381 1.1680001
-0.029694453 -0.19557381 1.1680001
-0.02764656 -0.19557381 1.1680001
-0.025598666 -0.19557381 1.1680001
-0.023550773 -0.19557381 1.1680001
-0.02150288 -0.19557381 1.1680001
-0.019471643 -0.19574125 1.169
-0.017421996 -0.19574125 1.169
-0.01542495 -0.19641103 1.1730001
-0.01336829 -0.19641103 1.1730001
-0.011330917 -0.19674592 1.1750001
-0.00927075 -0.19674592 1.1750001
-0.00719831 -0.19641103 1.1730001
-0.0051416499 -0.19641103 1.1730001
-0.00308499 -0.19641103 1.1730001
-0.0010318366 -0.19708081 1.177
0.0010318366 -0.19708081 1.177
0.00309551 -0.19708081 1.177
0.0051591834 -0.19708081 1.177
0.0072228564 -0.19708081 1.177
0.00931809 -0.19775057 1.1810001
0.011388777 -0.19775057 1.1810001
0.013459464 -0.19775057 1.1810001
0.015530149 -0.19775057 1.1810001
0.017541224 -0.19708081 1.177
0.019621553 -0.19724825 1.1780001
0.02176062 -0.19791801 1.182
0.023812896 -0.19775057 1.1810001
0.025883583 -0.19775057 1.1810001
0.02790693 -0.19741569 1.179
0.029948687 -0.19724825 1.1780001
0.032014113 -0.19724825 1.1780001
0.034079541 -0.19724825 1.1780001
0.036144968 -0.19724825 1.1780001
0.038210392 -0.19724825 1.1780001
0.04027582 -0.19724825 1.1780001
0.042341247 -0.19724825 1.1780001
0.044406675 -0.19724825 1.1780001
0.046472099 -0.19724825 1.1780001
0.048578728 -0.19741569 1.179
0.05064591 -0.19741569 1.179
0.052668381 -0.19724825 1.1780001
0.054733805 -0.19724825 1.1780001
0.057040315 -0.19808546 1.1830001
0.059114508 -0.19808546 1.1830001
0.06113698 -0.19791801 1.182
0.062995516 -0.19724825 1.1780001
0.065060936 -0.19724825 1.1780001
0.067126364 -0.19724825 1.1780001
0.069191791 -0.19724825 1.1780001
0.071257219 -0.19724825 1.1780001
0.073322646 -0.19724825 1.1780001
0.075644061 -0.19791801 1.182
0.077979498 -0.19858779 1.1860001
0.079788938 -0.19791801 1.182
0.081861377 -0.19791801 1.182
0.083933823 -0.19791801 1.182
0.086006261 -0.19791801 1.182
0.087780632 -0.19724825 1.1780001
0.08984606 -0.19724825 1.1780001
0.091677412 -0.19674592 1.1750001
0.093976915 -0.19724825 1.1780001
0.095960811 -0.19708081 1.177
0.098191053 -0.19741569 1.179
0.10051334 -0.19791801 1.182
0.10293294 -0.19858779 1.1860001
0.10501239 -0.19858779 1.1860001
0.10754333 -0.19942501 1.1910001
0.1097236 -0.19959246 1.192
0.11162597 -0.19925757 1.1900001
0.11371243 -0.19925757 1.1900001
0.1157989 -0.19925757 1.1900001
0.11739005 -0.19842035 1.1850001
0.11946775 -0.19842035 1.1850001
0.12154545 -0.19842035 1.1850001
0.12362315 -0.19842035 1.1850001
0.12580693 -0.19858779 1.1860001
0.12788638 -0.19858779 1.1860001
0.13040416 -0.19925757 1.1900001
0.13249063 -0.19925757 1.1900001
0.13491637 -0.1997599 1.1930001
0.1370081 -0.1997599 1.1930001
0.13909982 -0.1997599 1.1930001
0.1403631 -0.19858779 1.1860001
0.14244255 -0.19858779 1.1860001
0.14452201 -0.19858779 1.1860001
0.14660145 -0.19858779 1.1860001
0.14830482 -0.19808546 1.1830001
0.15012479 -0.19775057 1.1810001
0.15283982 -0.19858779 1.1860001
0.15491927 -0.19858779 1.1860001
0.15699872 -0.19858779 1.1860001
0.15921231 -0.19875523 1.187
0.16129352 -0.19875523 1.187
0.1640629 -0.19959246 1.192
0.16587409 -0.19925757 1.1900001
0.16796057 -0.19925757 1.1900001
0.17033282 -0.19959246 1.192
0.17300139 -0.20026222 1.1960001
0.17451277 -0.19959246 1.192
0.17660275 -0.19959246 1.192
0.17929237 -0.20026222 1.1960001
0.18138935 -0.20026222 1.1960001
0.18348633 -0.20026222 1.1960001
0.18558332 -0.20026222 1.1960001
0.18673876 -0.19925757 1.1900001
0.18882523 -0.19925757 1.1900001
0.1909117 -0.19925757 1.1900001
0.19299817 -0.19925757 1.1900001
0.19508463 -0.19925757 1.1900001
0.19717109 -0.19925757 1.1900001
0.19925757 -0.19925757 1.1900001
0.20134403 -0.19925757 1.1900001
0.2034305 -0.19925757 1.1900001
0.20551696 -0.19925757 1.1900001
0.20760342 -0.19925757 1.1900001
0.2096899 -0.19925757 1.1900001
0.21177636 -0.19925757 1.1900001
0.21386284 -0.19925757 1.1900001
0.2159493 -0.19925757 1.1900001
0.21803577 -0.19925757 1.1900001
0.2203072 -0.19942501 1.1910001
0.22239543 -0.19942501 1.1910001
0.22429517 -0.19925757 1.1900001
0.22638163 -0.19925757 1.1900001
0.22846811 -0.19925757 1.1900001
0.23055457 -0.19925757 1.1900001
0.23264103 -0.19925757 1.1900001
0.2331495 -0.19791801 1.182
0.23522194 -0.19791801 1.182
0.23789665 -0.19842035 1.1850001
0.24058188 -0.19892268 1.1880001
0.24286911 -0.19909012 1.189
0.24330568 -0.19775057 1.1810001
0.24558415 -0.19791801 1.182
0.24849467 -0.19858779 1.1860001
0.25226435 -0.19992734 1.194
0.25457084 -0.20009479 1.1950001
0.25838435 -0.20143433 1.2030001
0.26049361 -0.20143433 1.2030001
0.26347601 -0.20210411 1.207
0.26559231 -0.20210411 1.207
0.26682138 -0.20143433 1.2030001
0.26893064 -0.20143433 1.2030001
0.2710399 -0.20143433 1.2030001
0.2729221 -0.20126688 1.202
0.27571604 -0.20176922 1.205
0.27736768 -0.20143433 1.2030001
0.27924463 -0.20126688 1.202
0.28135213 -0.20126688 1.202
-0.48167574 -0.18027072 1.0880001
-0.48020905 -0.1804364 1.0890001
-0.47829968 -0.1804364 1.0890001
-0.47507793 -0.17993934 1.0860001
-0.47230241 -0.17960796 1.0840001
-0.47040179 -0.17960796 1.0840001
-0.46893337 -0.17977364 1.085
-0.46660057 -0.17960796 1.0840001
-0.46469995 -0.17960796 1.0840001
-0.46322629 -0.17977364 1.085
-0.46132392 -0.17977364 1.085
-0.45984498 -0.17993934 1.0860001
-0.4592059 -0.1804364 1.0890001
-0.45897621 -0.18109916 1.0930001
-0.4570598 -0.18109916 1.0930001
-0.45514342 -0.18109916 1.0930001
-0.45281234 -0.18093348 1.092
-0.45089772 -0.18093348 1.092
-0.44733846 -0.18027072 1.0880001
-0.44543082 -0.18027072 1.0880001
-0.4435232 -0.18027072 1.0880001
-0.44323915 -0.18093348 1.092
-0.44132453 -0.18093348 1.092
-0.43940988 -0.18093348 1.092
-0.43749523 -0.18093348 1.092
-0.43597949 -0.18109916 1.0930001
-0.43406308 -0.18109916 1.0930001
-0.4321467 -0.18109916 1.0930001
-0.43023029 -0.18109916 1.0930001
-0.42831391 -0.18109916 1.0930001
-0.4263975 -0.18109916 1.0930001
-0.42564622 -0.18159623 1.0960001
-0.42372456 -0.18159623 1.0960001
-0.42180291 -0.18159623 1.0960001
-0.41988125 -0.18159623 1.0960001
-0.41757825 -0.18143055 1.095
-0.41565835 -0.18143055 1.095
-0.4133606 -0.18126486 1.0940001
-0.4133229 -0.18209331 1.0990001
-0.40989864 -0.18143055 1.095
-0.40760615 -0.18126486 1.0940001
-0.40605885 -0.18143055 1.095
-0.4048771 -0.18176194 1.097
-0.404423 -0.18242469 1.1010001
-0.40285814 -0.18259038 1.102
-0.40092596 -0.18259038 1.102
-0.40008 -0.18308745 1.105
-0.39814255 -0.18308745 1.105
-0.39477089 -0.18242469 1.1010001
-0.39212686 -0.18209331 1.0990001
-0.39019996 -0.18209331 1.0990001
-0.38827303 -0.18209331 1.0990001
-0.3870492 -0.18242469 1.1010001
-0.38651794 -0.18308745 1.105
-0.38388443 -0.18275607 1.103
-0.38195053 -0.18275607 1.103
-0.3800166 -0.18275607 1.103
-0.37945378 -0.18341883 1.107
-0.37819487 -0.18375021 1.1090001
-0.37726822 -0.18424729 1.1120001
-0.37498102 -0.18408158 1.1110001
-0.37303305 -0.18408158 1.1110001
-0.37008306 -0.18358453 1.108
-0.36814037 -0.18358453 1.108
-0.36652818 -0.18375021 1.1090001
-0.36491251 -0.1839159 1.11
-0.3639473 -0.18441297 1.113
-0.36232108 -0.18457866 1.1140001
-0.36004436 -0.18441297 1.113
-0.35744944 -0.18408158 1.1110001
-0.35550147 -0.18408158 1.1110001
-0.35355353 -0.18408158 1.1110001
-0.35287148 -0.18474434 1.115
-0.35060179 -0.18457866 1.1140001
-0.34864858 -0.18457866 1.1140001
-0.34731779 -0.18491004 1.1160001
-0.34567055 -0.18507573 1.1170001
-0.34371206 -0.18507573 1.1170001
-0.34267145 -0.1855728 1.12
-0.34070772 -0.1855728 1.12
-0.33783665 -0.18507573 1.1170001
-0.33497608 -0.18457866 1.1140001
-0.33302286 -0.18457866 1.1140001
-0.33196121 -0.18507573 1.1170001
-0.33000275 -0.18507573 1.1170001
-0.3280443 -0.18507573 1.1170001
-0.32608581 -0.18507573 1.1170001
-0.32383716 -0.18491004 1.1160001
-0.32245728 -0.18524142 1.118
-0.32078373 -0.1854071 1.1190001
-0.31825191 -0.18507573 1.1170001
-0.31629345 -0.18507573 1.1170001
-0.31546062 -0.18573849 1.1210001
-0.31405443 -0.18606988 1.123
-0.31208545 -0.18606988 1.123
-0.309288 -0.1855728 1.12
-0.30732426 -0.1855728 1.12
-0.30536053 -0.1855728 1.12
-0.30339679 -0.1855728 1.12
-0.30250961 -0.18623556 1.1240001
-0.29946932 -0.1855728 1.12
-0.29750559 -0.1855728 1.12
-0.29633349 -0.18606988 1.123
-0.29436451 -0.18606988 1.123
-0.2923955 -0.18606988 1.123
-0.29094374 -0.18640125 1.125
-0.28897125 -0.18640125 1.125
-0.28750896 -0.18673263 1.1270001
-0.28553295 -0.18673263 1.1270001
-0.28355697 -0.18673263 1.1270001
-0.28158095 -0.18673263 1.1270001
-0.28034922 -0.18722969 1.13
-0.2795997 -0.18805815 1.1350001
-0.27736506 -0.18789245 1.1340001
-0.27513394 -0.18772677 1.133
-0.27411175 -0.18838952 1.1370001
-0.27187887 -0.18822384 1.136
-0.26988709 -0.18822384 1.136
