# .PCD v0.7 - Point Cloud Data file format
VERSION 0.7
FIELDS x y z
SIZE 4 4 4
TYPE F F F
COUNT 1 1 1
WIDTH 1381
HEIGHT 1
VIEWPOINT 0 0 0 1 0 0 0
POINTS 1381
DATA ascii
-0.036428131 0.10417167 0.72900003
-0.035101734 0.10402878 0.72800004
-0.033825308 0.10402878 0.72800004
-0.0326383 0.10431457 0.73000002
-0.031358365 0.10431457 0.73000002
-0.030119637 0.10445746 0.73100001
-0.028837949 0.10445746 0.73100001
-0.027593959 0.10460036 0.73200005
-0.02631052 0.10460036 0.73200005
-0.02502708 0.10460036 0.73200005
-0.023776077 0.10474326 0.73300004
-0.022521567 0.10488615 0.73400003
-0.02129248 0.10517195 0.73600006
-0.01997485 0.10502905 0.73500001
-0.018736996 0.10531484 0.73700005
-0.01746846 0.10545774 0.73800004
-0.016174501 0.10545774 0.73800004
-0.014840214 0.10517195 0.73600006
-0.01200332 0.093168624 0.65200001
-0.01089346 0.093454421 0.65400004
-0.01095395 0.10502905 0.73500001
-0.0096652498 0.10502905 0.73500001
-0.0083537567 0.10474326 0.73300004
-0.0070589199 0.10460036 0.73200005
-0.0057675899 0.10445746 0.73100001
-0.0044674934 0.10402878 0.72800004
-0.0031866834 0.10388587 0.72700006
-0.00191464 0.10402878 0.72800004
-0.00063645997 0.10374298 0.72600001
0.00063382997 0.10331429 0.72300005
0.00190149 0.10331429 0.72300005
0.0031735334 0.10345718 0.72400004
0.0044306731 0.10317139 0.72200006
0.0056965798 0.10317139 0.72200006
0.0069528432 0.1030285 0.72100002
0.0075787832 0.095026284 0.66500002
0.0087315999 0.09488339 0.66400003
0.0099107167 0.095026284 0.66500002
0.01109334 0.095169179 0.66600001
0.01227947 0.095312074 0.66700006
0.01342878 0.095169179 0.66600001
0.014640333 0.095454976 0.66800004
0.015835229 0.095597871 0.66900003
0.017033633 0.095740765 0.67000002
0.018208366 0.095740765 0.67000002
0.019469891 0.096169457 0.67300004
0.02710215 0.098170012 0.68700004
0.028306689 0.098170012 0.68700004
0.030715769 0.098170012 0.68700004
0.031966772 0.098312907 0.68800002
0.033173066 0.098312907 0.68800002
0.034329388 0.098170012 0.68700004
0.035482205 0.09802711 0.68600005
0.036684994 0.09802711 0.68600005
0.037887778 0.09802711 0.68600005
0.039033584 0.097884215 0.68500006
0.040175881 0.097741321 0.68400002
0.04137516 0.097741321 0.68400002
-0.057314713 0.097494103 0.67400002
-0.056049682 0.09734945 0.67300004
-0.054869689 0.09734945 0.67300004
-0.053530142 0.097060151 0.671
-0.052275632 0.096915498 0.67000002
-0.051100899 0.096915498 0.67000002
-0.049702615 0.096481547 0.66700006
-0.048460379 0.096336901 0.66600001
-0.047150638 0.096047603 0.66400003
-0.045847911 0.095758297 0.66200006
-0.044687208 0.095758297 0.66200006
-0.0435265 0.095758297 0.66200006
-0.0422378 0.095468998 0.66000003
-0.040956113 0.095179699 0.65800005
-0.039802421 0.095179699 0.65800005
-0.042701557 0.10516055 0.72700006
-0.041426882 0.10516055 0.72700006
-0.040152211 0.10516055 0.72700006
-0.038877536 0.10516055 0.72700006
-0.037706308 0.10544985 0.72900003
-0.036428131 0.10544985 0.72900003
-0.035101734 0.1053052 0.72800004
-0.030433483 0.094745748 0.65500003
-0.029285049 0.094745748 0.65500003
-0.028136617 0.094745748 0.65500003
-0.030119637 0.10573915 0.73100001
-0.028837949 0.10573915 0.73100001
-0.027593959 0.1058838 0.73200005
-0.02631052 0.1058838 0.73200005
-0.02502708 0.1058838 0.73200005
-0.023776077 0.10602845 0.73300004
-0.022490883 0.10602845 0.73300004
-0.021263549 0.10631775 0.73500001
-0.017664833 0.094022498 0.65000004
-0.016525166 0.094022498 0.65000004
-0.01540917 0.094167151 0.65100002
-0.01426775 0.094167151 0.65100002
-0.013166657 0.094456449 0.65300006
-0.01202173 0.094456449 0.65300006
-0.01089346 0.094601102 0.65400004
-0.0097467797 0.094601102 0.65400004
-0.0086263996 0.094890401 0.65600002
-0.0074648168 0.094745748 0.65500003
-0.00630674 0.094601102 0.65400004
-0.0051521701 0.094456449 0.65300006
-0.0040011066 0.094311796 0.65200001
-0.0028623166 0.094456449 0.65300006
-0.00171476 0.094311796 0.65200001
-0.00057158666 0.094311796 0.65200001
0.00063470664 0.1047266 0.72400004
0.00172002 0.094601102 0.65400004
0.0028667001 0.094601102 0.65400004
0.00403179 0.095035046 0.65700001
0.0051837298 0.095035046 0.65700001
0.0063549564 0.095324352 0.65900004
0.0075445934 0.095758297 0.66200006
0.0087184496 0.09590295 0.66300005
0.0098958137 0.096047603 0.66400003
0.011076683 0.096192248 0.66500002
0.01224265 0.096192248 0.66500002
0.013448943 0.096481547 0.66700006
0.014640333 0.0966262 0.66800004
0.0158589 0.096915498 0.67000002
0.017033633 0.096915498 0.67000002
0.018208366 0.096915498 0.67000002
0.019469891 0.09734945 0.67300004
0.027141599 0.099519201 0.68800002
0.028347893 0.099519201 0.68800002
0.029554186 0.099519201 0.68800002
0.03076048 0.099519201 0.68800002
0.03192031 0.099374548 0.68700004
0.033124849 0.099374548 0.68700004
0.034279421 0.099229902 0.68600005
0.035482205 0.099229902 0.68600005
0.036684994 0.099229902 0.68600005
0.037887778 0.099229902 0.68600005
0.039090566 0.099229902 0.68600005
0.040234618 0.099085249 0.68500006
0.041435651 0.099085249 0.68500006
-0.054869689 0.098529443 0.67300004
-0.053609919 0.098383039 0.67200005
-0.052275632 0.098090231 0.67000002
-0.051100899 0.098090231 0.67000002
-0.049702615 0.09765102 0.66700006
-0.048460379 0.097504616 0.66600001
-0.047150638 0.097211815 0.66400003
-0.045917168 0.097065412 0.66300005
-0.044687208 0.096919008 0.66200006
-0.0435265 0.096919008 0.66200006
-0.0422378 0.0966262 0.66000003
-0.040956113 0.096333392 0.65800005
-0.039681438 0.096040584 0.65600002
-0.038413778 0.095747776 0.65400004
-0.0372671 0.095747776 0.65400004
-0.036065191 0.095601372 0.65300006
-0.034920264 0.095601372 0.65300006
-0.033878785 0.09589418 0.65500003
-0.032730348 0.09589418 0.65500003
-0.031581916 0.09589418 0.65500003
-0.030433483 0.09589418 0.65500003
-0.02924034 0.095747776 0.65400004
-0.028136617 0.09589418 0.65500003
-0.026988184 0.09589418 0.65500003
-0.025800301 0.095747776 0.65400004
-0.024578227 0.095454976 0.65200001
-0.02631052 0.10716724 0.73200005
-0.02502708 0.10716724 0.73200005
-0.023776077 0.10731364 0.73300004
-0.022490883 0.10731364 0.73300004
-0.01883343 0.095308572 0.65100002
-0.017664833 0.095162168 0.65000004
-0.016499743 0.095015764 0.64900005
-0.0153855 0.095162168 0.65000004
-0.01426775 0.095308572 0.65100002
-0.013166657 0.095601372 0.65300006
-0.01202173 0.095601372 0.65300006
-0.01089346 0.095747776 0.65400004
-0.0097467797 0.095747776 0.65400004
-0.0086263996 0.096040584 0.65600002
-0.0074648168 0.09589418 0.65500003
-0.00630674 0.095747776 0.65400004
-0.0051521701 0.095601372 0.65300006
-0.0040011066 0.095454976 0.65200001
-0.0028623166 0.095601372 0.65300006
-0.00171476 0.095454976 0.65200001
-0.00057158666 0.095454976 0.65200001
0.00057333999 0.095747776 0.65400004
0.00172002 0.095747776 0.65400004
0.0028710833 0.09589418 0.65500003
0.00403179 0.096186988 0.65700001
0.0051837298 0.096186988 0.65700001
0.0063356701 0.096186988 0.65700001
0.0075331968 0.096772604 0.66100001
0.0087184496 0.097065412 0.66300005
0.0098660067 0.096919008 0.66200006
0.011076683 0.097358219 0.66500002
0.01224265 0.097358219 0.66500002
0.013448943 0.09765102 0.66700006
0.014640333 0.097797424 0.66800004
0.015835229 0.097943828 0.66900003
0.017033633 0.098090231 0.67000002
0.018208366 0.098090231 0.67000002
0.019469891 0.098529443 0.67300004
0.025973003 0.1008719 0.68900001
0.02710215 0.10057909 0.68700004
0.028306689 0.10057909 0.68700004
0.029468274 0.10043269 0.68600005
0.03067106 0.10043269 0.68600005
0.03192031 0.10057909 0.68700004
0.033124849 0.10057909 0.68700004
0.034279421 0.10043269 0.68600005
0.035482205 0.10043269 0.68600005
0.036684994 0.10043269 0.68600005
0.037887778 0.10043269 0.68600005
0.039090566 0.10043269 0.68600005
0.040293355 0.10043269 0.68600005
0.041435651 0.10028628 0.68500006
-0.054951221 0.099857591 0.67400002
-0.053689696 0.099709436 0.67300004
-0.052353658 0.099413119 0.671
-0.051253438 0.099561282 0.67200005
-0.049777132 0.098968655 0.66800004
-0.048533142 0.098820493 0.66700006
-0.047221649 0.098524183 0.66500002
-0.045917168 0.098227866 0.66300005
-0.044687208 0.098079711 0.66200006
-0.0435265 0.098079711 0.66200006
-0.042301796 0.097931556 0.66100001
-0.041080602 0.097783402 0.66000003
-0.039620951 0.097042613 0.65500003
-0.038355041 0.096746303 0.65300006
-0.037210118 0.096746303 0.65300006
-0.036065191 0.096746303 0.65300006
-0.034920264 0.096746303 0.65300006
-0.033827059 0.096894458 0.65400004
-0.032730348 0.097042613 0.65500003
-0.031581916 0.097042613 0.65500003
-0.030433483 0.097042613 0.65500003
-0.02924034 0.096894458 0.65400004
-0.028136617 0.097042613 0.65500003
-0.026988184 0.097042613 0.65500003
-0.025800301 0.096894458 0.65400004
-0.024578227 0.096598148 0.65200001
-0.023435052 0.096598148 0.65200001
-0.022223501 0.096301831 0.65000004
-0.021083834 0.096301831 0.65000004
-0.019944167 0.096301831 0.65000004
-0.0188045 0.096301831 0.65000004
-0.017664833 0.096301831 0.65000004
-0.016525166 0.096301831 0.65000004
-0.01540917 0.096449986 0.65100002
-0.01426775 0.096449986 0.65100002
-0.013146494 0.096598148 0.65200001
-0.01204014 0.096894458 0.65400004
-0.010876804 0.096746303 0.65300006
-0.0097467797 0.096894458 0.65400004
-0.0086263996 0.097190775 0.65600002
-0.0074648168 0.097042613 0.65500003
-0.00630674 0.096894458 0.65400004
-0.0051521701 0.096746303 0.65300006
-0.0040072431 0.096746303 0.65300006
-0.0028623166 0.096746303 0.65300006
-0.00171739 0.096746303 0.65300006
-0.00057246332 0.096746303 0.65300006
0.00057421665 0.097042613 0.65500003
0.00172528 0.097190775 0.65600002
0.0028754666 0.097190775 0.65600002
0.0040256535 0.097190775 0.65600002
0.0051837298 0.09733893 0.65700001
0.0063356701 0.09733893 0.65700001
0.0075331968 0.097931556 0.66100001
0.0087053003 0.098079711 0.66200006
0.0098660067 0.098079711 0.66200006
0.01109334 0.098672338 0.66600001
0.01229788 0.098968655 0.66800004
0.013448943 0.098820493 0.66700006
0.014640333 0.098968655 0.66800004
0.015835229 0.09911681 0.66900003
0.017033633 0.099264964 0.67000002
0.018208366 0.099264964 0.67000002
0.01941203 0.099413119 0.671
0.02228399 0.10178363 0.68700004
0.025973003 0.10207994 0.68900001
0.027062699 0.10163547 0.68600005
0.028265487 0.10163547 0.68600005
0.029468274 0.10163547 0.68600005
0.03067106 0.10163547 0.68600005
0.03192031 0.10178363 0.68700004
0.033124849 0.10178363 0.68700004
0.034279421 0.10163547 0.68600005
0.035482205 0.10163547 0.68600005
0.036684994 0.10163547 0.68600005
0.037887778 0.10163547 0.68600005
0.039090566 0.10163547 0.68600005
0.040234618 0.10148732 0.68500006
0.04137516 0.10133916 0.68400002
-0.05384925 0.10118925 0.67500001
-0.05243168 0.10073952 0.67200005
-0.05117717 0.10058961 0.671
-0.049926165 0.1004397 0.67000002
-0.04867867 0.10028979 0.66900003
-0.047363669 0.099989973 0.66700006
-0.045917168 0.099390328 0.66300005
-0.044687208 0.099240422 0.66200006
-0.0435265 0.099240422 0.66200006
-0.042301796 0.099090509 0.66100001
-0.041018356 0.09879069 0.65900004
-0.039620951 0.098191053 0.65500003
-0.038355041 0.097891226 0.65300006
-0.037210118 0.097891226 0.65300006
-0.03600996 0.097741321 0.65200001
-0.034920264 0.097891226 0.65300006
-0.033775337 0.097891226 0.65300006
-0.032730348 0.098191053 0.65500003
-0.031581916 0.098191053 0.65500003
-0.030433483 0.098191053 0.65500003
-0.029285049 0.098191053 0.65500003
-0.02809366 0.09804114 0.65400004
-0.026946981 0.09804114 0.65400004
-0.02576085 0.097891226 0.65300006
-0.024578227 0.097741321 0.65200001
-0.023435052 0.097741321 0.65200001
-0.022223501 0.097441502 0.65000004
-0.021083834 0.097441502 0.65000004
-0.019913483 0.097291589 0.64900005
-0.018775569 0.097291589 0.64900005
-0.017692009 0.097591408 0.65100002
-0.016576013 0.097741321 0.65200001
-0.01543284 0.097741321 0.65200001
-0.014289667 0.097741321 0.65200001
-0.013146494 0.097741321 0.65200001
-0.01204014 0.09804114 0.65400004
-0.010910116 0.098191053 0.65500003
-0.0097765867 0.098340958 0.65600002
-0.0086263996 0.098340958 0.65600002
-0.0074648168 0.098191053 0.65500003
-0.00630674 0.09804114 0.65400004
-0.0051521701 0.097891226 0.65300006
-0.00401338 0.09804114 0.65400004
-0.0028710833 0.098191053 0.65500003
-0.00172265 0.098191053 0.65500003
-0.00057421665 0.098191053 0.65500003
0.00057509332 0.098340958 0.65600002
0.00172791 0.098490871 0.65700001
0.0028798499 0.098490871 0.65700001
0.00403179 0.098490871 0.65700001
0.0051995101 0.09879069 0.65900004
0.0063549564 0.09879069 0.65900004
0.0075445934 0.099240422 0.66200006
0.0087184496 0.099390328 0.66300005
0.0098660067 0.099240422 0.66200006
0.011109997 0.099989973 0.66700006
0.01229788 0.10013988 0.66800004
0.013509433 0.1004397 0.67000002
0.014684167 0.1004397 0.67000002
0.0158589 0.1004397 0.67000002
0.017059056 0.10058961 0.671
0.018289896 0.10088943 0.67300004
0.019469891 0.10088943 0.67300004
0.021048766 0.10283826 0.68600005
0.02228399 0.10298817 0.68700004
0.023488529 0.10298817 0.68700004
0.024657127 0.10283826 0.68600005
0.025859913 0.10283826 0.68600005
0.027062699 0.10283826 0.68600005
0.028265487 0.10283826 0.68600005
0.029468274 0.10283826 0.68600005
0.03067106 0.10283826 0.68600005
0.03192031 0.10298817 0.68700004
0.033124849 0.10298817 0.68700004
0.034329388 0.10298817 0.68700004
0.035482205 0.10283826 0.68600005
0.03673847 0.10298817 0.68700004
0.037887778 0.10283826 0.68600005
0.039090566 0.10283826 0.68600005
0.040234618 0.10268835 0.68500006
0.041435651 0.10268835 0.68500006
-0.053929027 0.10252441 0.67600006
-0.052509703 0.10206942 0.67300004
-0.05117717 0.10176609 0.671
-0.049926165 0.10161443 0.67000002
-0.04867867 0.10146277 0.66900003
-0.047363669 0.10115945 0.66700006
-0.045917168 0.10055279 0.66300005
-0.04475471 0.10055279 0.66300005
-0.0435265 0.10040113 0.66200006
-0.042365793 0.10040113 0.66200006
-0.041018356 0.099946134 0.65900004
-0.03956046 0.099187821 0.65400004
-0.038355041 0.099036157 0.65300006
-0.037153132 0.098884493 0.65200001
-0.03600996 0.098884493 0.65200001
-0.034866787 0.098884493 0.65200001
-0.033775337 0.099036157 0.65300006
-0.032730348 0.099339485 0.65500003
-0.031581916 0.099339485 0.65500003
-0.030433483 0.099339485 0.65500003
-0.029285049 0.099339485 0.65500003
-0.028136617 0.099339485 0.65500003
-0.026946981 0.099187821 0.65400004
-0.02576085 0.099036157 0.65300006
-0.024578227 0.098884493 0.65200001
-0.023435052 0.098884493 0.65200001
-0.022223501 0.098581165 0.65000004
-0.021083834 0.098581165 0.65000004
-0.019913483 0.098429501 0.64900005
-0.018775569 0.098429501 0.64900005
-0.017664833 0.098581165 0.65000004
-0.016550589 0.098732829 0.65100002
-0.01543284 0.098884493 0.65200001
-0.014289667 0.098884493 0.65200001
-0.013146494 0.098884493 0.65200001
-0.01204014 0.099187821 0.65400004
-0.010910116 0.099339485 0.65500003
-0.0097616836 0.099339485 0.65500003
-0.0086132502 0.099339485 0.65500003
-0.0074648168 0.099339485 0.65500003
-0.0062970966 0.099036157 0.65300006
-0.0051679499 0.099339485 0.65500003
-0.0040256535 0.099491149 0.65600002
-0.0028710833 0.099339485 0.65500003
-0.00172528 0.099491149 0.65600002
-0.00057509332 0.099491149 0.65600002
0.00057596999 0.099642806 0.65700001
0.00173054 0.09979447 0.65800005
0.0028798499 0.099642806 0.65700001
0.0040440634 0.099946134 0.65900004
0.0051995101 0.099946134 0.65900004
0.0063549564 0.099946134 0.65900004
0.0075445934 0.10040113 0.66200006
0.0087184496 0.10055279 0.66300005
0.0099107167 0.10085612 0.66500002
0.011109997 0.10115945 0.66700006
0.0123347 0.10161443 0.67000002
0.013509433 0.10161443 0.67000002
0.014706084 0.10176609 0.671
0.015906241 0.10191776 0.67200005
0.017109903 0.10206942 0.67300004
0.018289896 0.10206942 0.67300004
0.019845979 0.10404105 0.68600005
0.021048766 0.10404105 0.68600005
0.022251554 0.10404105 0.68600005
0.02345434 0.10404105 0.68600005
0.024657127 0.10404105 0.68600005
0.025859913 0.10404105 0.68600005
0.027062699 0.10404105 0.68600005
0.028265487 0.10404105 0.68600005
0.029468274 0.10404105 0.68600005
0.03067106 0.10404105 0.68600005
0.031873848 0.10404105 0.68600005
0.033076633 0.10404105 0.68600005
0.034279421 0.10404105 0.68600005
0.035430484 0.10388938 0.68500006
0.036684994 0.10404105 0.68600005
0.037887778 0.10404105 0.68600005
0.039033584 0.10388938 0.68500006
0.040234618 0.10388938 0.68500006
0.04137516 0.10373772 0.68400002
-0.054008804 0.10386308 0.67700005
-0.052743774 0.10370967 0.67600006
-0.05132971 0.10324942 0.67300004
-0.050075199 0.103096 0.67200005
-0.048751432 0.10278916 0.67000002
-0.04743468 0.10248233 0.66800004
-0.045917168 0.10171525 0.66300005
-0.04475471 0.10171525 0.66300005
-0.043592248 0.10171525 0.66300005
-0.042365793 0.10156183 0.66200006
-0.041080602 0.101255 0.66000003
-0.039620951 0.10048792 0.65500003
-0.038472515 0.10048792 0.65500003
-0.037210118 0.10018108 0.65300006
-0.036120418 0.1003345 0.65400004
-0.034920264 0.10018108 0.65300006
-0.033827059 0.1003345 0.65400004
-0.032780319 0.10064133 0.65600002
-0.031630132 0.10064133 0.65600002
-0.030433483 0.10048792 0.65500003
-0.029285049 0.10048792 0.65500003
-0.028136617 0.10048792 0.65500003
-0.026946981 0.1003345 0.65400004
-0.02576085 0.10018108 0.65300006
-0.024578227 0.10002767 0.65200001
-0.023399109 0.099874251 0.65100002
-0.02218931 0.099567413 0.64900005
-0.021051396 0.099567413 0.64900005
-0.019913483 0.099567413 0.64900005
-0.018775569 0.099567413 0.64900005
-0.017692009 0.099874251 0.65100002
-0.016576013 0.10002767 0.65200001
-0.01543284 0.10002767 0.65200001
-0.014311583 0.10018108 0.65300006
-0.01318682 0.1003345 0.65400004
-0.01204014 0.1003345 0.65400004
-0.010910116 0.10048792 0.65500003
-0.0097616836 0.10048792 0.65500003
-0.0086132502 0.10048792 0.65500003
-0.0074534197 0.1003345 0.65400004
-0.00630674 0.1003345 0.65400004
-0.0051758401 0.10064133 0.65600002
-0.00403179 0.10079475 0.65700001
-0.0028754666 0.10064133 0.65600002
-0.00172265 0.10048792 0.65500003
-0.00057509332 0.10064133 0.65600002
0.00057684665 0.10094816 0.65800005
0.00173054 0.10094816 0.65800005
0.0028886166 0.10110158 0.65900004
0.0040440634 0.10110158 0.65900004
0.0051995101 0.10110158 0.65900004
0.0063645998 0.101255 0.66000003
0.00755599 0.10171525 0.66300005
0.0087184496 0.10171525 0.66300005
0.0099107167 0.10202208 0.66500002
0.011109997 0.10232892 0.66700006
0.0123347 0.10278916 0.67000002
0.013509433 0.10278916 0.67000002
0.014706084 0.10294259 0.671
0.01588257 0.10294259 0.671
0.017109903 0.10324942 0.67300004
0.018289896 0.10324942 0.67300004
0.01987491 0.10539725 0.68700004
0.021048766 0.10524383 0.68600005
0.022251554 0.10524383 0.68600005
0.023420149 0.10509042 0.68500006
0.024657127 0.10524383 0.68600005
0.025859913 0.10524383 0.68600005
0.027062699 0.10524383 0.68600005
0.028265487 0.10524383 0.68600005
0.029468274 0.10524383 0.68600005
0.03067106 0.10524383 0.68600005
0.031873848 0.10524383 0.68600005
0.033076633 0.10524383 0.68600005
0.034279421 0.10524383 0.68600005
0.035378762 0.104937 0.68400002
0.036631517 0.10509042 0.68500006
0.037832551 0.10509042 0.68500006
0.039033584 0.10509042 0.68500006
0.040234618 0.10509042 0.68500006
0.041314669 0.10478358 0.68300003
-0.05132971 0.10442941 0.67300004
-0.050075199 0.10427424 0.67200005
-0.048751432 0.1039639 0.67000002
-0.047505688 0.10380873 0.66900003
-0.046124939 0.10334322 0.66600001
-0.04475471 0.10287771 0.66300005
-0.0435265 0.10272254 0.66200006
-0.042301796 0.10256737 0.66100001
-0.041018356 0.10225703 0.65900004
-0.039681438 0.10179152 0.65600002
-0.038413778 0.10148118 0.65400004
-0.0372671 0.10148118 0.65400004
-0.036120418 0.10148118 0.65400004
-0.035027217 0.10163635 0.65500003
-0.033878785 0.10163635 0.65500003
-0.032780319 0.10179152 0.65600002
-0.031630132 0.10179152 0.65600002
-0.030479947 0.10179152 0.65600002
-0.029285049 0.10163635 0.65500003
-0.02809366 0.10148118 0.65400004
-0.026946981 0.10148118 0.65400004
-0.025800301 0.10148118 0.65400004
-0.024578227 0.10117084 0.65200001
-0.023470996 0.10132601 0.65300006
-0.02229188 0.10117084 0.65200001
-0.02111627 0.10101567 0.65100002
-0.01997485 0.10101567 0.65100002
-0.01883343 0.10101567 0.65100002
-0.017692009 0.10101567 0.65100002
-0.016576013 0.10117084 0.65200001
-0.01543284 0.10117084 0.65200001
-0.014311583 0.10132601 0.65300006
-0.01318682 0.10148118 0.65400004
-0.01204014 0.10148118 0.65400004
-0.010910116 0.10163635 0.65500003
-0.0097616836 0.10163635 0.65500003
-0.0086263996 0.10179152 0.65600002
-0.0074648168 0.10163635 0.65500003
-0.00630674 0.10148118 0.65400004
-0.0051600598 0.10148118 0.65400004
-0.0040256535 0.10179152 0.65600002
-0.0028754666 0.10179152 0.65600002
-0.00172528 0.10179152 0.65600002
-0.00057596999 0.10194669 0.65700001
0.00057684665 0.10210186 0.65800005
0.0017357999 0.1024122 0.66000003
0.0028886166 0.10225703 0.65900004
0.0040440634 0.10225703 0.65900004
0.0052073998 0.1024122 0.66000003
0.0063742432 0.10256737 0.66100001
0.00755599 0.10287771 0.66300005
0.0087447502 0.10318805 0.66500002
0.0099256197 0.10334322 0.66600001
0.01114331 0.10380873 0.66900003
0.0123347 0.1039639 0.67000002
0.013529597 0.10411907 0.671
0.014727999 0.10427424 0.67200005
0.015906241 0.10427424 0.67200005
0.017414983 0.10629145 0.68500006
0.018588839 0.10613628 0.68400002
0.019817051 0.10629145 0.68500006
0.020987401 0.10613628 0.68400002
0.02218668 0.10613628 0.68400002
0.02335177 0.10598111 0.68300003
0.024549296 0.10598111 0.68300003
0.025822217 0.10629145 0.68500006
0.02702325 0.10629145 0.68500006
0.028224284 0.10629145 0.68500006
0.031827383 0.10629145 0.68500006
0.033076633 0.10644662 0.68600005
0.034279421 0.10644662 0.68600005
0.035378762 0.10613628 0.68400002
0.036578041 0.10613628 0.68400002
0.03777732 0.10613628 0.68400002
0.038976599 0.10613628 0.68400002
0.040175881 0.10613628 0.68400002
0.041314669 0.10598111 0.68300003
-0.05132971 0.1056094 0.67300004
-0.050075199 0.10545248 0.67200005
-0.048824195 0.10529555 0.671
-0.047505688 0.10498171 0.66900003
-0.046124939 0.10451094 0.66600001
-0.044889715 0.10435402 0.66500002
-0.043657999 0.10419709 0.66400003
-0.0422378 0.1035694 0.66000003
-0.040956113 0.10325556 0.65800005
-0.039681438 0.10294171 0.65600002
-0.038472515 0.10278478 0.65500003
-0.037210118 0.10247093 0.65300006
-0.036065191 0.10247093 0.65300006
-0.034920264 0.10247093 0.65300006
-0.033878785 0.10278478 0.65500003
-0.032780319 0.10294171 0.65600002
-0.031630132 0.10294171 0.65600002
-0.030433483 0.10278478 0.65500003
-0.02932976 0.10294171 0.65600002
-0.028136617 0.10278478 0.65500003
-0.026988184 0.10278478 0.65500003
-0.02576085 0.10247093 0.65300006
-0.024578227 0.10231401 0.65200001
-0.023470996 0.10247093 0.65300006
-0.022326069 0.10247093 0.65300006
-0.021148706 0.10231401 0.65200001
-0.020005533 0.10231401 0.65200001
-0.018862359 0.10231401 0.65200001
-0.017719187 0.10231401 0.65200001
-0.016626859 0.10262786 0.65400004
-0.01548018 0.10262786 0.65400004
-0.0143335 0.10262786 0.65400004
-0.01318682 0.10262786 0.65400004
-0.01205855 0.10278478 0.65500003
-0.010910116 0.10278478 0.65500003
-0.0097616836 0.10278478 0.65500003
-0.0086132502 0.10278478 0.65500003
-0.0074762134 0.10294171 0.65600002
-0.0063163834 0.10278478 0.65500003
-0.0051758401 0.10294171 0.65600002
-0.00403179 0.10309863 0.65700001
-0.0028798499 0.10309863 0.65700001
-0.00172528 0.10294171 0.65600002
-0.00057596999 0.10309863 0.65700001
0.00057772332 0.10341248 0.65900004
0.0017357999 0.1035694 0.66000003
0.0028929999 0.1035694 0.66000003
0.0040501999 0.1035694 0.66000003
0.0052231802 0.10388324 0.66200006
0.0063838866 0.10388324 0.66200006
0.0075787832 0.10435402 0.66500002
0.0087710498 0.10466786 0.66700006
0.0099405237 0.10466786 0.66700006
0.011159967 0.10513863 0.67000002
0.01237152 0.10545248 0.67200005
0.01354976 0.10545248 0.67200005
0.014771833 0.10576633 0.67400002
0.01595358 0.10576633 0.67400002
0.017338714 0.10702171 0.68200004
0.018588839 0.10733556 0.68400002
0.01978812 0.10733556 0.68400002
0.021018082 0.10749248 0.68500006
0.022154244 0.10717864 0.68300003
0.023385961 0.10733556 0.68400002
0.02458524 0.10733556 0.68400002
0.025822217 0.10749248 0.68500006
0.02702325 0.10749248 0.68500006
0.05313126 0.15096025 0.96200007
0.054760981 0.15080333 0.96100003
0.040175881 0.10733556 0.68400002
0.041435651 0.10749248 0.68500006
-0.093912043 0.15042548 0.94800007
-0.054327909 0.10805881 0.68100005
-0.05313389 0.10805881 0.68100005
-0.051558521 0.10726543 0.67600006
-0.050149716 0.1067894 0.67300004
-0.048824195 0.10647205 0.671
-0.047647711 0.10647205 0.671
-0.046194196 0.10583734 0.66700006
-0.044957221 0.10567866 0.66600001
-0.043657999 0.10536131 0.66400003
-0.042301796 0.10488527 0.66100001
-0.041018356 0.10456792 0.65900004
-0.03974193 0.10425057 0.65700001
-0.038531251 0.10409189 0.65600002
-0.037324082 0.10393322 0.65500003
-0.036065191 0.10361587 0.65300006
-0.034920264 0.10361587 0.65300006
-0.033878785 0.10393322 0.65500003
-0.032780319 0.10409189 0.65600002
-0.031630132 0.10409189 0.65600002
-0.030479947 0.10409189 0.65600002
-0.029374469 0.10425057 0.65700001
-0.028179573 0.10409189 0.65600002
-0.026946981 0.10377454 0.65400004
-0.02576085 0.10361587 0.65300006
-0.024615923 0.10361587 0.65300006
-0.023470996 0.10361587 0.65300006
-0.02236026 0.10377454 0.65400004
-0.021181144 0.10361587 0.65300006
-0.020036217 0.10361587 0.65300006
-0.01889129 0.10361587 0.65300006
-0.017773541 0.10377454 0.65400004
-0.016652282 0.10393322 0.65500003
-0.01550385 0.10393322 0.65500003
-0.014355416 0.10393322 0.65500003
-0.013206983 0.10393322 0.65500003
-0.01205855 0.10393322 0.65500003
-0.01089346 0.10377454 0.65400004
-0.0097467797 0.10377454 0.65400004
-0.0086000999 0.10377454 0.65400004
-0.0074762134 0.10409189 0.65600002
-0.0063163834 0.10393322 0.65500003
-0.0051837298 0.10425057 0.65700001
-0.00403179 0.10425057 0.65700001
-0.0028754666 0.10409189 0.65600002
-0.00172528 0.10409189 0.65600002
-0.00057772332 0.10456792 0.65900004
0.00057772332 0.10456792 0.65900004
0.00173843 0.10488527 0.66100001
0.0028929999 0.1047266 0.66000003
0.0040624733 0.10504396 0.66200006
0.0052310699 0.10520263 0.66300005
0.0064128167 0.10551998 0.66500002
0.0075901798 0.10567866 0.66600001
0.0087710498 0.10583734 0.66700006
0.0099703297 0.10615469 0.66900003
0.011159967 0.10631336 0.67000002
0.01238993 0.1067894 0.67300004
0.013590086 0.10694807 0.67400002
0.014771833 0.10694807 0.67400002
0.016000919 0.10726543 0.67600006
0.01731329 0.10805881 0.68100005
0.018588839 0.10853484 0.68400002
0.019759189 0.10837616 0.68300003
0.020987401 0.10853484 0.68400002
0.02218668 0.10853484 0.68400002
0.02335177 0.10837616 0.68300003
0.02458524 0.10853484 0.68400002
0.025822217 0.10869352 0.68500006
0.02702325 0.10869352 0.68500006
0.054590032 0.15201224 0.95800006
0.056269728 0.15201224 0.95800006
0.05794942 0.15201224 0.95800006
-0.093713909 0.15176678 0.94600004
-0.055603459 0.10941326 0.68200004
-0.054327909 0.10925283 0.68100005
-0.05313389 0.10925283 0.68100005
-0.051634789 0.10861111 0.67700005
-0.050224233 0.10812982 0.67400002
-0.048969723 0.10796939 0.67300004
-0.047647711 0.10764853 0.671
-0.046194196 0.10700681 0.66700006
-0.045024723 0.10700681 0.66700006
-0.043789499 0.10684638 0.66600001
-0.042493787 0.10652552 0.66400003
-0.041267328 0.10636509 0.66300005
-0.039862908 0.10572337 0.65900004
-0.038589988 0.10540251 0.65700001
-0.03743805 0.10540251 0.65700001
-0.03617565 0.10508165 0.65500003
-0.035027217 0.10508165 0.65500003
-0.033930507 0.10524208 0.65600002
-0.03283029 0.10540251 0.65700001
-0.031678349 0.10540251 0.65700001
-0.030479947 0.10524208 0.65600002
-0.02932976 0.10524208 0.65600002
-0.028136617 0.10508165 0.65500003
-0.026946981 0.10492122 0.65400004
-0.02576085 0.10476079 0.65300006
-0.024653619 0.10492122 0.65400004
-0.023506939 0.10492122 0.65400004
-0.02236026 0.10492122 0.65400004
-0.02121358 0.10492122 0.65400004
-0.020097584 0.10508165 0.65500003
-0.018949149 0.10508165 0.65500003
-0.017827893 0.10524208 0.65600002
-0.016703131 0.10540251 0.65700001
-0.01555119 0.10540251 0.65700001
-0.014355416 0.10508165 0.65500003
-0.013206983 0.10508165 0.65500003
-0.01205855 0.10508165 0.65500003
-0.01089346 0.10492122 0.65400004
-0.0097467797 0.10492122 0.65400004
-0.0086132502 0.10508165 0.65500003
-0.00748761 0.10540251 0.65700001
-0.0063260267 0.10524208 0.65600002
-0.0051758401 0.10524208 0.65600002
-0.0040256535 0.10524208 0.65600002
-0.0028754666 0.10524208 0.65600002
-0.00173054 0.10556294 0.65800005
-0.00057772332 0.10572337 0.65900004
0.00057772332 0.10572337 0.65900004
0.0017357999 0.1058838 0.66000003
0.0028929999 0.1058838 0.66000003
0.0040624733 0.10620466 0.66200006
0.0052310699 0.10636509 0.66300005
0.0064224601 0.10684638 0.66600001
0.0075901798 0.10684638 0.66600001
0.0087710498 0.10700681 0.66700006
0.0099703297 0.10732767 0.66900003
0.011159967 0.1074881 0.67000002
0.01237152 0.10780896 0.67200005
0.01354976 0.10780896 0.67200005
0.014749916 0.10796939 0.67300004
0.01602459 0.10861111 0.67700005
0.01738956 0.10973412 0.68400002
0.018588839 0.10973412 0.68400002
0.01978812 0.10973412 0.68400002
0.021018082 0.10989455 0.68500006
0.022219116 0.10989455 0.68500006
0.023385961 0.10973412 0.68400002
0.024621183 0.10989455 0.68500006
0.025859913 0.11005498 0.68600005
0.054590032 0.15369193 0.95800006
0.056269728 0.15369193 0.95800006
0.057828441 0.15337108 0.95600003
-0.093713909 0.15342543 0.94600004
-0.055603459 0.11060903 0.68200004
-0.054327909 0.11044685 0.68100005
-0.05313389 0.11044685 0.68100005
-0.05171106 0.1099603 0.67800003
-0.050447784 0.10979812 0.67700005
-0.049042486 0.10931157 0.67400002
-0.047718719 0.1089872 0.67200005
-0.046332709 0.10850065 0.66900003
-0.045024723 0.10817628 0.66700006
-0.04385525 0.10817628 0.66700006
-0.04262178 0.1080141 0.66600001
-0.041267328 0.10752755 0.66300005
-0.0399234 0.107041 0.66000003
-0.038707465 0.10687882 0.65900004
-0.037495032 0.10671663 0.65800005
-0.036286108 0.10655445 0.65700001
-0.035187647 0.10671663 0.65800005
-0.034033954 0.10671663 0.65800005
-0.032880262 0.10671663 0.65800005
-0.031678349 0.10655445 0.65700001
-0.030526409 0.10655445 0.65700001
-0.02932976 0.10639226 0.65600002
-0.028136617 0.10623008 0.65500003
-0.026988184 0.10623008 0.65500003
-0.02583975 0.10623008 0.65500003
-0.024691317 0.10623008 0.65500003
-0.023542883 0.10623008 0.65500003
-0.02239445 0.10623008 0.65500003
-0.021278454 0.10639226 0.65600002
-0.02015895 0.10655445 0.65700001
-0.01897808 0.10639226 0.65600002
-0.017855071 0.10655445 0.65700001
-0.016728554 0.10671663 0.65800005
-0.015574859 0.10671663 0.65800005
-0.01439925 0.10655445 0.65700001
-0.01324731 0.10655445 0.65700001
-0.01209537 0.10655445 0.65700001
-0.01094343 0.10655445 0.65700001
-0.0097765867 0.10639226 0.65600002
-0.0086263996 0.10639226 0.65600002
-0.0074762134 0.10639226 0.65600002
-0.0063163834 0.10623008 0.65500003
-0.0051837298 0.10655445 0.65700001
-0.00403179 0.10655445 0.65700001
-0.0028842334 0.10671663 0.65800005
-0.00173317 0.10687882 0.65900004
-0.00057859998 0.107041 0.66000003
0.00057772332 0.10687882 0.65900004
0.0017357999 0.107041 0.66000003
0.00290615 0.10752755 0.66300005
0.0040686098 0.10752755 0.66300005
0.0052310699 0.10752755 0.66300005
0.0064321035 0.10817628 0.66700006
0.00762437 0.10850065 0.66900003
0.0087973503 0.10850065 0.66900003
0.0099703297 0.10850065 0.66900003
0.011176623 0.10882501 0.671
0.01235311 0.10882501 0.671
0.01354976 0.1089872 0.67200005
0.014749916 0.10914938 0.67300004
0.01602459 0.10979812 0.67700005
0.017364137 0.11077122 0.68300003
0.018588839 0.1109334 0.68400002
0.019759189 0.11077122 0.68300003
0.020987401 0.1109334 0.68400002
0.022251554 0.11125777 0.68600005
0.02345434 0.11125777 0.68600005
0.02469307 0.11141995 0.68700004
0.057828441 0.15504727 0.95600003
-0.09381298 0.15524802 0.94700003
-0.055603459 0.11180481 0.68200004
-0.054327909 0.11164087 0.68100005
-0.05313389 0.11164087 0.68100005
-0.05171106 0.11114906 0.67800003
-0.050447784 0.11098512 0.67700005
-0.049042486 0.11049331 0.67400002
-0.047647711 0.1100015 0.671
-0.046263453 0.10950969 0.66800004
-0.045092225 0.10950969 0.66800004
-0.043789499 0.10918182 0.66600001
-0.042685777 0.10934576 0.66700006
-0.041329574 0.10885394 0.66400003
-0.039983891 0.10836214 0.66100001
-0.038766202 0.1081982 0.66000003
-0.037609 0.1081982 0.66000003
-0.036396571 0.10803426 0.65900004
-0.035187647 0.10787033 0.65800005
-0.033930507 0.10754246 0.65600002
-0.032780319 0.10754246 0.65600002
-0.031630132 0.10754246 0.65600002
-0.030479947 0.10754246 0.65600002
-0.029374469 0.10770639 0.65700001
-0.028136617 0.10737851 0.65500003
-0.026988184 0.10737851 0.65500003
-0.02583975 0.10737851 0.65500003
-0.024691317 0.10737851 0.65500003
-0.023578826 0.10754246 0.65600002
-0.02246283 0.10770639 0.65700001
-0.02131089 0.10770639 0.65700001
-0.02015895 0.10770639 0.65700001
-0.01900701 0.10770639 0.65700001
-0.017855071 0.10770639 0.65700001
-0.016703131 0.10770639 0.65700001
-0.015574859 0.10787033 0.65800005
-0.014421167 0.10787033 0.65800005
-0.01324731 0.10770639 0.65700001
-0.01209537 0.10770639 0.65700001
-0.010926773 0.10754246 0.65600002
-0.0097765867 0.10754246 0.65600002
-0.0086527001 0.10787033 0.65800005
-0.00748761 0.10770639 0.65700001
-0.0063260267 0.10754246 0.65600002
-0.0051837298 0.10770639 0.65700001
-0.0040379264 0.10787033 0.65800005
-0.0028886166 0.10803426 0.65900004
-0.0017357999 0.1081982 0.66000003
-0.00057772332 0.10803426 0.65900004
0.00057772332 0.10803426 0.65900004
0.0017357999 0.1081982 0.66000003
0.00290615 0.10869001 0.66300005
0.0040686098 0.10869001 0.66300005
0.0052310699 0.10869001 0.66300005
0.0064321035 0.10934576 0.66700006
0.0076015764 0.10934576 0.66700006
0.0087842001 0.10950969 0.66800004
0.0099554267 0.10950969 0.66800004
0.01114331 0.10967363 0.66900003
0.0123347 0.10983757 0.67000002
0.01354976 0.11016544 0.67200005
0.014815667 0.11082119 0.67600006
0.01602459 0.11098512 0.67700005
0.01731329 0.11164087 0.68100005
0.018616017 0.11229662 0.68500006
0.019817051 0.11229662 0.68500006
0.021018082 0.11229662 0.68500006
0.02228399 0.11262449 0.68700004
0.02345434 0.11246055 0.68600005
0.024729013 0.11278842 0.68800002
0.056739621 0.15377259 0.93800002
-0.091138266 0.1524348 0.92000002
-0.089622512 0.15260048 0.92100006
-0.054327909 0.11283489 0.68100005
-0.05313389 0.11283489 0.68100005
-0.051787328 0.11250351 0.67900002
-0.050373267 0.11200644 0.67600006
-0.048896961 0.11134368 0.67200005
-0.047576699 0.1110123 0.67000002
-0.046194196 0.11051523 0.66700006
-0.045024723 0.11051523 0.66700006
-0.043789499 0.11034954 0.66600001
-0.042685777 0.11051523 0.66700006
-0.041329574 0.11001816 0.66400003
-0.040044378 0.10968678 0.66200006
-0.038824938 0.10952109 0.66100001
-0.037609 0.1093554 0.66000003
-0.036396571 0.10918971 0.65900004
-0.0352946 0.1093554 0.66000003
-0.034085676 0.10918971 0.65900004
-0.03283029 0.10885833 0.65700001
-0.031678349 0.10885833 0.65700001
-0.030479947 0.10869264 0.65600002
-0.029374469 0.10885833 0.65700001
-0.028179573 0.10869264 0.65600002
-0.027029386 0.10869264 0.65600002
-0.025879201 0.10869264 0.65600002
-0.024729013 0.10869264 0.65600002
-0.02361477 0.10885833 0.65700001
-0.02246283 0.10885833 0.65700001
-0.02131089 0.10885833 0.65700001
-0.020189634 0.10902402 0.65800005
-0.019035939 0.10902402 0.65800005
-0.017855071 0.10885833 0.65700001
-0.016703131 0.10885833 0.65700001
-0.015574859 0.10902402 0.65800005
-0.014421167 0.10902402 0.65800005
-0.01324731 0.10885833 0.65700001
-0.01207696 0.10869264 0.65600002
-0.01094343 0.10885833 0.65700001
-0.0098063936 0.10902402 0.65800005
-0.0086527001 0.10902402 0.65800005
-0.00748761 0.10885833 0.65700001
-0.0063453135 0.10902402 0.65800005
-0.00519162 0.10902402 0.65800005
-0.0040379264 0.10902402 0.65800005
-0.0028886166 0.10918971 0.65900004
-0.0017357999 0.1093554 0.66000003
-0.00057772332 0.10918971 0.65900004
0.00057772332 0.10918971 0.65900004
0.00173843 0.10952109 0.66100001
0.0028973834 0.10952109 0.66100001
0.0040624733 0.10968678 0.66200006
0.0052310699 0.10985247 0.66300005
0.0064224601 0.11034954 0.66600001
0.0075901798 0.11034954 0.66600001
0.0087710498 0.11051523 0.66700006
0.0099554267 0.11068092 0.66800004
0.011126653 0.11068092 0.66800004
0.01237152 0.11134368 0.67200005
0.013569923 0.11150937 0.67300004
0.014837584 0.11217213 0.67700005
0.01604826 0.11233782 0.67800003
0.01731329 0.11283489 0.68100005
0.018616017 0.11349765 0.68500006
0.019817051 0.11349765 0.68500006
0.021018082 0.11349765 0.68500006
0.022251554 0.11366334 0.68600005
0.02345434 0.11366334 0.68600005
0.054918785 0.15492015 0.93500006
0.056558151 0.15492015 0.93500006
-0.091039203 0.15388042 0.91900003
-0.0895252 0.15404786 0.92000002
-0.055929579 0.11486612 0.68600005
-0.054487463 0.1143638 0.68300003
-0.053211913 0.11419635 0.68200004
-0.05171106 0.11352658 0.67800003
-0.05029875 0.11302425 0.67500001
-0.048824195 0.11235447 0.671
-0.047576699 0.11218704 0.67000002
-0.046263453 0.11185215 0.66800004
-0.045092225 0.11185215 0.66800004
-0.043789499 0.11151726 0.66600001
-0.04262178 0.11151726 0.66600001
-0.041391816 0.11134981 0.66500002
-0.040044378 0.11084749 0.66200006
-0.038942412 0.11101493 0.66300005
-0.037609 0.1105126 0.66000003
-0.036451798 0.1105126 0.66000003
-0.0352946 0.1105126 0.66000003
-0.034085676 0.11034516 0.65900004
-0.03283029 0.11001027 0.65700001
-0.031678349 0.11001027 0.65700001
-0.030479947 0.10984283 0.65600002
-0.029374469 0.11001027 0.65700001
-0.028222529 0.11001027 0.65700001
-0.027029386 0.10984283 0.65600002
-0.025879201 0.10984283 0.65600002
-0.02476671 0.11001027 0.65700001
-0.02361477 0.11001027 0.65700001
-0.02246283 0.11001027 0.65700001
-0.021343326 0.11017771 0.65800005
-0.020189634 0.11017771 0.65800005
-0.019035939 0.11017771 0.65800005
-0.017882247 0.11017771 0.65800005
-0.016728554 0.11017771 0.65800005
-0.01559853 0.11034516 0.65900004
-0.014421167 0.11017771 0.65800005
-0.01324731 0.11001027 0.65700001
-0.01209537 0.11001027 0.65700001
-0.01094343 0.11001027 0.65700001
-0.0097914897 0.11001027 0.65700001
-0.0086395498 0.11001027 0.65700001
-0.00748761 0.11001027 0.65700001
-0.0063453135 0.11017771 0.65800005
-0.00519162 0.11017771 0.65800005
-0.0040440634 0.11034516 0.65900004
-0.0028886166 0.11034516 0.65900004
-0.0017357999 0.1105126 0.66000003
-0.00057859998 0.1105126 0.66000003
0.00057859998 0.1105126 0.66000003
0.0017410599 0.11084749 0.66200006
0.0029017667 0.11084749 0.66200006
0.0040624733 0.11084749 0.66200006
0.0052310699 0.11101493 0.66300005
0.0064224601 0.11151726 0.66600001
0.0076015764 0.1116847 0.66700006
0.0087578995 0.11151726 0.66600001
0.0099554267 0.11185215 0.66800004
0.01114331 0.11201959 0.66900003
0.01238993 0.11268936 0.67300004
0.013569923 0.11268936 0.67300004
0.014837584 0.11335914 0.67700005
0.01604826 0.11352658 0.67800003
0.017211597 0.11335914 0.67700005
0.018616017 0.11469869 0.68500006
0.01978812 0.11453124 0.68400002
0.021018082 0.11469869 0.68500006
0.02228399 0.11503357 0.68700004
0.054918785 0.15655951 0.93500006
0.056255698 0.15572231 0.93000007
-0.090543889 0.15464576 0.91400003
-0.08913596 0.15498415 0.91600007
-0.055766519 0.11573052 0.68400002
-0.054327909 0.11522293 0.68100005
-0.052977841 0.11488453 0.67900002
-0.051634789 0.11454614 0.67700005
-0.050373267 0.11437695 0.67600006
-0.048896961 0.11370016 0.67200005
-0.047647711 0.11353096 0.671
-0.046332709 0.11319257 0.66900003
-0.045159731 0.11319257 0.66900003
-0.04385525 0.11285418 0.66700006
-0.04262178 0.11268498 0.66600001
-0.041329574 0.11234659 0.66400003
-0.040044378 0.11200819 0.66200006
-0.038883675 0.11200819 0.66200006
-0.037665982 0.111839 0.66100001
-0.036507029 0.111839 0.66100001
-0.035348076 0.111839 0.66100001
-0.034137398 0.1116698 0.66000003
-0.032930229 0.11150061 0.65900004
-0.031678349 0.11116221 0.65700001
-0.030526409 0.11116221 0.65700001
-0.029374469 0.11116221 0.65700001
-0.028222529 0.11116221 0.65700001
-0.027070589 0.11116221 0.65700001
-0.02591865 0.11116221 0.65700001
-0.02476671 0.11116221 0.65700001
-0.023686657 0.11150061 0.65900004
-0.02253121 0.11150061 0.65900004
-0.021343326 0.1113314 0.65800005
-0.020189634 0.1113314 0.65800005
-0.019035939 0.1113314 0.65800005
-0.017882247 0.1113314 0.65800005
-0.016728554 0.1113314 0.65800005
-0.01559853 0.11150061 0.65900004
-0.014421167 0.1113314 0.65800005
-0.01324731 0.11116221 0.65700001
-0.01207696 0.11099301 0.65600002
-0.010926773 0.11099301 0.65600002
-0.0097914897 0.11116221 0.65700001
-0.0086527001 0.1113314 0.65800005
-0.0075217998 0.1116698 0.66000003
-0.0063549564 0.11150061 0.65900004
-0.0052073998 0.1116698 0.66000003
-0.0040501999 0.1116698 0.66000003
-0.0028886166 0.11150061 0.65900004
-0.0017357999 0.1116698 0.66000003
-0.00057947665 0.111839 0.66100001
0.00058035331 0.11200819 0.66200006
0.00174369 0.11217739 0.66300005
0.00290615 0.11217739 0.66300005
0.0040686098 0.11217739 0.66300005
0.00523896 0.11234659 0.66400003
0.0064224601 0.11268498 0.66600001
0.0076015764 0.11285418 0.66700006
0.0087578995 0.11268498 0.66600001
0.0099405237 0.11285418 0.66700006
0.011126653 0.11302337 0.66800004
0.01237152 0.11370016 0.67200005
0.013569923 0.11386935 0.67300004
0.0148595 0.11471534 0.67800003
0.01604826 0.11471534 0.67800003
0.017338714 0.11539213 0.68200004
0.018643193 0.11606891 0.68600005
0.019817051 0.11589972 0.68500006
0.021018082 0.11589972 0.68500006
0.054566365 0.15718371 0.92900002
0.056255698 0.15735289 0.93000007
-0.0902467 0.15573545 0.91100007
-0.088649407 0.15573545 0.91100007
-0.086861007 0.15539356 0.90900004
-0.085267231 0.15539356 0.90900004
-0.055929579 0.1172717 0.68600005
-0.05456724 0.1169298 0.68400002
-0.052977841 0.11607505 0.67900002
-0.051482249 0.11539125 0.67500001
-0.050224233 0.1152203 0.67400002
-0.048969723 0.11504935 0.67300004
-0.047718719 0.1148784 0.67200005
-0.046401966 0.1145365 0.67000002
-0.045227233 0.1145365 0.67000002
-0.043921001 0.1141946 0.66800004
-0.042685777 0.11402365 0.66700006
-0.041391816 0.11368175 0.66500002
-0.04010487 0.11333985 0.66300005
-0.038942412 0.11333985 0.66300005
-0.037665982 0.11299795 0.66100001
-0.036451798 0.112827 0.66000003
-0.0352946 0.112827 0.66000003
-0.034085676 0.11265605 0.65900004
-0.032930229 0.11265605 0.65900004
-0.031726565 0.1124851 0.65800005
-0.030572873 0.1124851 0.65800005
-0.029374469 0.11231415 0.65700001
-0.028222529 0.11231415 0.65700001
-0.027070589 0.11231415 0.65700001
-0.02591865 0.11231415 0.65700001
-0.02476671 0.11231415 0.65700001
-0.023686657 0.11265605 0.65900004
-0.02246283 0.11231415 0.65700001
-0.02131089 0.11231415 0.65700001
-0.020189634 0.1124851 0.65800005
-0.019035939 0.1124851 0.65800005
-0.017855071 0.11231415 0.65700001
-0.016703131 0.11231415 0.65700001
-0.01555119 0.11231415 0.65700001
-0.01439925 0.11231415 0.65700001
-0.01324731 0.11231415 0.65700001
-0.01209537 0.11231415 0.65700001
-0.01094343 0.11231415 0.65700001
-0.0098063936 0.1124851 0.65800005
-0.0086789997 0.112827 0.66000003
-0.0075217998 0.112827 0.66000003
-0.0063549564 0.11265605 0.65900004
-0.0052231802 0.1131689 0.66200006
-0.0040563368 0.11299795 0.66100001
-0.0029017667 0.1131689 0.66200006
-0.0017410599 0.1131689 0.66200006
-0.00058035331 0.1131689 0.66200006
0.00058122998 0.11333985 0.66300005
0.00174895 0.11368175 0.66500002
0.0029149167 0.11368175 0.66500002
0.0040808832 0.11368175 0.66500002
0.00523896 0.1135108 0.66400003
0.0064321035 0.11402365 0.66700006
0.0076015764 0.11402365 0.66700006
0.0087842001 0.1141946 0.66800004
0.0099554267 0.1141946 0.66800004
0.01114331 0.11436555 0.66900003
0.01238993 0.11504935 0.67300004
0.01361025 0.11539125 0.67500001
0.0148595 0.1159041 0.67800003
0.01604826 0.1159041 0.67800003
0.017364137 0.11675885 0.68300003
0.018561663 0.11675885 0.68300003
0.019817051 0.11710075 0.68500006
0.021018082 0.11710075 0.68500006
-0.090048566 0.15698732 0.90900004
-0.08845479 0.15698732 0.90900004
-0.086765453 0.15681462 0.90800005
-0.085267231 0.15698732 0.90900004
-0.055929579 0.11847448 0.68600005
-0.054647017 0.11830178 0.68500006
-0.052977841 0.11726556 0.67900002
-0.051482249 0.11657475 0.67500001
-0.050224233 0.11640204 0.67400002
-0.048969723 0.11622934 0.67300004
-0.047718719 0.11605664 0.67200005
-0.046471223 0.11588394 0.671
-0.045227233 0.11571123 0.67000002
-0.043921001 0.11536583 0.66800004
-0.042749774 0.11536583 0.66800004
-0.041454058 0.11502042 0.66600001
-0.04010487 0.11450231 0.66300005
-0.038942412 0.11450231 0.66300005
-0.037722968 0.11432961 0.66200006
-0.036507029 0.1141569 0.66100001
-0.0352946 0.1139842 0.66000003
-0.034137398 0.1139842 0.66000003
-0.032930229 0.11381149 0.65900004
-0.031678349 0.11346609 0.65700001
-0.030526409 0.11346609 0.65700001
-0.02932976 0.11329339 0.65600002
-0.028222529 0.11346609 0.65700001
-0.027070589 0.11346609 0.65700001
-0.02591865 0.11346609 0.65700001
-0.02476671 0.11346609 0.65700001
-0.023686657 0.11381149 0.65900004
-0.02246283 0.11346609 0.65700001
-0.02131089 0.11346609 0.65700001
-0.020189634 0.1136388 0.65800005
-0.0190938 0.1139842 0.66000003
-0.017909423 0.11381149 0.65900004
-0.016728554 0.1136388 0.65800005
-0.01555119 0.11346609 0.65700001
-0.01439925 0.11346609 0.65700001
-0.01324731 0.11346609 0.65700001
-0.01209537 0.11346609 0.65700001
-0.01094343 0.11346609 0.65700001
-0.0098361997 0.1139842 0.66000003
-0.0086789997 0.1139842 0.66000003
-0.0075217998 0.1139842 0.66000003
-0.0063645998 0.1139842 0.66000003
-0.0052231802 0.11432961 0.66200006
-0.0040624733 0.11432961 0.66200006
-0.0028973834 0.1141569 0.66100001
-0.0017410599 0.11432961 0.66200006
-0.00058035331 0.11432961 0.66200006
0.00058298331 0.11484771 0.66500002
0.00174895 0.11484771 0.66500002
0.0029193 0.11502042 0.66600001
0.0040870202 0.11502042 0.66600001
0.0052468502 0.11484771 0.66500002
0.0064321035 0.11519312 0.66700006
0.0076129735 0.11536583 0.66800004
0.0087842001 0.11536583 0.66800004
0.0099554267 0.11536583 0.66800004
0.01114331 0.11553853 0.66900003
0.01238993 0.11622934 0.67300004
0.01361025 0.11657475 0.67500001
0.014903333 0.11743826 0.68000001
0.01611927 0.11761097 0.68100005
0.017364137 0.11795638 0.68300003
0.018561663 0.11795638 0.68300003
0.01970133 0.11761097 0.68100005
0.032313056 0.15526029 0.89900005
0.033851605 0.15508759 0.89800006
0.035347201 0.15474218 0.89600003
0.036918186 0.15474218 0.89600003
0.038575087 0.15508759 0.89800006
0.040149581 0.15508759 0.89800006
0.041724075 0.15508759 0.89800006
0.043298565 0.15508759 0.89800006
0.044823091 0.15491489 0.89700001
0.046447553 0.15508759 0.89800006
0.054320019 0.15508759 0.89800006
-0.089751378 0.15805773 0.90600002
-0.088162862 0.15805773 0.90600002
-0.086765453 0.15840665 0.90800005
-0.085267231 0.15858111 0.90900004
-0.058760338 0.12054956 0.69100004
-0.057382215 0.12020064 0.68900001
-0.05617417 0.12020064 0.68900001
-0.054647017 0.11950281 0.68500006
-0.053367961 0.11932836 0.68400002
-0.052168678 0.11932836 0.68400002
-0.050224233 0.11758379 0.67400002
-0.048969723 0.11740933 0.67300004
-0.04778973 0.11740933 0.67300004
-0.046471223 0.11706042 0.671
-0.045294736 0.11706042 0.671
-0.0440525 0.11688597 0.67000002
-0.042685777 0.11636259 0.66700006
-0.041516304 0.11636259 0.66700006
-0.04028634 0.11618814 0.66600001
-0.039001148 0.11583923 0.66400003
-0.03777995 0.11566477 0.66300005
-0.03656226 0.11549031 0.66200006
-0.035348076 0.11531585 0.66100001
-0.034137398 0.1151414 0.66000003
-0.032930229 0.11496694 0.65900004
-0.031678349 0.11461803 0.65700001
-0.030479947 0.11444357 0.65600002
-0.029285049 0.11426912 0.65500003
-0.028179573 0.11444357 0.65600002
-0.027070589 0.11461803 0.65700001
-0.02591865 0.11461803 0.65700001
-0.02476671 0.11461803 0.65700001
-0.023686657 0.11496694 0.65900004
-0.02253121 0.11496694 0.65900004
-0.0214082 0.1151414 0.66000003
-0.020251 0.1151414 0.66000003
-0.0190938 0.1151414 0.66000003
-0.017909423 0.11496694 0.65900004
-0.016728554 0.11479249 0.65800005
-0.0156222 0.1151414 0.66000003
-0.014443084 0.11496694 0.65900004
-0.013287636 0.11496694 0.65900004
-0.01213219 0.11496694 0.65900004
-0.010976743 0.11496694 0.65900004
-0.0098361997 0.1151414 0.66000003
-0.00869215 0.11531585 0.66100001
-0.0075331968 0.11531585 0.66100001
-0.0063838866 0.11549031 0.66200006
-0.0052231802 0.11549031 0.66200006
-0.0040624733 0.11549031 0.66200006
-0.00290615 0.11566477 0.66300005
-0.0017410599 0.11549031 0.66200006
-0.00058035331 0.11549031 0.66200006
