# .PCD v0.7 - Point Cloud Data file format
VERSION 0.7
FIELDS x y z
SIZE 4 4 4
TYPE F F F
COUNT 1 1 1
WIDTH 1470
HEIGHT 1
VIEWPOINT 0 0 0 1 0 0 0
POINTS 1470
DATA ascii
-0.35852948 -0.15231645 2.6730001
-0.35715225 -0.15374103 2.6980002
-0.35255238 -0.15379801 2.6990001
-0.34807786 -0.15391198 2.7010002
-0.34334213 -0.15391198 2.7010002
-0.3381049 -0.15368405 2.697
-0.33337617 -0.15368405 2.697
-0.33120641 -0.1548807 2.7180002
-0.32644087 -0.1548807 2.7180002
-0.32143861 -0.15476674 2.7160001
-0.31586036 -0.15436785 2.7090001
-0.3108809 -0.15425389 2.707
-0.30511683 -0.15374103 2.6980002
-0.29905027 -0.15305723 2.6860001
-0.2951079 -0.15345612 2.6930001
-0.2903862 -0.15345612 2.6930001
-0.28545231 -0.15334214 2.6910002
-0.28136003 -0.15368405 2.697
-0.27673385 -0.15374103 2.6980002
-0.272205 -0.153855 2.7
-0.26766911 -0.15396896 2.7020001
-0.26526704 -0.15533656 2.7260001
-0.26048747 -0.15533656 2.7260001
-0.25570789 -0.15533656 2.7260001
-0.25286135 -0.15653321 2.7470002
-0.24614871 -0.15533656 2.7260001
-0.24136913 -0.15533656 2.7260001
-0.23676312 -0.15545054 2.7280002
-0.23198003 -0.15545054 2.7280002
-0.22636411 -0.1548807 2.7180002
-0.22159854 -0.1548807 2.7180002
-0.21707231 -0.15505165 2.7210002
-0.21393998 -0.1562483 2.7420001
-0.20913234 -0.1562483 2.7420001
-0.20432469 -0.1562483 2.7420001
-0.19929877 -0.15607736 2.7390001
-0.19449639 -0.15607736 2.7390001
-0.189694 -0.15607736 2.7390001
-0.18529665 -0.15641925 2.7450001
-0.18048374 -0.15641925 2.7450001
-0.17579885 -0.15653321 2.7470002
-0.17067122 -0.1562483 2.7420001
-0.16586357 -0.1562483 2.7420001
-0.16087973 -0.15607736 2.7390001
-0.15607736 -0.15607736 2.7390001
-0.15127496 -0.15607736 2.7390001
-0.14641911 -0.15602037 2.7380002
-0.14167021 -0.15607736 2.7390001
-0.13686784 -0.15607736 2.7390001
-0.13206545 -0.15607736 2.7390001
-0.12754185 -0.15641925 2.7450001
-0.12281837 -0.15653321 2.7470002
-0.11804492 -0.15659019 2.7480001
-0.11322676 -0.15659019 2.7480001
-0.1084086 -0.15659019 2.7480001
-0.10362814 -0.15664718 2.7490001
-0.098844163 -0.15670417 2.7500002
-0.09415926 -0.1569321 2.7540002
-0.089233272 -0.15676115 2.7510002
-0.084409848 -0.15676115 2.7510002
-0.079586431 -0.15676115 2.7510002
-0.075279362 -0.15784383 2.7700002
-0.070346363 -0.15767288 2.7670002
-0.065352872 -0.15733097 2.7610002
-0.060490001 -0.15727399 2.7600002
-0.055610474 -0.15716003 2.7580001
-0.050774779 -0.15716003 2.7580001
-0.045972399 -0.15727399 2.7600002
-0.041163005 -0.15738797 2.7620001
-0.036320299 -0.15738797 2.7620001
-0.031602956 -0.15801479 2.7730002
-0.026875969 -0.15881255 2.7870002
-0.02199732 -0.15886953 2.7880001
-0.017293127 -0.16057903 2.8180001
-0.01234785 -0.16052204 2.8170002
-0.0074087097 -0.16052204 2.8170002
-0.0024669401 -0.1603511 2.8140001
0.0024879801 -0.1617187 2.8380001
0.0074718301 -0.16188964 2.8410001
0.01234785 -0.16052204 2.8170002
0.01728699 -0.16052204 2.8170002
0.022226131 -0.16052204 2.8170002
0.027165269 -0.16052204 2.8170002
0.032115806 -0.16057903 2.8180001
0.037056699 -0.16057903 2.8180001
0.042057205 -0.16080697 2.822
0.047005113 -0.16080697 2.822
0.051953021 -0.16080697 2.822
0.056900926 -0.16080697 2.822
0.062330998 -0.1620606 2.8440001
0.067317478 -0.1620606 2.8440001
0.072278537 -0.16200362 2.8430002
0.077263266 -0.16200362 2.8430002
0.082247987 -0.16200362 2.8430002
0.087232716 -0.16200362 2.8430002
0.092217445 -0.16200362 2.8430002
0.097954348 -0.16325726 2.8650002
0.1021869 -0.16200362 2.8430002
0.10713392 -0.16194664 2.8420002
0.11207745 -0.16188964 2.8410001
0.11705867 -0.16188964 2.8410001
0.12302789 -0.16320026 2.8640001
0.12804943 -0.16320026 2.8640001
0.17354055 -0.21283275 3.7350001
0.18008925 -0.21283275 3.7350001
0.18873669 -0.21522605 3.7770002
0.19535902 -0.21522605 3.7770002
0.20198137 -0.21522605 3.7770002
0.20860371 -0.21522605 3.7770002
0.21522605 -0.21522605 3.7770002
0.22155471 -0.21494113 3.7720001
0.22544622 -0.21237688 3.7270002
0.2325411 -0.21288973 3.7360001
0.23909155 -0.21288973 3.7360001
0.24432699 -0.21175006 3.7160001
0.24814226 -0.20947073 3.6760001
0.2545875 -0.20947073 3.6760001
0.25826338 -0.20724837 3.6370001
0.26740524 -0.20941375 3.6750002
0.27422133 -0.20969866 3.6800001
0.28006345 -0.20924281 3.6720002
0.28767204 -0.21009755 3.6870003
0.29413655 -0.21009755 3.6870003
0.30638975 -0.21414337 3.7580001
0.31281221 -0.2140294 3.7560003
0.32067326 -0.21488415 3.7710001
0.32728508 -0.21488415 3.7710001
0.33124059 -0.21317466 3.7410002
0.33671626 -0.21249084 3.7290001
0.34712055 -0.21488415 3.7710001
0.35373238 -0.21488415 3.7710001
0.36235088 -0.2160808 3.7920003
0.36899951 -0.2160808 3.7920003
0.37465751 -0.21551096 3.7820001
0.38128862 -0.21551096 3.7820001
0.39099684 -0.21722047 3.8120003
0.39340329 -0.21488415 3.7710001
0.40001512 -0.21488415 3.7710001
0.40662694 -0.21488415 3.7710001
0.41323873 -0.21488415 3.7710001
0.42441538 -0.21722047 3.8120003
0.43109909 -0.21722047 3.8120003
0.43778279 -0.21722047 3.8120003
0.4444665 -0.21722047 3.8120003
0.45115021 -0.21722047 3.8120003
0.45879474 -0.21767633 3.8200002
0.46646732 -0.2181322 3.8280001
0.47317907 -0.2181322 3.8280001
0.47788504 -0.21722047 3.8120003
0.48456874 -0.21722047 3.8120003
0.49112356 -0.21716349 3.8110001
0.49728304 -0.21693555 3.8070002
0.51084155 -0.21989869 3.8590002
0.51787591 -0.22001265 3.8610003
0.52464557 -0.22001265 3.8610003
0.53141516 -0.22001265 3.8610003
0.53818476 -0.22001265 3.8610003
0.54410756 -0.21967074 3.8550003
0.54858029 -0.21875902 3.8390002
0.55531132 -0.21875902 3.8390002
0.55969995 -0.21784729 3.8230002
0.56329167 -0.21665064 3.8020003
0.56995779 -0.21665064 3.8020003
0.57662398 -0.21665064 3.8020003
0.58329016 -0.21665064 3.8020003
0.58995634 -0.21665064 3.8020003
0.59646559 -0.21659365 3.8010001
0.60297132 -0.21653667 3.8000002
0.61540949 -0.21858807 3.8360002
0.62391931 -0.21921489 3.8470001
0.63459885 -0.22058249 3.8710003
0.64138597 -0.22058249 3.8710003
0.64917779 -0.22092438 3.8770001
0.6635893 -0.22348863 3.9220002
0.66721785 -0.22240596 3.9030001
0.66922539 -0.22081041 3.8750002
0.68317229 -0.22314674 3.9160001
0.6925053 -0.2239445 3.9300003
0.69138753 -0.22138025 3.8850002
0.6902917 -0.21887298 3.8410001
0.69702625 -0.21887298 3.8410001
0.7037608 -0.21887298 3.8410001
0.71253014 -0.2194998 3.8520002
0.71872377 -0.21932885 3.8490002
0.7260378 -0.2194998 3.8520002
0.73488426 -0.22012661 3.8630002
0.74799305 -0.22200707 3.8960001
0.75501776 -0.22206405 3.8970001
0.76204598 -0.22212103 3.8980002
0.76947224 -0.22229198 3.9010003
0.77631199 -0.22229198 3.9010003
0.78315175 -0.22229198 3.9010003
0.79323167 -0.22320372 3.9170003
0.80009949 -0.22320372 3.9170003
0.80861539 -0.22365957 3.9250002
0.81051075 -0.22229198 3.9010003
0.82636005 -0.22474226 3.9440002
0.83327514 -0.22474226 3.9440002
0.84679425 -0.22650875 3.9750001
0.86493248 -0.22947188 4.0270004
0.87026083 -0.22901602 4.0190001
0.86748445 -0.22645177 3.9740002
0.87049145 -0.22542606 3.9560001
0.878093 -0.22559701 3.9590001
0.88503444 -0.22559701 3.9590001
0.88746983 -0.22445735 3.9390001
0.89414912 -0.22440037 3.9380002
0.90082496 -0.22434339 3.9370003
0.90772784 -0.22434339 3.9370003
0.91463071 -0.22434339 3.9370003
0.92153358 -0.22434339 3.9370003
0.92937976 -0.22457132 3.9410002
0.94745576 -0.22724953 3.9880002
0.95396936 -0.22713557 3.9860003
0.96047598 -0.2270216 3.9840002
0.97061813 -0.22776239 3.9970002
0.98178422 -0.2287311 4.0140004
1.0023711 -0.23186518 4.0690002
0.99908525 -0.22947188 4.0270004
1.0018985 -0.22850317 4.0100002
1.0207547 -0.23118138 4.0570002
1.027868 -0.23118138 4.0570002
1.0349813 -0.23118138 4.0570002
1.0331043 -0.22918697 4.0220003
1.0251565 -0.22588193 3.9640002
1.0440837 -0.22850317 4.0100002
1.0511146 -0.22850317 4.0100002
1.0700198 -0.23106742 4.0550003
1.0771296 -0.23106742 4.0550003
1.100015 -0.23442943 4.1140003
1.1126109 -0.2355691 4.1340003
1.1198592 -0.2355691 4.1340003
1.1271075 -0.2355691 4.1340003
1.1280447 -0.23425849 4.1110001
1.1214452 -0.23140931 4.0610003
1.1285654 -0.23140931 4.0610003
1.1222622 -0.22867411 4.013
1.1292983 -0.22867411 4.013
1.1363344 -0.22867411 4.013
1.1450801 -0.22901602 4.0190001
1.1555668 -0.22969982 4.0310001
1.1744598 -0.23203613 4.072
1.1676708 -0.22930093 4.0240002
1.1595459 -0.22633781 3.9720001
1.1665102 -0.22633781 3.9720001
1.1734744 -0.22633781 3.9720001
1.1664708 -0.22365957 3.9250002
1.1733526 -0.22365957 3.9250002
1.178731 -0.22337466 3.9200001
1.1865114 -0.22354561 3.9230001
1.1973443 -0.22428639 3.9360001
1.221379 -0.22747746 3.9920001
1.2142236 -0.22485623 3.9460001
1.2211423 -0.22485623 3.9460001
1.2277497 -0.22479925 3.9450002
1.22027 -0.22217801 3.8990002
1.212629 -0.21955678 3.8530002
1.2203341 -0.21972772 3.8560002
1.2270949 -0.21972772 3.8560002
1.2335358 -0.21967074 3.8550003
1.2248515 -0.21693555 3.8070002
1.2269976 -0.21613778 3.7930002
1.2352742 -0.21642269 3.7980001
1.2255836 -0.21357353 3.7480001
1.232155 -0.21357353 3.7480001
1.2526076 -0.21596684 3.7900002
0.43202132 -0.072938666 1.2800001
0.43426558 -0.072938666 1.2800001
0.43650988 -0.072938666 1.2800001
0.44012523 -0.073166601 1.284
0.44409916 -0.073451519 1.289
0.44843692 -0.073793419 1.2950001
0.45732018 -0.0748761 1.314
0.45962405 -0.0748761 1.314
0.46192795 -0.0748761 1.314
0.46423182 -0.0748761 1.314
0.46476045 -0.074591182 1.309
0.46705556 -0.074591182 1.309
0.46791646 -0.074363247 1.3050001
0.46840301 -0.074078336 1.3000001
0.47068232 -0.074078336 1.3000001
0.47114259 -0.073793419 1.2950001
0.47121972 -0.073451519 1.289
0.47164315 -0.073166601 1.284
0.47389445 -0.073166601 1.284
0.47466239 -0.072938666 1.2800001
0.47690666 -0.072938666 1.2800001
0.47727925 -0.072653748 1.2750001
0.47951475 -0.072653748 1.2750001
0.48023888 -0.072425812 1.271
0.48056936 -0.072140902 1.266
0.480501 -0.071799003 1.2600001
0.48271018 -0.071799003 1.2600001
0.48337996 -0.071571067 1.256
0.48519555 -0.071514085 1.2550001
0.48700762 -0.071457103 1.2540001
0.48608536 -0.071001232 1.2460001
0.48827001 -0.071001232 1.2460001
0.48809293 -0.070659332 1.24
0.48987168 -0.07060235 1.2390001
0.49204406 -0.07060235 1.2390001
0.49222204 -0.070317432 1.2340001
0.4927831 -0.070089497 1.23
0.49292776 -0.069804586 1.225
0.49467143 -0.069747597 1.2240001
0.49478802 -0.069462679 1.2190001
0.49570239 -0.069291733 1.2160001
0.49824387 -0.069348715 1.217
0.49873304 -0.06912078 1.2130001
0.49838236 -0.06877888 1.207
0.50049865 -0.06877888 1.207
0.50094926 -0.068550952 1.2030001
0.50096768 -0.068266034 1.1980001
0.50222832 -0.068152063 1.1960001
0.50263858 -0.067924134 1.192
0.50388169 -0.067810163 1.1900001
0.50469261 -0.067639217 1.187
0.5050661 -0.067411281 1.1830001
0.50542551 -0.067183353 1.179
0.50534046 -0.066898435 1.174
0.50653452 -0.066784464 1.1720001
0.50685358 -0.066556536 1.1680001
0.50628728 -0.066214636 1.1620001
0.50657481 -0.0659867 1.1580001
0.50684834 -0.065758765 1.154
0.5101946 -0.065929718 1.1570001
0.51045233 -0.065701783 1.153
0.51291835 -0.065758765 1.154
0.51315683 -0.065530837 1.1500001
0.51517314 -0.065530837 1.1500001
0.51359165 -0.065074965 1.1420001
0.51559395 -0.065074965 1.1420001
0.51578331 -0.06484703 1.138
0.51595867 -0.064619102 1.1340001
0.51566321 -0.064334184 1.1290001
0.51718426 -0.064277202 1.128
0.51686072 -0.063992284 1.123
0.51882976 -0.063992284 1.123
0.51847994 -0.063707367 1.118
0.5181126 -0.063422449 1.113
0.51866227 -0.063251503 1.11
0.52060848 -0.063251503 1.11
0.52020085 -0.062966585 1.105
0.5221383 -0.062966585 1.105
0.52170432 -0.062681668 1.1
0.52315694 -0.062624685 1.0990001
0.52317274 -0.06239675 1.095
0.52269495 -0.062111832 1.09
0.52123708 -0.06171295 1.0830001
0.52023768 -0.061371051 1.077
0.52164119 -0.061314065 1.0760001
0.52206814 -0.061143115 1.0730001
0.52346116 -0.061086133 1.072
0.52338052 -0.060858201 1.0680001
0.52525306 -0.060858201 1.0680001
0.52515137 -0.060630266 1.064
0.52701694 -0.060630266 1.064
-2.4863441 -0.36683765 6.6420002
-2.4508531 -0.36330295 6.5780005
-2.4393196 -0.36330295 6.5780005
-2.4156067 -0.36148036 6.5450001
-2.4162529 -0.36330295 6.5780005
-2.3926556 -0.36148036 6.5450001
-2.38118 -0.36148036 6.5450001
-2.3697045 -0.36148036 6.5450001
-2.2861669 -0.35043433 6.3450003
-2.2750421 -0.35043433 6.3450003
-2.2453635 -0.3475624 6.2930002
-2.2318442 -0.34717578 6.2860003
-2.2724042 -0.35523936 6.4320002
-2.2604237 -0.35512888 6.4300003
-2.2491498 -0.35512888 6.4300003
-2.2378757 -0.35512888 6.4300003
-2.2629616 -0.36092806 6.5350003
-2.2515035 -0.36092806 6.5350003
-2.2417593 -0.36120421 6.5400004
-2.2572334 -0.36556736 6.6190004
-1.4222199 -0.23152415 4.1920004
-1.4148699 -0.23152415 4.1920004
-1.4068483 -0.23141369 4.1900001
-1.4165365 -0.23423043 4.2410002
-1.444652 -0.24014004 4.348
-1.4548757 -0.24312246 4.4020004
-1.4658962 -0.24627057 4.4590001
-1.4499032 -0.24488983 4.434
-1.4379008 -0.24417183 4.421
-1.4301493 -0.24417183 4.421
-1.4243282 -0.24450321 4.427
-1.0796238 -0.18634602 3.3740001
-1.0740262 -0.18640125 3.3750002
-1.0620956 -0.18535188 3.3560002
-1.0524348 -0.18468912 3.3440001
-1.0694184 -0.18872091 3.4170001
-1.0668508 -0.18932843 3.4280002
-1.0608402 -0.18932843 3.4280002
-1.0548298 -0.18932843 3.4280002
-1.0488194 -0.18932843 3.4280002
-1.0534562 -0.19126149 3.4630001
-1.0507113 -0.19186902 3.4740002
-1.0413126 -0.19126149 3.4630001
-1.0454048 -0.19313931 3.4970002
-1.0550245 -0.1960665 3.5500002
-1.0485047 -0.19601128 3.5490003
-1.0308285 -0.1938573 3.5100002
-1.0159163 -0.19220039 3.4800003
-0.98979259 -0.18838952 3.4110003
-0.96246868 -0.18430251 3.3370001
-0.9505977 -0.18314268 3.3160002
-0.9288283 -0.18004979 3.2600002
-0.92424512 -0.18027072 3.2640002
-0.917678 -0.18010503 3.2610002
-0.90888417 -0.1794975 3.2500002
-0.90624279 -0.18010503 3.2610002
-0.89748752 -0.1794975 3.2500002
-0.90029544 -0.18120962 3.2810001
-1.24598 -0.25240108 4.5700002
-1.2379673 -0.25240108 4.5700002
-1.2226878 -0.25090989 4.5430002
-1.2147225 -0.25090989 4.5430002
-1.198257 -0.24914253 4.5110002
-1.1673903 -0.24433751 4.4240003
-1.158323 -0.24406137 4.4190001
-1.1305265 -0.23980866 4.342
-1.167137 -0.24925299 4.513
-1.1674439 -0.25102034 4.5450001
-1.1395763 -0.2467124 4.467
-1.1398517 -0.24847977 4.4990001
-1.1362406 -0.24941868 4.5160003
-1.1475611 -0.25367138 4.5930004
-1.1405004 -0.2538923 4.5970001
-1.1324403 -0.2538923 4.5970001
-1.110194 -0.25068897 4.539
-1.1022357 -0.25068897 4.539
-1.0942773 -0.25068897 4.539
-1.0975673 -0.25328478 4.5860004
-1.0883387 -0.25300863 4.5810003
-1.0862023 -0.25438938 4.6060004
-1.0839782 -0.25577012 4.631
-1.0700506 -0.25438938 4.6060004
-1.0735029 -0.25715089 4.6560001
-1.0818137 -0.26112744 4.7280002
-1.0669392 -0.25952578 4.6990004
-1.0587003 -0.25952578 4.6990004
-1.0535911 -0.260299 4.7130003
-1.06906 -0.26620859 4.8200002
-1.0639095 -0.26703703 4.835
-1.0554322 -0.26703703 4.835
-1.0274665 -0.26206633 4.7450004
-1.0154955 -0.26112744 4.7280002
-0.99378496 -0.25764796 4.6650004
-0.9731403 -0.25438938 4.6060004
-0.9579407 -0.25251156 4.572
-0.937666 -0.24925299 4.513
-0.91780424 -0.24604964 4.4550004
-0.89855438 -0.24295677 4.3990002
-0.85843986 -0.23411997 4.2390003
-0.79318959 -0.21821372 3.9510002
-0.75999373 -0.21092337 3.8190002
-0.73929298 -0.20700204 3.7480001
-0.72314215 -0.20429577 3.6990001
-0.70173836 -0.20004305 3.6220002
-0.68828416 -0.19799955 3.5850003
-0.66963309 -0.19440959 3.5200002
-0.65573353 -0.19214517 3.4790001
-0.64477867 -0.19070919 3.4530001
-0.64205402 -0.19170333 3.4710002
-0.63138759 -0.19032258 3.4460001
-0.61917561 -0.18844476 3.4120002
-0.61319327 -0.18844476 3.4120002
-0.60721087 -0.18844476 3.4120002
-0.60122854 -0.18844476 3.4120002
-0.47434768 -0.15017037 2.7190001
-0.47009847 -0.15033606 2.7220001
-0.46395829 -0.14989422 2.7140002
-0.45564663 -0.14873439 2.6930001
-0.4509249 -0.14873439 2.6930001
-0.44670025 -0.14890008 2.6960001
-0.44312081 -0.14928669 2.7030001
-0.43530005 -0.14823732 2.684
-0.43011284 -0.14807163 2.6810002
-0.42541215 -0.14807163 2.6810002
-0.42118222 -0.14823732 2.684
-0.41647628 -0.14823732 2.684
-0.41207716 -0.14834778 2.6860001
-0.40767103 -0.14845824 2.6880002
-0.39966005 -0.14724317 2.6660001
-0.39661539 -0.14785071 2.677
-0.39309296 -0.14829256 2.6850002
-0.38838524 -0.14829256 2.6850002
-0.3815341 -0.1474641 2.6700001
-0.37501782 -0.14674611 2.6570001
-0.3723107 -0.14751934 2.6710002
-0.36762753 -0.14751934 2.6710002
-0.36335203 -0.14768502 2.674
-0.35866362 -0.14768502 2.674
-0.35410759 -0.14774024 2.6750002
-0.35216051 -0.14890008 2.6960001
-0.34807786 -0.14917623 2.7010002
-0.34334213 -0.14917623 2.7010002
-0.33823028 -0.14901054 2.6980002
-0.33337617 -0.14895532 2.697
-0.33120641 -0.15011513 2.7180002
-0.32644087 -0.15011513 2.7180002
-0.32143861 -0.15000468 2.7160001
-0.31632677 -0.14983898 2.7130001
-0.3103067 -0.14923146 2.7020001
-0.30398592 -0.14845824 2.6880002
-0.29905027 -0.14834778 2.6860001
-0.29434082 -0.14834778 2.6860001
-0.29017052 -0.14862393 2.6910002
-0.28555837 -0.14867915 2.6920002
-0.28115138 -0.14884485 2.6950002
-0.27642614 -0.14884485 2.6950002
-0.27280989 -0.14945237 2.7060001
-0.26974946 -0.1503913 2.723
-0.26341817 -0.14950761 2.707
-0.25867191 -0.14950761 2.707
-0.25570789 -0.15055698 2.7260001
-0.25102034 -0.15061221 2.7270002
-0.24623901 -0.15061221 2.7270002
-0.24136913 -0.15055698 2.7260001
-0.2369367 -0.15077791 2.73
-0.23215009 -0.15077791 2.73
-0.22661395 -0.15028083 2.7210002
-0.22184312 -0.15028083 2.7210002
-0.21723185 -0.1503913 2.723
-0.21245754 -0.1503913 2.723
-0.20890352 -0.15127496 2.7390001
-0.20410115 -0.15127496 2.7390001
-0.19929877 -0.15127496 2.7390001
-0.19449639 -0.15127496 2.7390001
-0.189694 -0.15127496 2.7390001
-0.18509413 -0.15144067 2.7420001
-0.1802865 -0.15144067 2.7420001
-0.17547886 -0.15144067 2.7420001
-0.17067122 -0.15144067 2.7420001
-0.16586357 -0.15144067 2.7420001
-0.16087973 -0.15127496 2.7390001
-0.15607736 -0.15127496 2.7390001
-0.15127496 -0.15127496 2.7390001
-0.14641911 -0.15121974 2.7380002
-0.14167021 -0.15127496 2.7390001
-0.13686784 -0.15127496 2.7390001
-0.13206545 -0.15127496 2.7390001
-0.12763478 -0.15171681 2.7470002
-0.12281837 -0.15171681 2.7470002
-0.11804492 -0.15177204 2.7480001
-0.11322676 -0.15177204 2.7480001
-0.1084086 -0.15177204 2.7480001
-0.10366584 -0.1518825 2.7500002
-0.098844163 -0.1518825 2.7500002
-0.09415926 -0.15210342 2.7540002
-0.089233272 -0.15193772 2.7510002
-0.084409848 -0.15193772 2.7510002
-0.079586431 -0.15193772 2.7510002
-0.075279362 -0.15298709 2.7700002
-0.070371784 -0.15287665 2.7680001
-0.065376543 -0.15254526 2.7620001
-0.060533833 -0.15254526 2.7620001
-0.0556508 -0.1524348 2.7600002
-0.050774779 -0.15232433 2.7580001
-0.04602237 -0.15260048 2.7630002
-0.04117791 -0.15260048 2.7630002
-0.036320299 -0.15254526 2.7620001
-0.031602956 -0.15315279 2.7730002
-0.026875969 -0.15392601 2.7870002
-0.021989429 -0.15392601 2.7870002
-0.01728699 -0.1555829 2.8170002
-0.01234785 -0.1555829 2.8170002
-0.0074087097 -0.1555829 2.8170002
-0.0024879801 -0.15674274 2.8380001
0.0024879801 -0.15674274 2.8380001
0.0074586798 -0.15663227 2.8360002
0.01234785 -0.1555829 2.8170002
0.01728699 -0.1555829 2.8170002
0.022226131 -0.1555829 2.8170002
0.027165269 -0.1555829 2.8170002
0.032127202 -0.15569337 2.8190002
0.03706985 -0.15569337 2.8190002
0.042057205 -0.15585905 2.822
0.047005113 -0.15585905 2.822
0.051953021 -0.15585905 2.822
0.056900926 -0.15585905 2.822
0.062352918 -0.15712935 2.845
0.067341149 -0.15712935 2.845
0.072227687 -0.15690842 2.8410001
0.077208906 -0.15690842 2.8410001
0.082276918 -0.15707412 2.8440001
0.087263398 -0.15707412 2.8440001
0.092152566 -0.15690842 2.8410001
0.097954348 -0.15823396 2.8650002
0.10211501 -0.15690842 2.8410001
0.10713392 -0.15696366 2.8420002
0.1121958 -0.15707412 2.8440001
0.11705867 -0.15690842 2.8410001
0.12203989 -0.15690842 2.8410001
0.1270211 -0.15690842 2.8410001
0.17354055 -0.20628405 3.7350001
0.18004103 -0.20622882 3.7340002
0.18873669 -0.20860371 3.7770002
0.19535902 -0.20860371 3.7770002
0.20198137 -0.20860371 3.7770002
0.20860371 -0.20860371 3.7770002
0.21511208 -0.20849325 3.7750001
0.22167218 -0.20843802 3.7740002
0.22532524 -0.20573175 3.7250001
0.23216763 -0.2060079 3.7300003
0.23825958 -0.20562129 3.7230003
0.24432699 -0.20523468 3.7160001
0.24814226 -0.20302548 3.6760001
0.2545875 -0.20302548 3.6760001
0.26103276 -0.20302548 3.6760001
0.26784182 -0.20330162 3.6810002
0.27466843 -0.20357777 3.6860001
0.27800414 -0.20131335 3.6450002
0.28143016 -0.19921461 3.6070001
0.2878342 -0.19926985 3.6080003
0.30451456 -0.20628405 3.7350001
0.31139639 -0.20650497 3.7390001
0.32067326 -0.20827232 3.7710001
0.32728508 -0.20827232 3.7710001
0.33168334 -0.20689158 3.7460003
0.33671626 -0.20595267 3.7290001
0.34712055 -0.20827232 3.7710001
0.35373238 -0.20827232 3.7710001
0.36330643 -0.20998445 3.8020003
0.36997262 -0.20998445 3.8020003
0.37614349 -0.2097083 3.7970002
0.38280088 -0.2097083 3.7970002
0.39048398 -0.21026061 3.8070002
0.39715892 -0.21026061 3.8070002
0.40383387 -0.21026061 3.8070002
0.41104797 -0.21053676 3.8120003
0.41773167 -0.21053676 3.8120003
0.42218864 -0.20943215 3.7920003
0.43109909 -0.21053676 3.8120003
0.43778279 -0.21053676 3.8120003
0.4444665 -0.21053676 3.8120003
0.45115021 -0.21053676 3.8120003
0.45783392 -0.21053676 3.8120003
0.46549246 -0.2109786 3.8200002
0.4721902 -0.2109786 3.8200002
0.47788504 -0.21053676 3.8120003
0.48456874 -0.21053676 3.8120003
0.49125242 -0.21053676 3.8120003
0.49793613 -0.21053676 3.8120003
0.51084155 -0.21313258 3.8590002
0.51787591 -0.21324302 3.8610003
0.52464557 -0.21324302 3.8610003
0.53141516 -0.21324302 3.8610003
0.53818476 -0.21324302 3.8610003
0.54410756 -0.21291165 3.8550003
0.54715133 -0.21147567 3.8290002
0.55227369 -0.21086814 3.8180001
0.55750388 -0.21031584 3.8080001
0.56329167 -0.20998445 3.8020003
0.56995779 -0.20998445 3.8020003
0.57662398 -0.20998445 3.8020003
0.58329016 -0.20998445 3.8020003
0.58995634 -0.20998445 3.8020003
0.59787792 -0.2104263 3.8100002
0.60963577 -0.21219365 3.8420002
0.61974108 -0.21335348 3.8630002
0.62846041 -0.21401624 3.8750002
0.63558245 -0.21412671 3.8770001
0.64238012 -0.21412671 3.8770001
0.64917779 -0.21412671 3.8770001
0.66646564 -0.21755096 3.9390001
0.67337203 -0.21755096 3.9390001
0.68027842 -0.21755096 3.9390001
0.6767174 -0.21423717 3.8790002
0.68210888 -0.21379533 3.8710003
0.68889606 -0.21379533 3.8710003
0.6902917 -0.21213843 3.8410001
0.69630039 -0.2119175 3.8370001
0.70284468 -0.21186228 3.8360002
0.71160525 -0.2124698 3.8470001
0.72339201 -0.21396102 3.8740001
0.7341426 -0.21512085 3.8950002
0.7409718 -0.21512085 3.8950002
0.74799305 -0.21517608 3.8960001
0.75637394 -0.21561792 3.9040003
0.76536947 -0.21622545 3.9150002
0.77105027 -0.21589407 3.9090002
0.77631199 -0.21545222 3.9010003
0.78315175 -0.21545222 3.9010003
0.79323167 -0.21633591 3.9170003
0.80009949 -0.21633591 3.9170003
0.80861539 -0.21677774 3.9250002
0.80884862 -0.21501039 3.8930001
0.82468385 -0.21738528 3.9360001
0.83158493 -0.21738528 3.9360001
0.83507758 -0.21650159 3.9200001
0.8492533 -0.21837942 3.9540002
0.85791826 -0.21882126 3.9620001
0.8661747 -0.21915264 3.9680002
0.87247181 -0.21898694 3.9650002
0.8794238 -0.21898694 3.9650002
0.88615221 -0.21893172 3.9640002
0.88882166 -0.21788235 3.9450002
0.89573854 -0.21788235 3.9450002
0.90265542 -0.21788235 3.9450002
0.90957236 -0.21788235 3.9450002
0.91648924 -0.21788235 3.9450002
0.93651408 -0.22097524 4.0010004
0.94494408 -0.22130661 4.007
0.95410788 -0.22180368 4.0160003
0.96090996 -0.22174844 4.0150003
0.96698523 -0.22152753 4.0110002
0.97426069 -0.22158276 4.0120001
0.98374099 -0.22213505 4.0220003
1.0050808 -0.2253384 4.0800004
0.98841709 -0.22003631 3.9840002
1.0018985 -0.22147229 4.0100002
1.0207547 -0.22406811 4.0570002
1.027868 -0.22406811 4.0570002
1.0275831 -0.22246644 4.0280004
1.0331043 -0.22213505 4.0220003
1.0207599 -0.21799281 3.9470003
1.0440837 -0.22147229 4.0100002
1.0511146 -0.22147229 4.0100002
1.0576177 -0.22136185 4.0080004
1.0776609 -0.22406811 4.0570002
1.0981433 -0.2268296 4.1070004
1.1101887 -0.22782375 4.125
1.1198592 -0.22832082 4.1340003
1.1271075 -0.22832082 4.1340003
1.1346302 -0.22837605 4.1350002
1.1231021 -0.2246204 4.0670004
1.1285654 -0.22428903 4.0610003
1.1222622 -0.22163799 4.013
1.1292983 -0.22163799 4.013
1.1371839 -0.22180368 4.0160003
1.1459348 -0.22213505 4.0220003
1.1567135 -0.22285305 4.0350003
1.173883 -0.2247861 4.0700002
1.1665102 -0.2220246 4.02
1.1595459 -0.21937355 3.9720001
1.1665102 -0.21937355 3.9720001
1.1734744 -0.21937355 3.9720001
1.1664708 -0.21677774 3.9250002
1.1733526 -0.21677774 3.9250002
1.178731 -0.21650159 3.9200001
1.1865114 -0.21666729 3.9230001
1.2037326 -0.21854511 3.9570003
1.2198492 -0.22020201 3.9870002
1.2133005 -0.21777189 3.9430001
1.2211423 -0.21793757 3.9460001
1.228061 -0.21793757 3.9460001
1.219957 -0.21528654 3.8980002
1.2116848 -0.2126355 3.8500001
1.2203341 -0.21296687 3.8560002
1.2270949 -0.21296687 3.8560002
1.2338557 -0.21296687 3.8560002
1.2264602 -0.21053676 3.8120003
1.228615 -0.20976354 3.7980001
1.2352742 -0.20976354 3.7980001
1.2255836 -0.20700204 3.7480001
1.232155 -0.20700204 3.7480001
0.43957907 -0.071191467 1.289
0.44183913 -0.071191467 1.289
0.44409916 -0.071191467 1.289
0.44843692 -0.071522847 1.2950001
0.45732018 -0.072572216 1.314
0.45962405 -0.072572216 1.314
0.46192795 -0.072572216 1.314
0.46423182 -0.072572216 1.314
0.46476045 -0.072296068 1.309
0.46705556 -0.072296068 1.309
0.46791646 -0.072075151 1.3050001
0.46840301 -0.071799003 1.3000001
0.47068232 -0.071799003 1.3000001
0.47114259 -0.071522847 1.2950001
0.47121972 -0.071191467 1.289
0.47164315 -0.070915319 1.284
0.47389445 -0.070915319 1.284
0.47466239 -0.070694402 1.2800001
0.47690666 -0.070694402 1.2800001
0.47727925 -0.070418246 1.2750001
0.47951475 -0.070418246 1.2750001
0.48023888 -0.070197329 1.271
0.48056936 -0.069921181 1.266
0.480501 -0.069589801 1.2600001
0.48271018 -0.069589801 1.2600001
0.48337996 -0.069368877 1.256
0.48558214 -0.069368877 1.256
0.48584253 -0.069092728 1.251
0.48803595 -0.069092728 1.251
0.48866189 -0.068871811 1.2470001
0.48888019 -0.068595663 1.2420001
0.48987168 -0.068429969 1.2390001
0.49204406 -0.068429969 1.2390001
0.49222204 -0.068153821 1.2340001
0.4927831 -0.067932896 1.23
0.49292776 -0.067656748 1.225
0.49467143 -0.067601517 1.2240001
0.49519393 -0.0673806 1.22
0.49570239 -0.067159683 1.2160001
0.49824387 -0.067214906 1.217
0.49873304 -0.066993989 1.2130001
0.49838236 -0.06666261 1.207
0.50049865 -0.06666261 1.207
0.50094926 -0.066441692 1.2030001
0.50096768 -0.066165537 1.1980001
0.50222832 -0.066055082 1.1960001
0.50263858 -0.065834157 1.192
0.50218797 -0.065502778 1.1860001
0.50299186 -0.065337092 1.1830001
0.5050661 -0.065337092 1.1830001
0.50499684 -0.065060936 1.1780001
0.50491005 -0.064784788 1.1730001
0.50610226 -0.064674333 1.171
0.50641966 -0.064453408 1.1670001
0.50628728 -0.06417726 1.1620001
0.50657481 -0.063956343 1.1580001
0.50684834 -0.063735418 1.154
0.5101946 -0.063901111 1.1570001
0.51045233 -0.063680187 1.153
0.51114053 -0.063514501 1.1500001
0.51315683 -0.063514501 1.1500001
0.51338124 -0.063293576 1.146
0.51359165 -0.063072659 1.1420001
0.51559395 -0.063072659 1.1420001
0.51578331 -0.062851742 1.138
0.51459366 -0.062465131 1.131
0.51429302 -0.062188979 1.126
0.51764274 -0.062354669 1.1290001
0.51778126 -0.062133748 1.125
0.51836771 -0.061968058 1.1220001
0.51708865 -0.061581451 1.115
0.51764709 -0.061415758 1.1120001
0.51959682 -0.061415758 1.1120001
0.51967049 -0.061194841 1.108
0.52067161 -0.061084379 1.1060001
0.52072072 -0.060863461 1.102
0.52075577 -0.06064254 1.098
0.52125287 -0.060476851 1.095
0.51982826 -0.06009024 1.0880001
0.52173591 -0.06009024 1.0880001
0.52171838 -0.059869319 1.0840001
0.52168679 -0.059648398 1.08
0.52164119 -0.059427481 1.0760001
0.52206814 -0.059261791 1.0730001
0.52346116 -0.05920656 1.072
0.52338052 -0.058985639 1.0680001
0.52525306 -0.058985639 1.0680001
0.52515137 -0.058764718 1.064
0.52553099 -0.058599029 1.0610001
-2.4863441 -0.35519201 6.6420002
-2.4508531 -0.35176951 6.5780005
-2.4393196 -0.35176951 6.5780005
-2.3827589 -0.34524536 6.4560003
-2.3604198 -0.34364107 6.4260001
-2.3491528 -0.34364107 6.4260001
-2.38118 -0.35000479 6.5450001
-2.3697045 -0.35000479 6.5450001
-2.2458122 -0.33332005 6.2330003
-2.2348838 -0.33332005 6.2330003
-2.2346592 -0.33492437 6.2630005
-2.2236781 -0.33492437 6.2630005
-2.2526195 -0.34096724 6.3760004
-2.263236 -0.34428278 6.4380002
-2.2501991 -0.34401539 6.4330001
-2.2378757 -0.34385496 6.4300003
-2.2629616 -0.34947002 6.5350003
-2.2515035 -0.34947002 6.5350003
-2.2434733 -0.35000479 6.5450001
-2.2367721 -0.35075346 6.5590005
-1.4259518 -0.22476242 4.2030001
-1.4185826 -0.22476242 4.2030001
-1.4068483 -0.22406723 4.1900001
-1.4188745 -0.22716887 4.2480001
-1.4469777 -0.23289089 4.355
-1.4548757 -0.23540428 4.4020004
-1.4576775 -0.23711553 4.434
-1.4459792 -0.23647381 4.4220004
-1.4379008 -0.23642035 4.421
-1.4301493 -0.23642035 4.421
-1.4243282 -0.2367412 4.427
-1.4248857 -0.2381316 4.4530001
-1.0842096 -0.18219501 3.4070001
-1.0703241 -0.18085809 3.3820002
-1.062506 -0.18053722 3.3760002
-1.0694184 -0.18272977 3.4170001
-1.0668508 -0.18331802 3.4280002
-1.0608402 -0.18331802 3.4280002
-1.0548298 -0.18331802 3.4280002
-1.0488194 -0.18331802 3.4280002
-1.0534562 -0.18518969 3.4630001
-1.0507113 -0.18577793 3.4740002
-1.0413126 -0.18518969 3.4630001
-1.0454048 -0.1870079 3.4970002
-1.0553217 -0.18989564 3.5510001
-1.0290059 -0.18625923 3.4830003
-1.0208433 -0.18588489 3.4760001
-1.0162083 -0.18615228 3.4810002
-0.97934622 -0.18048374 3.3750002
-0.95150858 -0.17641953 3.2990003
-0.944291 -0.17615214 3.2940001
-0.9288283 -0.17433393 3.2600002
-0.92424512 -0.17454784 3.2640002
-0.91852224 -0.17454784 3.2640002
-0.90888417 -0.17379917 3.2500002
-0.90624279 -0.17438741 3.2610002
-0.89748752 -0.17379917 3.2500002
-0.90029544 -0.17545694 3.2810001
-1.24598 -0.24438837 4.5700002
-1.2379673 -0.24438837 4.5700002
-1.2299546 -0.24438837 4.5700002
-1.2219418 -0.24438837 4.5700002
-1.2139291 -0.24438837 4.5700002
-1.1734595 -0.23781073 4.447
-1.1580609 -0.23625991 4.4180002
-1.1500543 -0.23620644 4.4170003
-1.167137 -0.24134019 4.513
-1.1674439 -0.24305145 4.5450001
-1.1559035 -0.24230278 4.5310001
-1.1611336 -0.24508356 4.5830002
-1.1553625 -0.24556485 4.592
-1.1480608 -0.24572529 4.5950003
-1.1400042 -0.24572529 4.5950003
-1.1299769 -0.24529746 4.5870004
-1.1079926 -0.2422493 4.5300002
-1.0920365 -0.24048457 4.4970002
-1.0880091 -0.24134019 4.513
-1.0882335 -0.2431584 4.5470004
-1.0802611 -0.2431584 4.5470004
-1.0821933 -0.24540442 4.5890002
-1.0760198 -0.24583223 4.5970001
-1.0602933 -0.24406751 4.5640001
-1.0716584 -0.24855955 4.6480002
-1.0818137 -0.25283769 4.7280002
-1.0735239 -0.25283769 4.7280002
-1.0652342 -0.25283769 4.7280002
-1.0569444 -0.25283769 4.7280002
-1.0723869 -0.25855967 4.835
-1.0639095 -0.25855967 4.835
-1.0554322 -0.25855967 4.835
-1.0257342 -0.25331897 4.737
-1.0154955 -0.25283769 4.7280002
-1.0072058 -0.25283769 4.7280002
-0.97483051 -0.24674134 4.6140003
-0.96150255 -0.24540442 4.5890002
-0.937666 -0.24134019 4.513
-0.91780424 -0.23823854 4.4550004
-0.89855438 -0.23524386 4.3990002
-0.85843986 -0.2266876 4.2390003
-0.79318959 -0.21128631 3.9510002
-0.76019275 -0.20428087 3.8200002
-0.74343526 -0.20155355 3.7690003
-0.72900707 -0.19941449 3.7290001
-0.70813185 -0.19545722 3.6550002
-0.69577175 -0.19379944 3.6240001
-0.67610109 -0.19005607 3.5540001
-0.66214192 -0.18786353 3.5130002
-0.65094078 -0.18641967 3.4860001
-0.64593852 -0.18674052 3.4920001
-0.63285339 -0.1847084 3.4540002
-0.61953861 -0.18256934 3.4140003
-0.61319327 -0.18246238 3.4120002
-0.60721087 -0.18246238 3.4120002
-0.60898173 -0.18481536 3.4560001
-0.47853464 -0.14668649 2.743
-0.47009847 -0.14556348 2.7220001
-0.46395829 -0.14513567 2.7140002
-0.45564663 -0.14401266 2.6930001
-0.4509249 -0.14401266 2.6930001
-0.44620317 -0.14401266 2.6930001
-0.44312081 -0.14454743 2.7030001
-0.43530005 -0.14353137 2.684
-0.43011284 -0.14337094 2.6810002
-0.42541215 -0.14337094 2.6810002
-0.42118222 -0.14353137 2.684
-0.41647628 -0.14353137 2.684
-0.412384 -0.14374527 2.6880002
-0.40797436 -0.14385223 2.6900001
-0.39966005 -0.1425688 2.6660001
-0.39498568 -0.1425688 2.6660001
-0.39060408 -0.14267574 2.6680002
-0.38592619 -0.14267574 2.6680002
-0.38067672 -0.14246184 2.664
-0.37530011 -0.14219445 2.6590002
-0.37258947 -0.14294313 2.6730001
-0.36790282 -0.14294313 2.6730001
-0.3636238 -0.14310355 2.6760001
-0.35893187 -0.14310355 2.6760001
-0.35423997 -0.14310355 2.6760001
-0.35216051 -0.14417309 2.6960001
-0.34782013 -0.14433353 2.6990001
-0.34334213 -0.14444047 2.7010002
-0.33823028 -0.14428005 2.6980002
-0.33337617 -0.14422657 2.697
-0.33120641 -0.14534958 2.7180002
-0.32644087 -0.14534958 2.7180002
-0.3216753 -0.14534958 2.7180002
-0.31632677 -0.14508219 2.7130001
-0.30996215 -0.14433353 2.6990001
-0.30375972 -0.14363833 2.6860001
-0.29882762 -0.14353137 2.684
-0.29434082 -0.14363833 2.6860001
-0.28790611 -0.1427827 2.6700001
-0.28333077 -0.14283617 2.6710002
-0.27958652 -0.14331746 2.6800001
-0.27488759 -0.14331746 2.6800001
-0.27260825 -0.14460091 2.7040002
-0.27004665 -0.14577739 2.7260001
-0.26341817 -0.14476134 2.707
-0.25848079 -0.14465438 2.7050002
-0.25580168 -0.14583087 2.7270002
-0.25102034 -0.14583087 2.7270002
-0.24623901 -0.14583087 2.7270002
-0.24145767 -0.14583087 2.7270002
-0.2369367 -0.1459913 2.73
-0.23215009 -0.1459913 2.73
-0.2268638 -0.14567044 2.7240002
-0.22208773 -0.14567044 2.7240002
-0.2174712 -0.14577739 2.7260001
-0.21269161 -0.14577739 2.7260001
-0.20890352 -0.14647259 2.7390001
-0.20410115 -0.14647259 2.7390001
-0.19929877 -0.14647259 2.7390001
-0.19449639 -0.14647259 2.7390001
-0.189694 -0.14647259 2.7390001
-0.18509413 -0.14663301 2.7420001
-0.1802865 -0.14663301 2.7420001
-0.17547886 -0.14663301 2.7420001
-0.17067122 -0.14663301 2.7420001
-0.16580309 -0.14657955 2.7410002
-0.16093847 -0.14652607 2.7400002
-0.15613434 -0.14652607 2.7400002
-0.15121974 -0.14641911 2.7380002
-0.14636564 -0.14636564 2.7370002
-0.14167021 -0.14647259 2.7390001
-0.13686784 -0.14647259 2.7390001
-0.13221011 -0.14663301 2.7420001
-0.12763478 -0.1469004 2.7470002
-0.12281837 -0.1469004 2.7470002
-0.11804492 -0.14695388 2.7480001
-0.11335037 -0.14711431 2.7510002
-0.1084875 -0.14706083 2.7500002
-0.10389201 -0.14738169 2.756
-0.099059828 -0.14738169 2.756
-0.094227642 -0.14738169 2.756
-0.089395456 -0.14738169 2.756
-0.0845019 -0.14727473 2.7540002
-0.079586431 -0.14711431 2.7510002
-0.074708655 -0.14700736 2.7490001
-0.069812469 -0.14684692 2.7460001
-0.065376543 -0.14770256 2.7620001
-0.060533833 -0.14770256 2.7620001
-0.055670962 -0.14764908 2.7610002
-0.05083001 -0.14764908 2.7610002
-0.046055682 -0.14786299 2.7650001
-0.041207716 -0.14786299 2.7650001
-0.036346599 -0.14780951 2.7640002
-0.031614352 -0.14834428 2.7740002
-0.026875969 -0.14903946 2.7870002
-0.021989429 -0.14903946 2.7870002
-0.017268579 -0.15048334 2.8140001
-0.0123347 -0.15048334 2.8140001
-0.00740082 -0.15048334 2.8140001
-0.0024669401 -0.15048334 2.8140001
0.0024879801 -0.15176678 2.8380001
0.0074718301 -0.1519272 2.8410001
0.01234785 -0.15064377 2.8170002
0.01728699 -0.15064377 2.8170002
0.022241909 -0.15075073 2.8190002
0.0271942 -0.15080419 2.8200002
0.032161392 -0.15091115 2.822
0.0371093 -0.15091115 2.822
0.042057205 -0.15091115 2.822
0.047005113 -0.15091115 2.822
0.052394859 -0.15219459 2.8460002
0.057324357 -0.15203416 2.8430002
0.062309083 -0.15203416 2.8430002
0.067341149 -0.15214111 2.845
0.072227687 -0.1519272 2.8410001
0.07734479 -0.15219459 2.8460002
0.082450502 -0.1524085 2.8500001
0.08809185 -0.15353151 2.8710001
0.093028359 -0.15337108 2.868
0.097954348 -0.15321065 2.8650002
0.10197124 -0.1517133 2.8370001
0.10694544 -0.1517133 2.8370001
0.1121169 -0.15198068 2.8420002
0.11705867 -0.1519272 2.8410001
0.12100893 -0.15064377 2.8170002
0.12594807 -0.15064377 2.8170002
0.13088721 -0.15064377 2.8170002
0.1819697 -0.20182094 3.7740002
0.18873669 -0.20198137 3.7770002
0.19535902 -0.20198137 3.7770002
0.20198137 -0.20198137 3.7770002
0.20860371 -0.20198137 3.7770002
0.21511208 -0.20187442 3.7750001
0.22173092 -0.20187442 3.7750001
0.22538574 -0.19925407 3.7260001
0.23216763 -0.19946797 3.7300003
0.23825958 -0.19909362 3.7230003
0.24432699 -0.19871929 3.7160001
0.25084239 -0.19871929 3.7160001
0.2545875 -0.19658023 3.6760001
0.26103276 -0.19658023 3.6760001
0.26747802 -0.19658023 3.6760001
0.27392328 -0.19658023 3.6760001
0.28059733 -0.19674066 3.6790001
0.28111807 -0.19267642 3.6030002
0.28743532 -0.19267642 3.6030002
0.30451456 -0.19973534 3.7350001
0.31247908 -0.20064445 3.7520001
0.32152364 -0.20219527 3.7810001
0.32815298 -0.20219527 3.7810001
0.33478233 -0.20219527 3.7810001
0.33933488 -0.20096532 3.7580001
0.34712055 -0.20166051 3.7710001
0.35373238 -0.20166051 3.7710001
0.36426201 -0.20385306 3.8120003
0.37172419 -0.20428087 3.8200002
0.37762943 -0.20385306 3.8120003
0.38431314 -0.20385306 3.8120003
0.3894583 -0.2030509 3.7970002
0.39663732 -0.20331828 3.8020003
0.40330347 -0.20331828 3.8020003
0.40716606 -0.20192789 3.7760003
0.41378665 -0.20192789 3.7760003
0.42274532 -0.2030509 3.7970002
0.42996818 -0.20331828 3.8020003
0.43778279 -0.20385306 3.8120003
0.4444665 -0.20385306 3.8120003
0.45115021 -0.20385306 3.8120003
0.45783392 -0.20385306 3.8120003
0.46549246 -0.20428087 3.8200002
0.4721902 -0.20428087 3.8200002
0.47788504 -0.20385306 3.8120003
0.48456874 -0.20385306 3.8120003
0.49125242 -0.20385306 3.8120003
0.49793613 -0.20385306 3.8120003
0.51084155 -0.20636645 3.8590002
0.51787591 -0.20647341 3.8610003
0.52464557 -0.20647341 3.8610003
0.53141516 -0.20647341 3.8610003
0.53818476 -0.20647341 3.8610003
0.54495442 -0.20647341 3.8610003
0.54786581 -0.20502953 3.8340001
0.55227369 -0.20417391 3.8180001
0.55662549 -0.20331828 3.8020003
0.56966239 -0.20561779 3.8450003
0.57640398 -0.20561779 3.8450003
0.5831455 -0.20561779 3.8450003
0.58329016 -0.20331828 3.8020003
0.58964598 -0.20321134 3.8000002
0.59913325 -0.20417391 3.8180001
0.61090517 -0.20588517 3.8500001
0.6213454 -0.20711513 3.8730001
0.62862259 -0.20727555 3.8760002
0.63558245 -0.20732903 3.8770001
0.64370567 -0.20775685 3.8850002
0.65051734 -0.20775685 3.8850002
0.66781926 -0.2110724 3.9470003
0.67473966 -0.2110724 3.9470003
0.68166006 -0.2110724 3.9470003
0.68055546 -0.20861247 3.9010003
0.6801706 -0.20641993 3.8600001
0.68693846 -0.20641993 3.8600001
0.6902917 -0.20540388 3.8410001
0.69702625 -0.20540388 3.8410001
0.7030279 -0.20518997 3.8370001
0.71253014 -0.20599212 3.8520002
0.72731334 -0.20829162 3.8950002
0.7341426 -0.20829162 3.8950002
0.7409718 -0.20829162 3.8950002
0.74780107 -0.20829162 3.8950002
0.75676143 -0.20887986 3.9060001
0.76576042 -0.2094681 3.9170003
0.77262825 -0.2094681 3.9170003
0.77631199 -0.20861247 3.9010003
0.78315175 -0.20861247 3.9010003
0.79323167 -0.2094681 3.9170003
0.80009949 -0.2094681 3.9170003
0.81829822 -0.21240932 3.9720001
0.81840605 -0.21064459 3.9390001
0.82468385 -0.21048416 3.9360001
0.83158493 -0.21048416 3.9360001
0.83507758 -0.20962854 3.9200001
0.8492533 -0.21144673 3.9540002
0.85791826 -0.21187454 3.9620001
0.8661747 -0.21219541 3.9680002
0.87247181 -0.21203499 3.9650002
0.87565321 -0.21112588 3.9480002
0.88615221 -0.21198151 3.9640002
0.89084935 -0.21144673 3.9540002
0.89165151 -0.21000287 3.9270003
0.90448594 -0.21139327 3.9530001
0.90957236 -0.21096545 3.9450002
0.91834778 -0.21139327 3.9530001
0.93862069 -0.21444143 4.0100002
0.94706649 -0.21476229 4.0160003
0.95410788 -0.21476229 4.0160003
0.96090996 -0.21470882 4.0150003
0.96698523 -0.21449491 4.0110002
0.96600425 -0.21273018 3.9780002
0.98814362 -0.21604574 4.04
1.0070516 -0.21861261 4.0880003
0.98692852 -0.21273018 3.9780002
0.99465287 -0.21289061 3.9810002
1.0149678 -0.21572487 4.0340004
1.0205207 -0.21540402 4.0280004
1.0217155 -0.21417405 4.0050001
1.0287377 -0.21417405 4.0050001
1.0251565 -0.21198151 3.9640002
1.0440837 -0.21444143 4.0100002
1.0511146 -0.21444143 4.0100002
1.0581454 -0.21444143 4.0100002
1.0776609 -0.21695484 4.0570002
1.0981433 -0.21962866 4.1070004
1.1077665 -0.22010995 4.1160002
1.1198592 -0.22107254 4.1340003
1.1271075 -0.22107254 4.1340003
1.1346302 -0.22112602 4.1350002
1.1369095 -0.22016343 4.1170001
1.1285654 -0.21716875 4.0610003
1.1331688 -0.21668746 4.052
1.1402733 -0.21668746 4.052
1.1482273 -0.21684788 4.0550003
1.141946 -0.21433447 4.0080004
1.1515534 -0.21481577 4.0170002
1.1585965 -0.21481577 4.0170002
1.151421 -0.21219541 3.9680002
1.1589621 -0.21230237 3.9700003
1.1659229 -0.21230237 3.9700003
1.1719973 -0.21214193 3.9670002
1.1798443 -0.21230237 3.9700003
1.1727546 -0.20978896 3.9230001
1.1799337 -0.20984244 3.9240003
1.1871163 -0.20989591 3.9250002
1.205862 -0.21198151 3.9640002
1.221379 -0.21347885 3.9920001
1.2142236 -0.21101892 3.9460001
1.2211423 -0.21101892 3.9460001
1.228061 -0.21101892 3.9460001
1.220896 -0.20861247 3.9010003
1.2258474 -0.20829162 3.8950002
1.2203341 -0.20620602 3.8560002
1.2270949 -0.20620602 3.8560002
1.2338557 -0.20620602 3.8560002
1.2264602 -0.20385306 3.8120003
1.228615 -0.20310438 3.7980001
1.2352742 -0.20310438 3.7980001
1.2393174 -0.20267656 3.7900002
1.2459625 -0.20267656 3.7900002
0.45098975 -0.070000954 1.309
0.45328489 -0.070000954 1.309
0.45558 -0.070000954 1.309
0.45962405 -0.07026834 1.314
0.46192795 -0.07026834 1.314
0.46246535 -0.070000954 1.309
0.46476045 -0.070000954 1.309
0.46562836 -0.069787048 1.3050001
0.46612367 -0.069519669 1.3000001
0.46840301 -0.069519669 1.3000001
0.46887201 -0.069252282 1.2950001
0.47114259 -0.069252282 1.2950001
0.46939188 -0.068664037 1.284
0.47164315 -0.068664037 1.284
0.47389445 -0.068664037 1.284
0.47466239 -0.068450131 1.2800001
0.47690666 -0.068450131 1.2800001
0.47727925 -0.068182752 1.2750001
0.47951475 -0.068182752 1.2750001
0.48023888 -0.067968845 1.271
0.47829181 -0.0673806 1.2600001
0.480501 -0.0673806 1.2600001
0.48271018 -0.0673806 1.2600001
0.48337996 -0.067166694 1.256
0.48558214 -0.067166694 1.256
0.48584253 -0.066899307 1.251
0.48803595 -0.066899307 1.251
0.48866189 -0.066685401 1.2470001
0.48888019 -0.066418022 1.2420001
0.48987168 -0.066257589 1.2390001
0.49204406 -0.066257589 1.2390001
0.49222204 -0.06599021 1.2340001
0.4927831 -0.065776296 1.23
0.49292776 -0.065508917 1.225
0.49507558 -0.065508917 1.225
0.49559984 -0.065295011 1.2210001
0.49611005 -0.065081105 1.217
0.49701566 -0.064920671 1.2140001
0.4991442 -0.064920671 1.2140001
0.49879527 -0.064599812 1.2080001
0.50091332 -0.064599812 1.2080001
0.50136566 -0.064385906 1.2040001
0.50138581 -0.064118519 1.199
0.5005486 -0.063744187 1.192
0.50095189 -0.063530281 1.1880001
0.50303483 -0.063530281 1.1880001
0.50341707 -0.063316375 1.184
0.5033583 -0.063048989 1.179
0.50371075 -0.062835082 1.1750001
0.50491005 -0.062728129 1.1730001
0.5039413 -0.062353794 1.166
0.50598568 -0.062353794 1.166
0.50628728 -0.062139887 1.1620001
0.50832462 -0.062139887 1.1620001
0.50684834 -0.061712071 1.154
0.50975358 -0.061819028 1.156
0.51045233 -0.061658595 1.153
0.51114053 -0.061498165 1.1500001
0.51137191 -0.061284259 1.146
0.51338124 -0.061284259 1.146
0.51359165 -0.061070353 1.1420001
0.51559395 -0.061070353 1.1420001
0.51578331 -0.060856447 1.138
0.51459366 -0.060482111 1.131
0.51429302 -0.060214728 1.126
0.51580876 -0.060161248 1.125
0.51778126 -0.060161248 1.125
0.51836771 -0.060000818 1.1220001
0.51708865 -0.059626482 1.115
0.51764709 -0.059466053 1.1120001
0.51959682 -0.059466053 1.1120001
0.51967049 -0.059252147 1.108
0.52114236 -0.05919867 1.107
0.52072072 -0.058931287 1.102
0.52123004 -0.058770858 1.0990001
0.52172887 -0.058610428 1.0960001
0.52078384 -0.058289565 1.09
0.52173591 -0.058182612 1.0880001
0.52027446 -0.057808276 1.0810001
0.52168679 -0.0577548 1.08
0.52212602 -0.05759437 1.077
0.52206814 -0.057380464 1.0730001
0.52443779 -0.05743394 1.074
0.52485067 -0.057273511 1.0710001
0.52328587 -0.056899171 1.064
0.52564496 -0.056952648 1.0650001
0.52553099 -0.056738742 1.0610001
-2.4399264 -0.33713269 6.5180001
-2.4508531 -0.3402361 6.5780005
-2.3940785 -0.33392584 6.4560003
-2.3716867 -0.33237413 6.4260001
-2.3604198 -0.33237413 6.4260001
-2.3491528 -0.33237413 6.4260001
-2.38118 -0.33852923 6.5450001
-2.3697045 -0.33852923 6.5450001
-2.315352 -0.33237413 6.4260001
-2.259624 -0.32596046 6.3020005
-2.2639172 -0.32818455 6.3450003
-2.2527921 -0.32818455 6.3450003
-2.2416673 -0.32818455 6.3450003
-2.2414403 -0.32978797 6.3760004
-2.2194176 -0.32818455 6.3450003
-2.2082927 -0.32818455 6.3450003
-2.2664244 -0.33852923 6.5450001
-2.2546043 -0.33847749 6.5440001
-2.2434733 -0.33852923 6.5450001
-2.2258592 -0.3375982 6.5270004
-1.4154345 -0.21578975 4.1720004
-1.4185826 -0.21739317 4.2030001
-1.4075199 -0.21682422 4.1920004
-1.4546136 -0.22525512 4.355
-1.4649197 -0.22804818 4.4090004
-1.4737144 -0.23063435 4.4590001
-1.4576775 -0.22934125 4.434
-1.4459792 -0.22872058 4.4220004
-1.4379008 -0.22866885 4.421
-1.4301493 -0.22866885 4.421
-1.4285108 -0.2296516 4.4400001
-1.4245658 -0.23027228 4.4520001
-1.0934383 -0.17772137 3.4360001
-1.0734888 -0.17544554 3.3920002
-1.0788716 -0.17730759 3.4280002
-1.0728612 -0.17730759 3.4280002
-1.0740087 -0.17849723 3.4510002
-1.067958 -0.17849723 3.4510002
-1.0655997 -0.1791179 3.4630001
-1.0595279 -0.1791179 3.4630001
-1.0534562 -0.1791179 3.4630001
-1.052526 -0.17999721 3.4800003
-1.0446202 -0.17968686 3.4740002
-1.0474974 -0.18123856 3.5040002
-1.0285746 -0.17901446 3.4610002
-1.0225064 -0.17901446 3.4610002
-1.0182002 -0.17932479 3.4670002
-1.0036553 -0.17782483 3.4380002
-0.97731501 -0.17420419 3.3680003
-0.9506433 -0.1704801 3.2960002
-0.94343096 -0.17022149 3.2910001
-0.93766075 -0.17022149 3.2910001
-0.92424512 -0.16882496 3.2640002
-0.91852224 -0.16882496 3.2640002
-0.90412998 -0.16722153 3.233
-0.90318584 -0.16810083 3.2500002
-0.9013536 -0.16882496 3.2640002
-0.90029544 -0.16970426 3.2810001
-1.2626113 -0.23953076 4.631
-1.2620765 -0.24097902 4.6590004
-1.2299546 -0.23637563 4.5700002
-1.2219418 -0.23637563 4.5700002
-1.2139291 -0.23637563 4.5700002
-1.1734595 -0.23001367 4.447
-1.1577988 -0.22846197 4.4170003
-1.1750498 -0.23342741 4.513
-1.167137 -0.23342741 4.513
-1.1674439 -0.23508255 4.5450001
-1.1559035 -0.23435842 4.5310001
-1.1631604 -0.23746182 4.5910001
-1.1553625 -0.23751354 4.592
-1.1503094 -0.23813422 4.6040001
-1.1457103 -0.23885836 4.618
-1.1299769 -0.23725493 4.5870004
-1.0957632 -0.23172054 4.48
-1.0820801 -0.23047917 4.4560003
-1.073303 -0.23027228 4.4520001
-1.0745916 -0.23223777 4.4900002
-1.0667192 -0.23223777 4.4900002
-1.0666289 -0.23394464 4.5230002
-1.0682955 -0.2360653 4.5640001
-1.0602933 -0.2360653 4.5640001
-1.0716584 -0.24041004 4.6480002
-1.0818137 -0.24454792 4.7280002
-1.0735239 -0.24454792 4.7280002
-1.0652342 -0.24454792 4.7280002
-1.0569444 -0.24454792 4.7280002
-1.0723869 -0.25008231 4.835
-1.0639095 -0.25008231 4.835
-1.0554322 -0.25008231 4.835
-1.0257342 -0.24501343 4.737
-1.0154955 -0.24454792 4.7280002
-1.0072058 -0.24454792 4.7280002
-0.97483051 -0.23865145 4.6140003
-0.96150255 -0.23735838 4.5890002
-0.937666 -0.23342741 4.513
-0.90626729 -0.22753094 4.3990002
-0.88752419 -0.22473788 4.3450003
-0.85843986 -0.21925521 4.2390003
-0.83073109 -0.21403114 4.138
-0.76874989 -0.19980724 3.8630002
-0.75171977 -0.19711763 3.8110001
-0.74601525 -0.19737624 3.8160002
-0.74339318 -0.19846243 3.8370001
-0.70306736 -0.18941085 3.6620002
-0.6745792 -0.18341094 3.5460002
-0.6606341 -0.18129028 3.5050001
-0.6487 -0.17968686 3.4740002
-0.64482868 -0.18030754 3.4860001
-0.63413596 -0.17901446 3.4610002
-0.62806767 -0.17901446 3.4610002
-0.61930364 -0.1782386 3.4460001
-0.61539721 -0.17885928 3.4580002
-0.61514908 -0.18056616 3.4910002
-0.47487104 -0.14079091 2.7220001
-0.47009847 -0.14079091 2.7220001
-0.46395829 -0.14037712 2.7140002
-0.45919976 -0.14037712 2.7140002
-0.4509249 -0.13929093 2.6930001
-0.44288936 -0.13825648 2.6730001
-0.43935028 -0.13861853 2.6800001
-0.43530005 -0.13882543 2.684
-0.43011284 -0.13867025 2.6810002
-0.42541215 -0.13867025 2.6810002
-0.42118222 -0.13882543 2.684
-0.41647628 -0.13882543 2.684
-0.41177034 -0.13882543 2.684
-0.4078227 -0.13908404 2.6890001
-0.40280816 -0.1389806 2.687
-0.39824513 -0.13903232 2.6880002
-0.39382496 -0.13913576 2.6900001
-0.38910851 -0.13913576 2.6900001
-0.38410625 -0.13903232 2.6880002
