# .PCD v0.7 - Point Cloud Data file format
VERSION 0.7
FIELDS x y z
SIZE 4 4 4
TYPE F F F
COUNT 1 1 1
WIDTH 1402
HEIGHT 1
VIEWPOINT 0 0 0 1 0 0 0
POINTS 1402
DATA ascii
0.02165805 0.076525107 0.54900002
0.02262063 0.076525107 0.54900002
0.023583209 0.076525107 0.54900002
0.024545791 0.076525107 0.54900002
0.025554834 0.0766645 0.55000001
0.026519166 0.0766645 0.55000001
0.027583439 0.076943278 0.55200005
0.028499557 0.076803893 0.551
0.029465644 0.076803893 0.551
0.0303765 0.0766645 0.55000001
0.031340834 0.0766645 0.55000001
0.032305166 0.0766645 0.55000001
0.033269498 0.0766645 0.55000001
0.034233835 0.0766645 0.55000001
0.035198167 0.0766645 0.55000001
0.036162499 0.0766645 0.55000001
0.037194338 0.076803893 0.551
0.038160425 0.076803893 0.551
0.039126508 0.076803893 0.551
0.040165361 0.076943278 0.55200005
0.041058682 0.076803893 0.551
0.04210104 0.076943278 0.55200005
0.043068878 0.076943278 0.55200005
0.04403672 0.076943278 0.55200005
0.045004562 0.076943278 0.55200005
0.045972399 0.076943278 0.55200005
0.047110312 0.077222057 0.55400002
0.048168451 0.07736145 0.55500001
0.049318638 0.077640228 0.55700004
0.050385538 0.077779621 0.55800003
0.051455949 0.077919006 0.55900002
0.052436061 0.077919006 0.55900002
0.053511731 0.078058399 0.56
0.054493599 0.078058399 0.56
0.055574529 0.078197792 0.56100005
0.056759782 0.078476571 0.56300002
0.05774691 0.078476571 0.56300002
0.065723702 0.087815702 0.63000005
0.066828303 0.087815702 0.63000005
0.067932896 0.087815702 0.63000005
0.069037497 0.087815702 0.63000005
0.070030764 0.087676309 0.62900001
0.071133606 0.087676309 0.62900001
0.072351299 0.087815702 0.63000005
0.073572494 0.087955087 0.63100004
0.074678853 0.087955087 0.63100004
0.075665101 0.087815702 0.63000005
0.076769702 0.087815702 0.63000005
0.089246422 0.10063958 0.72200006
0.090512328 0.10063958 0.72200006
0.092413813 0.10133653 0.72700006
0.093688488 0.10133653 0.72700006
0.094571292 0.10091836 0.72400004
0.096634969 0.1017547 0.73000002
0.097914897 0.1017547 0.73000002
0.099194832 0.1017547 0.73000002
0.10019949 0.10147592 0.72800004
-0.027518567 0.10303463 0.73000002
-0.026238633 0.10303463 0.73000002
-0.0249587 0.10303463 0.73000002
-0.023711203 0.10317577 0.73100001
-0.022429517 0.10317577 0.73100001
-0.02114783 0.10317577 0.73100001
-0.00659867 0.081721991 0.57900006
-0.0055738464 0.081580848 0.57800001
-0.00454464 0.08129856 0.57600003
-0.0035224466 0.081016272 0.574
-0.0025072666 0.080733985 0.57200003
-0.00149647 0.080310553 0.56900001
-0.00049531664 0.079745986 0.565
0.00049443997 0.079604842 0.56400001
0.00148069 0.079463698 0.56300002
0.0024634334 0.079322554 0.56200004
0.0034488067 0.079322554 0.56200004
0.0044262898 0.07918141 0.56100005
0.0054002665 0.079040267 0.56
0.0063821333 0.079040267 0.56
0.0073377001 0.078757979 0.55800003
0.0082862535 0.078475691 0.55600005
0.0092611071 0.078475691 0.55600005
0.01019914 0.078193404 0.55400002
0.011150323 0.07805226 0.55300003
0.012141833 0.078193404 0.55400002
0.01308951 0.07805226 0.55300003
0.01403368 0.077911116 0.55200005
0.01500152 0.077911116 0.55200005
0.01596936 0.077911116 0.55200005
0.0169372 0.077911116 0.55200005
0.01790504 0.077911116 0.55200005
0.018838691 0.07776998 0.551
0.019768834 0.077628836 0.55000001
0.02069547 0.077487692 0.54900002
0.02165805 0.077487692 0.54900002
0.02262063 0.077487692 0.54900002
0.023669124 0.07776998 0.551
0.024635211 0.07776998 0.551
0.025601296 0.07776998 0.551
0.026615599 0.077911116 0.55200005
0.027583439 0.077911116 0.55200005
0.028499557 0.07776998 0.551
0.029465644 0.07776998 0.551
0.0303765 0.077628836 0.55000001
0.031340834 0.077628836 0.55000001
0.032305166 0.077628836 0.55000001
0.033269498 0.077628836 0.55000001
0.034171589 0.077487692 0.54900002
0.035198167 0.077628836 0.55000001
0.036228251 0.07776998 0.551
0.037194338 0.07776998 0.551
0.038229682 0.077911116 0.55200005
0.039197519 0.077911116 0.55200005
0.040165361 0.077911116 0.55200005
0.041133199 0.077911116 0.55200005
0.04210104 0.077911116 0.55200005
0.043068878 0.077911116 0.55200005
0.04403672 0.077911116 0.55200005
0.045004562 0.077911116 0.55200005
0.045972399 0.077911116 0.55200005
0.047025278 0.07805226 0.55300003
0.048255239 0.078475691 0.55600005
0.04940718 0.078757979 0.55800003
0.050295241 0.078616835 0.55700004
0.051548 0.079040267 0.56
0.052529868 0.079040267 0.56
0.053511731 0.079040267 0.56
0.054493599 0.079040267 0.56
0.055574529 0.07918141 0.56100005
0.0568606 0.079604842 0.56400001
0.057849478 0.079604842 0.56400001
0.065723702 0.088920303 0.63000005
0.066828303 0.088920303 0.63000005
0.067932896 0.088920303 0.63000005
0.069037497 0.088920303 0.63000005
0.070030764 0.088779159 0.62900001
0.071133606 0.088779159 0.62900001
0.072236456 0.088779159 0.62900001
0.0734559 0.088920303 0.63000005
0.074560501 0.088920303 0.63000005
0.075544998 0.088779159 0.62900001
0.076525986 0.088638015 0.62800002
0.089370027 0.10204663 0.72300005
0.090512328 0.10190549 0.72200006
0.092413813 0.1026112 0.72700006
0.093688488 0.1026112 0.72700006
0.094701916 0.10232892 0.72500002
0.096105456 0.10247006 0.72600001
0.097378381 0.10247006 0.72600001
0.098651297 0.10247006 0.72600001
0.099924222 0.10247006 0.72600001
-0.02748087 0.10417167 0.72900003
-0.02620269 0.10417167 0.72900003
-0.024924509 0.10417167 0.72900003
-0.023678767 0.10431457 0.73000002
-0.022337466 0.10402878 0.72800004
-0.02106104 0.10402878 0.72800004
-0.0076532997 0.083165862 0.58200002
-0.0066214632 0.08302296 0.58100003
-0.0055738464 0.082594275 0.57800001
-0.00454464 0.082308479 0.57600003
-0.0035224466 0.082022689 0.574
-0.0025072666 0.081736892 0.57200003
-0.00149647 0.081308201 0.56900001
-0.00049531664 0.080736615 0.565
0.00049443997 0.08059372 0.56400001
0.00148332 0.08059372 0.56400001
0.0024722 0.08059372 0.56400001
0.0034610799 0.08059372 0.56400001
0.0044420701 0.080450825 0.56300002
0.0054195533 0.080307923 0.56200004
0.0063821333 0.080022134 0.56
0.0073377001 0.079736337 0.55800003
0.0083011566 0.079593442 0.55700004
0.0092611071 0.079450548 0.55600005
0.01019914 0.079164751 0.55400002
0.011170487 0.079164751 0.55400002
0.012141833 0.079164751 0.55400002
0.01311318 0.079164751 0.55400002
0.014059103 0.079021856 0.55300003
0.01500152 0.078878962 0.55200005
0.015998289 0.079021856 0.55300003
0.016967883 0.079021856 0.55300003
0.017937476 0.079021856 0.55300003
0.01890707 0.079021856 0.55300003
0.019804776 0.078736059 0.551
0.020733166 0.078593165 0.55000001
0.021697501 0.078593165 0.55000001
0.022703037 0.078736059 0.551
0.023669124 0.078736059 0.551
0.024635211 0.078736059 0.551
0.025647759 0.078878962 0.55200005
0.026615599 0.078878962 0.55200005
0.027583439 0.078878962 0.55200005
0.028499557 0.078736059 0.551
0.029465644 0.078736059 0.551
0.030431731 0.078736059 0.551
0.031397816 0.078736059 0.551
0.032305166 0.078593165 0.55000001
0.033269498 0.078593165 0.55000001
0.034171589 0.07845027 0.54900002
0.035198167 0.078593165 0.55000001
0.036228251 0.078736059 0.551
0.037126832 0.078593165 0.55000001
0.038160425 0.078736059 0.551
0.039197519 0.078878962 0.55200005
0.040165361 0.078878962 0.55200005
0.041133199 0.078878962 0.55200005
0.04210104 0.078878962 0.55200005
0.043068878 0.078878962 0.55200005
0.04403672 0.078878962 0.55200005
0.04508609 0.079021856 0.55300003
0.046055682 0.079021856 0.55300003
0.047025278 0.079021856 0.55300003
0.048255239 0.079450548 0.55600005
0.04940718 0.079736337 0.55800003
0.050385538 0.079736337 0.55800003
0.051548 0.080022134 0.56
0.052717473 0.080307923 0.56200004
0.053702846 0.080307923 0.56200004
0.054688219 0.080307923 0.56200004
0.055673592 0.080307923 0.56200004
0.056658965 0.080307923 0.56200004
0.064619102 0.090024896 0.63000005
0.065723702 0.090024896 0.63000005
0.066828303 0.090024896 0.63000005
0.067932896 0.090024896 0.63000005
0.068927914 0.089882001 0.62900001
0.070030764 0.089882001 0.62900001
0.071133606 0.089882001 0.62900001
0.072236456 0.089882001 0.62900001
0.073339306 0.089882001 0.62900001
0.074442148 0.089882001 0.62900001
0.075544998 0.089882001 0.62900001
0.076525986 0.089739107 0.62800002
0.08949364 0.10345718 0.72400004
0.090512328 0.10317139 0.72200006
0.092413813 0.10388587 0.72700006
0.093688488 0.10388587 0.72700006
0.094701916 0.10360008 0.72500002
0.095708333 0.10331429 0.72300005
0.09697599 0.10331429 0.72300005
0.098243646 0.10331429 0.72300005
0.09951131 0.10331429 0.72300005
-0.02748087 0.10544985 0.72900003
-0.026130803 0.10516055 0.72700006
-0.02485613 0.10516055 0.72700006
-0.023613892 0.1053052 0.72800004
-0.022337466 0.1053052 0.72800004
-0.02106104 0.1053052 0.72800004
-0.0076532997 0.084186301 0.58200002
-0.0066214632 0.084041648 0.58100003
-0.0055738464 0.083607696 0.57800001
-0.00454464 0.083318397 0.57600003
-0.0035224466 0.083029099 0.574
-0.0025028833 0.082595147 0.57100004
-0.00149647 0.082305849 0.56900001
-0.00049707002 0.08201655 0.56700003
0.00049619336 0.081871897 0.56600004
0.00148332 0.081582598 0.56400001
0.0024722 0.081582598 0.56400001
0.0034610799 0.081582598 0.56400001
0.0044420701 0.081437953 0.56300002
0.0054291966 0.081437953 0.56300002
0.0063935299 0.081148647 0.56100005
0.0073639997 0.081004001 0.56
0.0083309636 0.080859348 0.55900002
0.0092944195 0.080714703 0.55800003
0.01021755 0.080280751 0.55500001
0.011170487 0.080136098 0.55400002
0.012141833 0.080136098 0.55400002
0.01311318 0.080136098 0.55400002
0.014059103 0.079991452 0.55300003
0.01500152 0.079846799 0.55200005
0.015998289 0.079991452 0.55300003
0.016998567 0.080136098 0.55400002
0.017969914 0.080136098 0.55400002
0.01890707 0.079991452 0.55300003
0.019840719 0.079846799 0.55200005
0.020808561 0.079846799 0.55200005
0.021776401 0.079846799 0.55200005
0.02274424 0.079846799 0.55200005
0.02371208 0.079846799 0.55200005
0.02467992 0.079846799 0.55200005
0.025601296 0.079702146 0.551
0.026567383 0.079702146 0.551
0.02753347 0.079702146 0.551
0.028499557 0.079702146 0.551
0.029465644 0.079702146 0.551
0.030431731 0.079702146 0.551
0.031397816 0.079702146 0.551
0.032363903 0.079702146 0.551
0.03332999 0.079702146 0.551
0.034233835 0.079557501 0.55000001
0.035262164 0.079702146 0.551
0.036228251 0.079702146 0.551
0.037194338 0.079702146 0.551
0.038160425 0.079702146 0.551
0.039197519 0.079846799 0.55200005
0.040165361 0.079846799 0.55200005
0.041133199 0.079846799 0.55200005
0.04210104 0.079846799 0.55200005
0.043068878 0.079846799 0.55200005
0.04403672 0.079846799 0.55200005
0.04508609 0.079991452 0.55300003
0.046055682 0.079991452 0.55300003
0.047110312 0.080136098 0.55400002
0.048168451 0.080280751 0.55500001
0.049318638 0.08057005 0.55700004
0.050385538 0.080714703 0.55800003
0.051548 0.081004001 0.56
0.052623671 0.081148647 0.56100005
0.053702846 0.0812933 0.56200004
0.054785531 0.081437953 0.56300002
0.055871721 0.081582598 0.56400001
0.057163049 0.08201655 0.56700003
0.058157191 0.08201655 0.56700003
0.065723702 0.091129497 0.63000005
0.066828303 0.091129497 0.63000005
0.067932896 0.091129497 0.63000005
0.068927914 0.090984851 0.62900001
0.070030764 0.090984851 0.62900001
0.071133606 0.090984851 0.62900001
0.072236456 0.090984851 0.62900001
0.073222704 0.090840198 0.62800002
0.074442148 0.090984851 0.62900001
0.075304791 0.090695553 0.62700003
0.076404132 0.090695553 0.62700003
0.07737986 0.0905509 0.62600005
0.078352086 0.090406246 0.625
0.092159584 0.10487125 0.72500002
0.09343075 0.10487125 0.72500002
0.094571292 0.1047266 0.72400004
0.09517882 0.10400335 0.71900004
0.096439466 0.10400335 0.71900004
0.097700119 0.10400335 0.71900004
0.099236034 0.10429265 0.72100002
-0.027405476 0.10643522 0.72700006
-0.026130803 0.10643522 0.72700006
-0.02485613 0.10643522 0.72700006
-0.023581456 0.10643522 0.72700006
-0.022337466 0.10658163 0.72800004
-0.02106104 0.10658163 0.72800004
-0.0066214632 0.085060336 0.58100003
-0.0055834898 0.084767528 0.57900006
-0.0045367498 0.08418192 0.57500005
-0.0035163099 0.083889112 0.57300001
-0.0025028833 0.083596304 0.57100004
-0.00149647 0.083303496 0.56900001
-0.00049707002 0.083010688 0.56700003
0.00049707002 0.083010688 0.56700003
0.00148595 0.082717881 0.565
0.0024765832 0.082717881 0.565
0.0034610799 0.082571477 0.56400001
0.0044420701 0.082425073 0.56300002
0.0054195533 0.082278676 0.56200004
0.0063935299 0.082132272 0.56100005
0.0073639997 0.081985869 0.56
0.0083458666 0.081985869 0.56
0.0092944195 0.081693061 0.55800003
0.01025437 0.081546657 0.55700004
0.01119065 0.081253849 0.55500001
0.012141833 0.081107445 0.55400002
0.01311318 0.081107445 0.55400002
0.014059103 0.080961041 0.55300003
0.015028697 0.080961041 0.55300003
0.01602722 0.081107445 0.55400002
0.016967883 0.080961041 0.55300003
0.017937476 0.080961041 0.55300003
0.01890707 0.080961041 0.55300003
0.019840719 0.080814637 0.55200005
0.020808561 0.080814637 0.55200005
0.021776401 0.080814637 0.55200005
0.02274424 0.080814637 0.55200005
0.02371208 0.080814637 0.55200005
0.02467992 0.080814637 0.55200005
0.025647759 0.080814637 0.55200005
0.026615599 0.080814637 0.55200005
0.027583439 0.080814637 0.55200005
0.028499557 0.080668233 0.551
0.029465644 0.080668233 0.551
0.030431731 0.080668233 0.551
0.031397816 0.080668233 0.551
0.032363903 0.080668233 0.551
0.033269498 0.080521829 0.55000001
0.034296077 0.080668233 0.551
0.035262164 0.080668233 0.551
0.036228251 0.080668233 0.551
0.037194338 0.080668233 0.551
0.038160425 0.080668233 0.551
0.039268531 0.080961041 0.55300003
0.040238123 0.080961041 0.55300003
0.041133199 0.080814637 0.55200005
0.04210104 0.080814637 0.55200005
0.043068878 0.080814637 0.55200005
0.044116497 0.080961041 0.55300003
0.04508609 0.080961041 0.55300003
0.045972399 0.080814637 0.55200005
0.047110312 0.081107445 0.55400002
0.048081659 0.081107445 0.55400002
0.049230091 0.081400253 0.55600005
0.050385538 0.081693061 0.55800003
0.051640049 0.082132272 0.56100005
0.052623671 0.082132272 0.56100005
0.053702846 0.082278676 0.56200004
0.054785531 0.082425073 0.56300002
0.055970784 0.082717881 0.565
0.057163049 0.083010688 0.56700003
0.058157191 0.083010688 0.56700003
0.065723702 0.092234097 0.63000005
0.066722222 0.092087694 0.62900001
0.067932896 0.092234097 0.63000005
0.068927914 0.092087694 0.62900001
0.06991943 0.09194129 0.62800002
0.071020521 0.09194129 0.62800002
0.072121613 0.09194129 0.62800002
0.073222704 0.09194129 0.62800002
0.074323803 0.09194129 0.62800002
0.075304791 0.091794886 0.62700003
0.07628227 0.091648489 0.62600005
0.077256247 0.091502085 0.625
0.078352086 0.091502085 0.625
0.091651119 0.1055568 0.72100002
0.092915267 0.1055568 0.72100002
0.093526304 0.10482479 0.71600002
0.09451694 0.10453198 0.71400005
0.095768817 0.10453198 0.71400005
0.097156584 0.10467838 0.71500003
0.098685488 0.10497119 0.71700001
-0.026802329 0.10533939 0.71100003
-0.025555709 0.10533939 0.71100003
-0.024309089 0.10533939 0.71100003
-0.02315978 0.10578386 0.71400005
-0.0219079 0.10578386 0.71400005
-0.020453509 0.10474676 0.70700002
-0.019213904 0.10474676 0.70700002
-0.01799972 0.10489492 0.708
-0.01678203 0.10504308 0.70900005
-0.015538917 0.10504308 0.70900005
-0.0066100666 0.085930869 0.58000004
-0.0055545601 0.085338242 0.57600003
-0.0045288601 0.085041925 0.574
-0.0035224466 0.085041925 0.574
-0.0025028833 0.084597453 0.57100004
-0.0014991 0.084449299 0.57000005
-0.00049882336 0.084301144 0.56900001
0.00049707002 0.084004827 0.56700003
0.00149121 0.084004827 0.56700003
0.0024809667 0.083856672 0.56600004
0.0034672166 0.083708517 0.565
0.0044420701 0.0834122 0.56300002
0.0054099099 0.083115891 0.56100005
0.0063935299 0.083115891 0.56100005
0.00737715 0.083115891 0.56100005
0.0083458666 0.082967736 0.56
0.0093110763 0.082819574 0.55900002
0.01027278 0.082671419 0.55800003
0.011230976 0.082523264 0.55700004
0.01216375 0.082226947 0.55500001
0.01313685 0.082226947 0.55500001
0.014084526 0.082078792 0.55400002
0.015055873 0.082078792 0.55400002
0.01602722 0.082078792 0.55400002
0.016998567 0.082078792 0.55400002
0.017969914 0.082078792 0.55400002
0.018872879 0.081782483 0.55200005
0.019840719 0.081782483 0.55200005
0.020808561 0.081782483 0.55200005
0.021776401 0.081782483 0.55200005
0.02274424 0.081782483 0.55200005
0.02371208 0.081782483 0.55200005
0.02467992 0.081782483 0.55200005
0.025647759 0.081782483 0.55200005
0.026663816 0.081930637 0.55300003
0.027583439 0.081782483 0.55200005
0.028499557 0.08163432 0.551
0.029465644 0.08163432 0.551
0.030431731 0.08163432 0.551
0.031397816 0.08163432 0.551
0.032363903 0.08163432 0.551
0.033269498 0.081486166 0.55000001
0.034296077 0.08163432 0.551
0.035262164 0.08163432 0.551
0.036228251 0.08163432 0.551
0.037194338 0.08163432 0.551
0.038229682 0.081782483 0.55200005
0.039197519 0.081782483 0.55200005
0.040238123 0.081930637 0.55300003
0.041207716 0.081930637 0.55300003
0.04225358 0.082078792 0.55400002
0.043146905 0.081930637 0.55300003
0.044116497 0.081930637 0.55300003
0.04508609 0.081930637 0.55300003
0.046055682 0.081930637 0.55300003
0.047110312 0.082078792 0.55400002
0.048168451 0.082226947 0.55500001
0.049230091 0.082375109 0.55600005
0.050385538 0.082671419 0.55800003
0.051548 0.082967736 0.56
0.052717473 0.083264045 0.56200004
0.053798404 0.0834122 0.56300002
0.054882839 0.083560362 0.56400001
0.05616891 0.084004827 0.56700003
0.057263866 0.084152989 0.56800002
0.0584649 0.084449299 0.57000005
0.059464298 0.084449299 0.57000005
0.066722222 0.093190543 0.62900001
0.067717239 0.093042389 0.62800002
0.068818331 0.093042389 0.62800002
0.069808088 0.092894226 0.62700003
0.070907429 0.092894226 0.62700003
0.072006769 0.092894226 0.62700003
0.072989516 0.092746072 0.62600005
0.074087098 0.092746072 0.62600005
0.075304791 0.092894226 0.62700003
0.07628227 0.092746072 0.62600005
0.07737986 0.092746072 0.62600005
0.078352086 0.092597917 0.625
0.091015533 0.10608017 0.71600002
0.092270918 0.10608017 0.71600002
0.093526304 0.10608017 0.71600002
0.09451694 0.10578386 0.71400005
0.095768817 0.10578386 0.71400005
0.097020701 0.10578386 0.71400005
0.098272577 0.10578386 0.71400005
-0.026689241 0.10613628 0.708
-0.025447879 0.10613628 0.708
-0.024309089 0.10658601 0.71100003
-0.023030033 0.1064361 0.71000004
-0.021693116 0.10598637 0.70700002
-0.02042458 0.10583646 0.70600003
-0.019213904 0.10598637 0.70700002
-0.01799972 0.10613628 0.708
-0.01678203 0.10628619 0.70900005
-0.015538917 0.10628619 0.70900005
-0.0066100666 0.086947799 0.58000004
-0.0055449167 0.086198248 0.57500005
-0.0045288601 0.086048342 0.574
-0.0035163099 0.085898429 0.57300001
-0.0025072666 0.085748516 0.57200003
-0.0014991 0.085448697 0.57000005
-0.00049794669 0.085148878 0.56800002
0.00049794669 0.085148878 0.56800002
0.00148858 0.08484906 0.56600004
0.0024809667 0.08484906 0.56600004
0.0034610799 0.084549241 0.56400001
0.00443418 0.084249422 0.56200004
0.0054099099 0.084099509 0.56100005
0.0064049265 0.084249422 0.56200004
0.00737715 0.084099509 0.56100005
0.0083458666 0.083949603 0.56
0.009327733 0.083949603 0.56
0.0103096 0.083949603 0.56
0.011291467 0.083949603 0.56
0.0122295 0.083649777 0.55800003
0.01316052 0.083349958 0.55600005
0.01410995 0.083200052 0.55500001
0.01508305 0.083200052 0.55500001
0.01602722 0.083050139 0.55400002
0.016998567 0.083050139 0.55400002
0.017969914 0.083050139 0.55400002
0.018838691 0.082600407 0.551
0.019840719 0.08275032 0.55200005
0.020808561 0.08275032 0.55200005
0.021815849 0.082900226 0.55300003
0.022785444 0.082900226 0.55300003
0.023755036 0.082900226 0.55300003
0.024724631 0.082900226 0.55300003
0.025694223 0.082900226 0.55300003
0.026615599 0.08275032 0.55200005
0.027583439 0.08275032 0.55200005
0.028499557 0.082600407 0.551
0.02951912 0.08275032 0.55200005
0.03048696 0.08275032 0.55200005
0.031397816 0.082600407 0.551
0.032363903 0.082600407 0.551
0.03332999 0.082600407 0.551
0.034296077 0.082600407 0.551
0.03532616 0.08275032 0.55200005
0.036293998 0.08275032 0.55200005
0.037194338 0.082600407 0.551
0.038229682 0.08275032 0.55200005
0.039197519 0.08275032 0.55200005
0.040165361 0.08275032 0.55200005
0.041207716 0.082900226 0.55300003
0.04225358 0.083050139 0.55400002
0.043146905 0.082900226 0.55300003
0.044116497 0.082900226 0.55300003
0.045167621 0.083050139 0.55400002
0.046138965 0.083050139 0.55400002
0.047195349 0.083200052 0.55500001
0.048255239 0.083349958 0.55600005
0.049318638 0.083499871 0.55700004
0.050385538 0.083649777 0.55800003
0.051548 0.083949603 0.56
0.052717473 0.084249422 0.56200004
0.053893961 0.084549241 0.56400001
0.054882839 0.084549241 0.56400001
0.056267973 0.085148878 0.56800002
0.057364684 0.085298792 0.56900001
0.0584649 0.085448697 0.57000005
0.059359975 0.085298792 0.56900001
0.066616148 0.09414348 0.62800002
0.067717239 0.09414348 0.62800002
0.068818331 0.09414348 0.62800002
0.069808088 0.093993567 0.62700003
0.070907429 0.093993567 0.62700003
0.072006769 0.093993567 0.62700003
0.072989516 0.093843661 0.62600005
0.074087098 0.093843661 0.62600005
0.075184688 0.093843661 0.62600005
0.076038562 0.093543842 0.62400001
0.077132642 0.093543842 0.62400001
0.078226723 0.093543842 0.62400001
0.091015533 0.10733556 0.71600002
0.092270918 0.10733556 0.71600002
0.093265057 0.10703574 0.71400005
0.09451694 0.10703574 0.71400005
0.095768817 0.10703574 0.71400005
0.097020701 0.10703574 0.71400005
0.098272577 0.10703574 0.71400005
-0.026613846 0.10707431 0.70600003
-0.025375994 0.10707431 0.70600003
-0.02417233 0.10722598 0.70700002
-0.022900287 0.10707431 0.70600003
-0.021662433 0.10707431 0.70600003
-0.020366719 0.10677098 0.70400006
-0.019132374 0.10677098 0.70400006
-0.017948873 0.10707431 0.70600003
-0.016734689 0.10722598 0.70700002
-0.015495083 0.10722598 0.70700002
-0.0055449167 0.087206416 0.57500005
-0.0045367498 0.087206416 0.57500005
-0.0035224466 0.087054752 0.574
-0.0025072666 0.086751424 0.57200003
-0.0014991 0.086448096 0.57000005
-0.00049882336 0.086296439 0.56900001
0.00049794669 0.086144775 0.56800002
0.00148858 0.085841447 0.56600004
0.0024722 0.085538119 0.56400001
0.0034549434 0.085386455 0.56300002
0.00443418 0.085234791 0.56200004
0.0054195533 0.085234791 0.56200004
0.0064049265 0.085234791 0.56200004
0.0073902998 0.085234791 0.56200004
0.0083458666 0.084931463 0.56
0.009327733 0.084931463 0.56
0.0103096 0.084931463 0.56
0.011291467 0.084931463 0.56
0.0122295 0.084628142 0.55800003
0.01320786 0.084628142 0.55800003
0.014135373 0.084324814 0.55600005
0.01508305 0.08417315 0.55500001
0.01605615 0.08417315 0.55500001
0.01702925 0.08417315 0.55500001
0.017969914 0.084021486 0.55400002
0.018872879 0.083718158 0.55200005
0.019840719 0.083718158 0.55200005
0.020808561 0.083718158 0.55200005
0.021815849 0.083869822 0.55300003
0.022785444 0.083869822 0.55300003
0.023755036 0.083869822 0.55300003
0.024724631 0.083869822 0.55300003
0.025694223 0.083869822 0.55300003
0.026615599 0.083718158 0.55200005
0.027583439 0.083718158 0.55200005
0.028603002 0.083869822 0.55300003
0.02951912 0.083718158 0.55200005
0.03048696 0.083718158 0.55200005
0.031511784 0.083869822 0.55300003
0.032422639 0.083718158 0.55200005
0.03332999 0.083566494 0.551
0.034296077 0.083566494 0.551
0.035390157 0.083869822 0.55300003
0.03635975 0.083869822 0.55300003
0.03726184 0.083718158 0.55200005
0.038229682 0.083718158 0.55200005
0.039268531 0.083869822 0.55300003
0.040238123 0.083869822 0.55300003
0.041207716 0.083869822 0.55300003
0.042177308 0.083869822 0.55300003
0.043146905 0.083869822 0.55300003
0.044116497 0.083869822 0.55300003
0.045167621 0.084021486 0.55400002
0.046138965 0.084021486 0.55400002
0.047195349 0.08417315 0.55500001
0.04834203 0.084476478 0.55700004
0.049318638 0.084476478 0.55700004
0.050385538 0.084628142 0.55800003
0.051548 0.084931463 0.56
0.052717473 0.085234791 0.56200004
0.053798404 0.085386455 0.56300002
0.054882839 0.085538119 0.56400001
0.056267973 0.086144775 0.56800002
0.057364684 0.086296439 0.56900001
0.0584649 0.086448096 0.57000005
0.059464298 0.086448096 0.57000005
0.060357623 0.086296439 0.56900001
0.067717239 0.095244572 0.62800002
0.068818331 0.095244572 0.62800002
0.06991943 0.095244572 0.62800002
0.070907429 0.095092908 0.62700003
0.072006769 0.095092908 0.62700003
0.072989516 0.094941244 0.62600005
0.074087098 0.094941244 0.62600005
0.075184688 0.094941244 0.62600005
0.076160416 0.09478958 0.625
0.077132642 0.094637923 0.62400001
0.078101359 0.094486259 0.62300003
0.079193681 0.094486259 0.62300003
0.092270918 0.10859095 0.71600002
0.093265057 0.10828762 0.71400005
0.09411981 0.10783263 0.71100003
0.095098168 0.1075293 0.70900005
0.096341282 0.1075293 0.70900005
0.097859666 0.10783263 0.71100003
-0.026500756 0.10785192 0.70300001
-0.025268164 0.10785192 0.70300001
-0.02406976 0.10800533 0.70400006
-0.022835413 0.10800533 0.70400006
-0.021601066 0.10800533 0.70400006
-0.020366719 0.10800533 0.70400006
-0.019132374 0.10800533 0.70400006
-0.01792345 0.10815875 0.70500004
-0.01668735 0.10815875 0.70500004
-0.015473166 0.10831217 0.70600003
-0.0055545601 0.088367999 0.57600003
-0.0045367498 0.088214584 0.57500005
-0.0035285833 0.088214584 0.57500005
-0.0025072666 0.087754332 0.57200003
-0.0014991 0.087447502 0.57000005
-0.00049882336 0.087294079 0.56900001
0.00049794669 0.087140664 0.56800002
0.00149121 0.08698725 0.56700003
0.0024765832 0.08668042 0.565
0.0034549434 0.086373582 0.56300002
0.00443418 0.086220168 0.56200004
0.0054291966 0.086373582 0.56300002
0.0064163231 0.086373582 0.56300002
0.0073902998 0.086220168 0.56200004
0.0083607696 0.086066753 0.56100005
0.009327733 0.08591333 0.56
0.0103096 0.08591333 0.56
0.011291467 0.08591333 0.56
0.012273333 0.08591333 0.56
0.0132552 0.08591333 0.56
0.014135373 0.085299663 0.55600005
0.015110226 0.085299663 0.55600005
0.01605615 0.085146248 0.55500001
0.01702925 0.085146248 0.55500001
0.01800235 0.085146248 0.55500001
0.018872879 0.084685996 0.55200005
0.019876663 0.084839419 0.55300003
0.020846257 0.084839419 0.55300003
0.021815849 0.084839419 0.55300003
0.022785444 0.084839419 0.55300003
0.023797993 0.084992833 0.55400002
0.02476934 0.084992833 0.55400002
0.025740687 0.084992833 0.55400002
0.026663816 0.084839419 0.55300003
0.027583439 0.084685996 0.55200005
0.02855128 0.084685996 0.55200005
0.02951912 0.084685996 0.55200005
0.03048696 0.084685996 0.55200005
0.031454802 0.084685996 0.55200005
0.032422639 0.084685996 0.55200005
0.03332999 0.084532581 0.551
0.034296077 0.084532581 0.551
0.035390157 0.084839419 0.55300003
0.03635975 0.084839419 0.55300003
0.037329342 0.084839419 0.55300003
0.038298935 0.084839419 0.55300003
0.039268531 0.084839419 0.55300003
0.040238123 0.084839419 0.55300003
0.041282233 0.084992833 0.55400002
0.042329852 0.085146248 0.55500001
0.04330295 0.085146248 0.55500001
0.044276051 0.085146248 0.55500001
0.045167621 0.084992833 0.55400002
0.046222251 0.085146248 0.55500001
0.047280386 0.085299663 0.55600005
0.04834203 0.085453086 0.55700004
0.04940718 0.085606501 0.55800003
0.050475836 0.085759915 0.55900002
0.051640049 0.086066753 0.56100005
0.052623671 0.086066753 0.56100005
0.053798404 0.086373582 0.56300002
0.054882839 0.086526997 0.56400001
0.05616891 0.08698725 0.56700003
0.057465501 0.087447502 0.57000005
0.0584649 0.087447502 0.57000005
0.059464298 0.087447502 0.57000005
0.0604637 0.087447502 0.57000005
0.067717239 0.096345663 0.62800002
0.068818331 0.096345663 0.62800002
0.06991943 0.096345663 0.62800002
0.071020521 0.096345663 0.62800002
0.072006769 0.096192248 0.62700003
0.072989516 0.096038833 0.62600005
0.074087098 0.096038833 0.62600005
0.075064585 0.095885418 0.625
0.076038562 0.095731996 0.62400001
0.076885417 0.095425166 0.62200004
0.077725269 0.095118336 0.62
0.078812331 0.095118336 0.62
0.0798994 0.095118336 0.62
0.093003809 0.10923266 0.71200001
0.09411981 0.10907925 0.71100003
0.094293386 0.10785192 0.70300001
0.09552598 0.10785192 0.70300001
0.097033851 0.10815875 0.70500004
-0.026500756 0.10908451 0.70300001
-0.025304107 0.10923968 0.70400006
-0.024103951 0.10939485 0.70500004
-0.022835413 0.10923968 0.70400006
-0.021601066 0.10923968 0.70400006
-0.020366719 0.10923968 0.70400006
-0.019132374 0.10923968 0.70400006
-0.017898027 0.10923968 0.70400006
-0.01666368 0.10923968 0.70400006
-0.015473166 0.10955002 0.70600003
-0.00659867 0.08984343 0.57900006
-0.0055545601 0.089377917 0.57600003
-0.0045367498 0.089222752 0.57500005
-0.0035285833 0.089222752 0.57500005
-0.0025072666 0.088757239 0.57200003
-0.0014991 0.0884469 0.57000005
-0.00049882336 0.088291727 0.56900001
0.00049794669 0.088136561 0.56800002
0.00149121 0.087981388 0.56700003
0.0024809667 0.087826222 0.56600004
0.0034610799 0.087515883 0.56400001
0.0044499598 0.087515883 0.56400001
0.0054291966 0.08736071 0.56300002
0.0064163231 0.08736071 0.56300002
0.0073902998 0.087205537 0.56200004
0.0083607696 0.087050371 0.56100005
0.0093443897 0.087050371 0.56100005
0.0103096 0.086895198 0.56
0.011291467 0.086895198 0.56
0.012273333 0.086895198 0.56
0.0132552 0.086895198 0.56
0.014135373 0.08627452 0.55600005
0.01508305 0.086119346 0.55500001
0.01605615 0.086119346 0.55500001
0.016998567 0.085964181 0.55400002
0.01790504 0.085653841 0.55200005
0.018838691 0.085498668 0.551
0.019840719 0.085653841 0.55200005
0.020846257 0.085809007 0.55300003
0.021815849 0.085809007 0.55300003
0.022785444 0.085809007 0.55300003
0.023755036 0.085809007 0.55300003
0.024724631 0.085809007 0.55300003
0.025694223 0.085809007 0.55300003
0.026712034 0.085964181 0.55400002
0.027583439 0.085653841 0.55200005
0.028499557 0.085498668 0.551
0.029465644 0.085498668 0.551
0.03048696 0.085653841 0.55200005
0.031454802 0.085653841 0.55200005
0.032422639 0.085653841 0.55200005
0.033390481 0.085653841 0.55200005
0.034358319 0.085653841 0.55200005
0.035390157 0.085809007 0.55300003
0.03635975 0.085809007 0.55300003
0.037329342 0.085809007 0.55300003
0.038368192 0.085964181 0.55400002
0.039268531 0.085809007 0.55300003
0.040238123 0.085809007 0.55300003
0.04135675 0.086119346 0.55500001
0.042406119 0.08627452 0.55600005
0.043380972 0.08627452 0.55600005
0.044196274 0.085964181 0.55400002
0.045167621 0.085964181 0.55400002
0.046222251 0.086119346 0.55500001
0.047280386 0.08627452 0.55600005
0.048168451 0.086119346 0.55500001
0.049318638 0.086429693 0.55700004
0.050385538 0.086584859 0.55800003
0.051548 0.086895198 0.56
0.052529868 0.086895198 0.56
0.053607289 0.087050371 0.56100005
0.054785531 0.08736071 0.56300002
0.05616891 0.087981388 0.56700003
0.057364684 0.088291727 0.56900001
0.0584649 0.0884469 0.57000005
0.059464298 0.0884469 0.57000005
0.0604637 0.0884469 0.57000005
0.067825072 0.097601928 0.62900001
0.068927914 0.097601928 0.62900001
0.070030764 0.097601928 0.62900001
0.071020521 0.097446762 0.62800002
0.072121613 0.097446762 0.62800002
0.072989516 0.097136423 0.62600005
0.073968753 0.09698125 0.625
0.074944481 0.096826077 0.62400001
0.075794846 0.096515737 0.62200004
0.076885417 0.096515737 0.62200004
0.077725269 0.096205398 0.62
0.078812331 0.096205398 0.62
0.0798994 0.096205398 0.62
0.091436334 0.108619 0.70000005
0.092796043 0.10877417 0.70100003
0.094025128 0.10877417 0.70100003
0.095254213 0.10877417 0.70100003
0.09662094 0.10892934 0.70200002
-0.026349969 0.10968941 0.69900006
-0.025160333 0.10984633 0.70000005
-0.024035569 0.1103171 0.70300001
-0.022770539 0.11016018 0.70200002
-0.021539699 0.11016018 0.70200002
-0.02033779 0.1103171 0.70300001
-0.019105196 0.1103171 0.70300001
-0.01792345 0.11063095 0.70500004
-0.01668735 0.11063095 0.70500004
-0.015473166 0.11078788 0.70600003
-0.0066100666 0.091015533 0.58000004
-0.0055738464 0.090701684 0.57800001
-0.0045367498 0.090230919 0.57500005
-0.0035224466 0.090073995 0.574
-0.0025072666 0.089760147 0.57200003
-0.0015017299 0.089603223 0.57100004
-0.00049970002 0.089446299 0.57000005
0.00049794669 0.089132451 0.56800002
0.00149121 0.088975526 0.56700003
0.0024809667 0.08881861 0.56600004
0.0034610799 0.088504761 0.56400001
0.0044420701 0.088347837 0.56300002
0.0054291966 0.088347837 0.56300002
0.0064163231 0.088347837 0.56300002
0.0073902998 0.088190913 0.56200004
0.0083756736 0.088190913 0.56200004
0.0093443897 0.088033989 0.56100005
0.01032801 0.088033989 0.56100005
0.01131163 0.088033989 0.56100005
0.012273333 0.087877065 0.56
0.01323153 0.087720141 0.55900002
0.01418622 0.087563217 0.55800003
0.015110226 0.087249376 0.55600005
0.01605615 0.087092452 0.55500001
0.01702925 0.087092452 0.55500001
0.017937476 0.086778603 0.55300003
0.01890707 0.086778603 0.55300003
0.019876663 0.086778603 0.55300003
0.020883953 0.086935528 0.55400002
0.0218553 0.086935528 0.55400002
0.022785444 0.086778603 0.55300003
0.023755036 0.086778603 0.55300003
0.024724631 0.086778603 0.55300003
0.025694223 0.086778603 0.55300003
0.026663816 0.086778603 0.55300003
0.02763341 0.086778603 0.55300003
0.028499557 0.086464755 0.551
0.029465644 0.086464755 0.551
0.03048696 0.086621679 0.55200005
0.031397816 0.086464755 0.551
0.032422639 0.086621679 0.55200005
0.033390481 0.086621679 0.55200005
0.034358319 0.086621679 0.55200005
0.035390157 0.086778603 0.55300003
0.03635975 0.086778603 0.55300003
0.037396848 0.086935528 0.55400002
0.038368192 0.086935528 0.55400002
0.039339539 0.086935528 0.55400002
0.040310886 0.086935528 0.55400002
0.04135675 0.087092452 0.55500001
0.042406119 0.087249376 0.55600005
0.043458998 0.087406293 0.55700004
0.044276051 0.087092452 0.55500001
0.045167621 0.086935528 0.55400002
0.046305533 0.087249376 0.55600005
0.047365423 0.087406293 0.55700004
0.04834203 0.087406293 0.55700004
0.04940718 0.087563217 0.55800003
0.050475836 0.087720141 0.55900002
0.051455949 0.087720141 0.55900002
0.052623671 0.088033989 0.56100005
0.053607289 0.088033989 0.56100005
0.054785531 0.088347837 0.56300002
0.056267973 0.089132451 0.56800002
0.057364684 0.089289375 0.56900001
0.0584649 0.089446299 0.57000005
0.059464298 0.089446299 0.57000005
0.0604637 0.089446299 0.57000005
0.067825072 0.098704778 0.62900001
0.068927914 0.098704778 0.62900001
0.070030764 0.098704778 0.62900001
0.071020521 0.098547854 0.62800002
0.072121613 0.098547854 0.62800002
0.072989516 0.098234005 0.62600005
0.073968753 0.098077081 0.625
0.074944481 0.097920157 0.62400001
0.075794846 0.097606316 0.62200004
0.076885417 0.097606316 0.62200004
0.086375333 0.10812017 0.68900001
0.087583385 0.10812017 0.68900001
0.089049168 0.10843402 0.69100004
0.089868851 0.10796325 0.68800002
0.092663668 0.10984633 0.70000005
0.093891002 0.10984633 0.70000005
0.095118336 0.10984633 0.70000005
0.096208028 0.10968941 0.69900006
-0.026086094 0.10980425 0.69200003
-0.024908731 0.10996293 0.69300002
-0.02369367 0.10996293 0.69300002
-0.022446172 0.10980425 0.69200003
-0.021202182 0.10964558 0.69100004
-0.01999063 0.10964558 0.69100004
-0.018806253 0.10980425 0.69200003
-0.017618369 0.10996293 0.69300002
-0.01640331 0.10996293 0.69300002
-0.01518825 0.10996293 0.69300002
-0.013953026 0.10980425 0.69200003
-0.01273972 0.10980425 0.69200003
-0.011509757 0.10964558 0.69100004
-0.0065872734 0.091715112 0.57800001
-0.0055738464 0.091715112 0.57800001
-0.00454464 0.091397762 0.57600003
-0.0035285833 0.09123908 0.57500005
-0.0025072666 0.090763055 0.57200003
-0.0015017299 0.09060438 0.57100004
-0.00049882336 0.090287022 0.56900001
0.00049707002 0.089969672 0.56700003
0.00149121 0.089969672 0.56700003
0.0024809667 0.08981099 0.56600004
0.0034610799 0.08949364 0.56400001
0.0044499598 0.08949364 0.56400001
0.0054291966 0.089334965 0.56300002
0.0064163231 0.089334965 0.56300002
0.0074034501 0.089334965 0.56300002
0.0083756736 0.08917629 0.56200004
0.0093443897 0.089017607 0.56100005
0.01032801 0.089017607 0.56100005
0.011291467 0.088858932 0.56
0.0122295 0.088541582 0.55800003
0.01318419 0.0883829 0.55700004
0.014160797 0.0883829 0.55700004
0.015110226 0.088224225 0.55600005
0.01605615 0.08806555 0.55500001
0.01702925 0.08806555 0.55500001
0.017937476 0.0877482 0.55300003
0.01890707 0.0877482 0.55300003
0.019876663 0.0877482 0.55300003
0.020883953 0.087906875 0.55400002
0.0218553 0.087906875 0.55400002
0.022785444 0.0877482 0.55300003
0.023755036 0.0877482 0.55300003
0.024724631 0.0877482 0.55300003
0.025694223 0.0877482 0.55300003
0.026615599 0.087589517 0.55200005
0.027583439 0.087589517 0.55200005
0.028499557 0.087430842 0.551
0.029465644 0.087430842 0.551
0.030431731 0.087430842 0.551
0.031397816 0.087430842 0.551
0.032481376 0.0877482 0.55300003
0.033450969 0.0877482 0.55300003
0.034420565 0.0877482 0.55300003
0.035390157 0.0877482 0.55300003
0.036293998 0.087589517 0.55200005
0.037329342 0.0877482 0.55300003
0.038298935 0.0877482 0.55300003
0.039339539 0.087906875 0.55400002
0.040383648 0.08806555 0.55500001
0.04135675 0.08806555 0.55500001
0.042406119 0.088224225 0.55600005
0.043380972 0.088224225 0.55600005
0.044435602 0.0883829 0.55700004
0.045412209 0.0883829 0.55700004
0.046388816 0.0883829 0.55700004
0.047365423 0.0883829 0.55700004
0.04834203 0.0883829 0.55700004
0.049318638 0.0883829 0.55700004
0.050475836 0.088700257 0.55900002
0.051455949 0.088700257 0.55900002
0.052717473 0.08917629 0.56200004
0.053702846 0.08917629 0.56200004
0.054785531 0.089334965 0.56300002
0.056367036 0.090287022 0.56900001
0.057465501 0.090445697 0.57000005
0.058567468 0.09060438 0.57100004
0.059568621 0.09060438 0.57100004
0.0604637 0.090445697 0.57000005
0.06135527 0.090287022 0.56900001
0.075283751 0.10901087 0.68700004
0.076488286 0.10901087 0.68700004
0.077579737 0.10885219 0.68600005
0.078782529 0.10885219 0.68600005
0.080101907 0.10901087 0.68700004
0.081188098 0.10885219 0.68600005
0.082510993 0.10901087 0.68700004
0.083837382 0.10916954 0.68800002
0.085167289 0.10932823 0.68900001
0.086375333 0.10932823 0.68900001
0.087456264 0.10916954 0.68800002
0.088662557 0.10916954 0.68800002
0.08947698 0.10869352 0.68500006
0.090810396 0.10885219 0.68600005
0.091744922 0.10853484 0.68400002
0.093487732 0.10916954 0.68800002
0.094694026 0.10916954 0.68800002
-0.025973003 0.11053627 0.68900001
-0.0248009 0.1106967 0.69000006
-0.02355691 0.11053627 0.68900001
-0.022348864 0.11053627 0.68900001
-0.021171499 0.1106967 0.69000006
-0.01999063 0.11085713 0.69100004
-0.018779077 0.11085713 0.69100004
-0.017592946 0.11101756 0.69200003
-0.01637964 0.11101756 0.69200003
-0.015166333 0.11101756 0.69200003
-0.013953026 0.11101756 0.69200003
-0.01272131 0.11085713 0.69100004
-0.011476443 0.11053627 0.68900001
-0.0055834898 0.092888966 0.57900006
-0.00454464 0.092407681 0.57600003
-0.0035163099 0.091926388 0.57300001
-0.0025028833 0.091605529 0.57100004
-0.00150436 0.091765963 0.57200003
-0.00049970002 0.091445096 0.57000005
0.00049794669 0.091124237 0.56800002
0.00149121 0.090963811 0.56700003
0.0024765832 0.090642951 0.565
0.0034610799 0.090482518 0.56400001
0.0044499598 0.090482518 0.56400001
0.00543884 0.090482518 0.56400001
0.0064163231 0.090322092 0.56300002
0.0074034501 0.090322092 0.56300002
0.0083756736 0.090161659 0.56200004
0.0093443897 0.090001233 0.56100005
0.0103096 0.0898408 0.56
0.011271304 0.089680366 0.55900002
0.012207584 0.089359507 0.55700004
0.01318419 0.089359507 0.55700004
0.014160797 0.089359507 0.55700004
0.01508305 0.089038648 0.55500001
0.01605615 0.089038648 0.55500001
0.01702925 0.089038648 0.55500001
0.017937476 0.088717788 0.55300003
0.01890707 0.088717788 0.55300003
0.019912606 0.088878222 0.55400002
0.020883953 0.088878222 0.55400002
0.0218553 0.088878222 0.55400002
0.022867849 0.089038648 0.55500001
0.023840949 0.089038648 0.55500001
0.024724631 0.088717788 0.55300003
0.025647759 0.088557363 0.55200005
0.026663816 0.088717788 0.55300003
0.027583439 0.088557363 0.55200005
0.02855128 0.088557363 0.55200005
0.029572597 0.088717788 0.55300003
0.030542189 0.088717788 0.55300003
0.031511784 0.088717788 0.55300003
0.032481376 0.088717788 0.55300003
0.033450969 0.088717788 0.55300003
0.034482807 0.088878222 0.55400002
0.035390157 0.088717788 0.55300003
0.03635975 0.088717788 0.55300003
0.037329342 0.088717788 0.55300003
0.038368192 0.088878222 0.55400002
0.039339539 0.088878222 0.55400002
0.040383648 0.089038648 0.55500001
0.04135675 0.089038648 0.55500001
0.042406119 0.089199081 0.55600005
0.043380972 0.089199081 0.55600005
0.044515379 0.08951994 0.55800003
0.045493741 0.08951994 0.55800003
0.046472099 0.08951994 0.55800003
0.04745046 0.08951994 0.55800003
0.04834203 0.089359507 0.55700004
0.04940718 0.08951994 0.55800003
0.050475836 0.089680366 0.55900002
0.051640049 0.090001233 0.56100005
0.052717473 0.090161659 0.56200004
0.053798404 0.090322092 0.56300002
0.054882839 0.090482518 0.56400001
0.056367036 0.09128467 0.56900001
0.057465501 0.091445096 0.57000005
0.058567468 0.091605529 0.57100004
0.059464298 0.091445096 0.57000005
0.0604637 0.091445096 0.57000005
0.075283751 0.11021541 0.68700004
0.076488286 0.11021541 0.68700004
0.077692829 0.11021541 0.68700004
0.078897372 0.11021541 0.68700004
0.080101907 0.11021541 0.68700004
0.08130645 0.11021541 0.68700004
0.082510993 0.11021541 0.68700004
0.083715528 0.11021541 0.68700004
0.085167289 0.11053627 0.68900001
0.08624997 0.11037584 0.68800002
0.087329149 0.11021541 0.68700004
0.088662557 0.11037584 0.68800002
0.089607604 0.11005498 0.68600005
0.090810396 0.11005498 0.68600005
0.091744922 0.10973412 0.68400002
0.092808314 0.10957369 0.68300003
0.093868203 0.10941326 0.68200004
-0.025935307 0.11158213 0.68800002
-0.024729013 0.11158213 0.68800002
-0.02355691 0.11174431 0.68900001
-0.022348864 0.11174431 0.68900001
-0.021079449 0.11141995 0.68700004
-0.01990384 0.11158213 0.68800002
-0.018697547 0.11158213 0.68800002
-0.017567523 0.11206868 0.69100004
-0.01637964 0.11223087 0.69200003
-0.015166333 0.11223087 0.69200003
-0.013932863 0.11206868 0.69100004
-0.0127029 0.1119065 0.69000006
-0.0114931 0.1119065 0.69000006
-0.0066328598 0.094390698 0.58200002
-0.0055738464 0.093741968 0.57800001
-0.0045525301 0.093579784 0.57700002
-0.00353472 0.0934176 0.57600003
-0.0025204166 0.093255416 0.57500005
-0.00151225 0.093255416 0.57500005
-0.00049882336 0.092282318 0.56900001
0.00049794669 0.092120133 0.56800002
0.00149384 0.092120133 0.56800002
0.0024809667 0.091795765 0.56600004
0.0034794901 0.091957949 0.56700003
0.00445785 0.091633581 0.565
0.00543884 0.091471396 0.56400001
0.0064163231 0.09130922 0.56300002
0.0074034501 0.09130922 0.56300002
0.0083905766 0.09130922 0.56300002
0.0093610464 0.091147035 0.56200004
0.0103096 0.090822667 0.56
0.01125114 0.090498298 0.55800003
0.0122295 0.090498298 0.55800003
0.01318419 0.090336114 0.55700004
0.014135373 0.09017393 0.55600005
0.015110226 0.09017393 0.55600005
0.01605615 0.090011753 0.55500001
0.01702925 0.090011753 0.55500001
0.017969914 0.089849569 0.55400002
0.01890707 0.089687385 0.55300003
0.019876663 0.089687385 0.55300003
0.020883953 0.089849569 0.55400002
0.021894749 0.090011753 0.55500001
0.022909053 0.09017393 0.55600005
0.023840949 0.090011753 0.55500001
0.02476934 0.089849569 0.55400002
0.025740687 0.089849569 0.55400002
0.026663816 0.089687385 0.55300003
0.02763341 0.089687385 0.55300003
0.028603002 0.089687385 0.55300003
0.029572597 0.089687385 0.55300003
0.030542189 0.089687385 0.55300003
0.031511784 0.089687385 0.55300003
0.032481376 0.089687385 0.55300003
0.03351146 0.089849569 0.55400002
0.034482807 0.089849569 0.55400002
0.035390157 0.089687385 0.55300003
0.03635975 0.089687385 0.55300003
0.037396848 0.089849569 0.55400002
0.038368192 0.089849569 0.55400002
0.039339539 0.089849569 0.55400002
0.040310886 0.089849569 0.55400002
0.04135675 0.090011753 0.55500001
0.042482391 0.090336114 0.55700004
0.043458998 0.090336114 0.55700004
0.044515379 0.090498298 0.55800003
0.045493741 0.090498298 0.55800003
0.046388816 0.090336114 0.55700004
0.04745046 0.090498298 0.55800003
0.048428819 0.090498298 0.55800003
0.049495723 0.090660483 0.55900002
0.050475836 0.090660483 0.55900002
0.051824149 0.09130922 0.56300002
0.052905079 0.091471396 0.56400001
0.053893961 0.091471396 0.56400001
0.054980151 0.091633581 0.565
0.056565162 0.092606686 0.57100004
0.057667132 0.092768863 0.57200003
0.058772609 0.092931047 0.57300001
0.059672948 0.092768863 0.57200003
0.061418388 0.093904153 0.57900006
0.062325738 0.093741968 0.57800001
0.075064585 0.11109558 0.68500006
0.076265618 0.11109558 0.68500006
0.077353559 0.1109334 0.68400002
0.078782529 0.11125777 0.68600005
0.079635523 0.11077122 0.68300003
0.080714703 0.11060903 0.68200004
0.082270786 0.11109558 0.68500006
0.08347182 0.11109558 0.68500006
0.084549241 0.1109334 0.68400002
0.085623153 0.11077122 0.68300003
0.086947799 0.1109334 0.68400002
0.088404819 0.11125777 0.68600005
0.089607604 0.11125777 0.68600005
0.090810396 0.11125777 0.68600005
0.091744922 0.1109334 0.68400002
0.09267243 0.11060903 0.68200004
0.093868203 0.11060903 0.68200004
-0.025822217 0.11229662 0.68500006
-0.024657127 0.11246055 0.68600005
-0.02345434 0.11246055 0.68600005
-0.022251554 0.11246055 0.68600005
-0.021079449 0.11262449 0.68700004
-0.01987491 0.11262449 0.68700004
-0.018670371 0.11262449 0.68700004
-0.01746583 0.11262449 0.68700004
-0.01630863 0.11295236 0.68900001
-0.015144416 0.11328024 0.69100004
-0.013932863 0.11328024 0.69100004
-0.0127029 0.1131163 0.69000006
-0.0066442564 0.095575079 0.583
-0.0055931332 0.095083266 0.58000004
-0.0045525301 0.094591454 0.57700002
-0.00353472 0.094427519 0.57600003
-0.0025247999 0.094427519 0.57600003
-0.00151225 0.094263583 0.57500005
-0.00049970002 0.0934439 0.57000005
0.00049882336 0.093279965 0.56900001
0.00149647 0.093279965 0.56900001
0.0024897333 0.093116023 0.56800002
0.0034794901 0.092952088 0.56700003
0.00445785 0.092624217 0.565
0.00543884 0.092460282 0.56400001
0.0064277202 0.092460282 0.56400001
0.0073902998 0.092132404 0.56200004
0.0083607696 0.091968469 0.56100005
0.0093610464 0.092132404 0.56200004
0.0103096 0.091804534 0.56
0.01125114 0.091476656 0.55800003
0.0122295 0.091476656 0.55800003
0.01320786 0.091476656 0.55800003
0.014160797 0.091312721 0.55700004
0.015110226 0.091148786 0.55600005
0.016085081 0.091148786 0.55600005
0.017059933 0.091148786 0.55600005
0.01800235 0.090984851 0.55500001
0.01890707 0.090656973 0.55300003
0.019912606 0.090820916 0.55400002
0.020883953 0.090820916 0.55400002
0.021894749 0.090984851 0.55500001
0.022826647 0.090820916 0.55400002
0.023797993 0.090820916 0.55400002
0.02476934 0.090820916 0.55400002
0.025694223 0.090656973 0.55300003
0.026663816 0.090656973 0.55300003
0.02763341 0.090656973 0.55300003
0.028603002 0.090656973 0.55300003
0.029572597 0.090656973 0.55300003
0.030542189 0.090656973 0.55300003
0.031568766 0.090820916 0.55400002
0.032598849 0.090984851 0.55500001
0.033571951 0.090984851 0.55500001
0.034482807 0.090820916 0.55400002
0.035390157 0.090656973 0.55300003
0.036425501 0.090820916 0.55400002
0.037396848 0.090820916 0.55400002
0.038368192 0.090820916 0.55400002
0.039339539 0.090820916 0.55400002
0.040310886 0.090820916 0.55400002
0.041431267 0.091148786 0.55600005
0.042482391 0.091312721 0.55700004
0.043458998 0.091312721 0.55700004
0.044515379 0.091476656 0.55800003
0.045412209 0.091312721 0.55700004
0.046388816 0.091312721 0.55700004
0.047365423 0.091312721 0.55700004
0.048428819 0.091476656 0.55800003
0.049584266 0.091804534 0.56
0.05065643 0.091968469 0.56100005
0.051824149 0.09229634 0.56300002
0.052905079 0.092460282 0.56400001
0.053893961 0.092460282 0.56400001
0.054980151 0.092624217 0.565
0.056466099 0.0934439 0.57000005
0.057667132 0.093771771 0.57200003
0.058772609 0.093935706 0.57300001
0.059777271 0.093935706 0.57300001
0.061418388 0.094919331 0.57900006
0.062325738 0.094755396 0.57800001
0.063339166 0.094755396 0.57800001
0.064352594 0.094755396 0.57800001
0.077353559 0.11213268 0.68400002
0.078782529 0.11246055 0.68600005
0.079635523 0.11196874 0.68300003
0.08059635 0.11164087 0.68100005
0.082030579 0.11196874 0.68300003
0.083228104 0.11196874 0.68300003
0.08417841 0.11164087 0.68100005
0.08524707 0.11147694 0.68000001
0.086693563 0.11180481 0.68200004
0.087889336 0.11180481 0.68200004
0.089607604 0.11246055 0.68600005
0.090413265 0.11196874 0.68300003
0.091342531 0.11164087 0.68100005
0.092400663 0.11147694 0.68000001
0.093592934 0.11147694 0.68000001
-0.025859913 0.11366334 0.68600005
-0.024621183 0.11349765 0.68500006
-0.023420149 0.11349765 0.68500006
-0.022251554 0.11366334 0.68600005
-0.021048766 0.11366334 0.68600005
-0.019845979 0.11366334 0.68600005
-0.018643193 0.11366334 0.68600005
-0.017440407 0.11366334 0.68600005
