# .PCD v0.7 - Point Cloud Data file format
VERSION 0.7
FIELDS x y z
SIZE 4 4 4
TYPE F F F
COUNT 1 1 1
WIDTH 1452
HEIGHT 1
VIEWPOINT 0 0 0 1 0 0 0
POINTS 1452
DATA ascii
0.12010158 0.18117018 0.77400005
0.12145866 0.18117018 0.77400005
0.12281574 0.18117018 0.77400005
0.12417282 0.18117018 0.77400005
0.12569208 0.18140425 0.77500004
0.12705092 0.18140425 0.77500004
0.12791269 0.18070205 0.77200001
0.12943369 0.18093611 0.77300006
0.13061982 0.18070205 0.77200001
0.1319734 0.18070205 0.77200001
0.13315427 0.18046796 0.77100003
0.13502946 0.18117018 0.77400005
0.13656275 0.18140425 0.77500004
0.13792159 0.18140425 0.77500004
0.13928041 0.18140425 0.77500004
0.14063925 0.18140425 0.77500004
0.14199808 0.18140425 0.77500004
0.14317194 0.18117018 0.77400005
0.14434229 0.18093611 0.77300006
0.14550914 0.18070205 0.77200001
0.1468627 0.18070205 0.77200001
0.14840826 0.18093611 0.77300006
0.14937611 0.18046796 0.77100003
0.15072793 0.18046796 0.77100003
0.15286875 0.18140425 0.77500004
0.15422758 0.18140425 0.77500004
0.15558642 0.18140425 0.77500004
0.15694524 0.18140425 0.77500004
0.15850835 0.18163832 0.77600002
0.16007495 0.18187238 0.77700001
0.16143729 0.18187238 0.77700001
0.16279963 0.18187238 0.77700001
0.16416197 0.18187238 0.77700001
0.1655243 0.18187238 0.77700001
0.16710143 0.18210647 0.77800006
0.16846552 0.18210647 0.77800006
0.16982962 0.18210647 0.77800006
0.17075363 0.18163832 0.77600002
0.17211421 0.18163832 0.77600002
0.1734748 0.18163832 0.77600002
0.17461008 0.18140425 0.77500004
0.17642303 0.18187238 0.77700001
0.17778537 0.18187238 0.77700001
0.17914771 0.18187238 0.77700001
0.18051004 0.18187238 0.77700001
0.18210647 0.18210647 0.77800006
0.085283883 0.18064067 0.76600003
0.086174577 0.17969738 0.76200002
0.087625466 0.17993321 0.76300001
0.089196451 0.18040484 0.76500005
0.090419397 0.18016903 0.76400006
0.091999151 0.18064067 0.76600003
0.093464062 0.18087649 0.76700002
0.094808869 0.18087649 0.76700002
0.096153677 0.18087649 0.76700002
0.097498484 0.18087649 0.76700002
0.098843291 0.18087649 0.76700002
0.1001881 0.18087649 0.76700002
0.10140052 0.18064067 0.76600003
0.10287771 0.18087649 0.76700002
0.1043584 0.18111232 0.76800001
0.10570496 0.18111232 0.76800001
0.10705152 0.18111232 0.76800001
0.10811579 0.18064067 0.76600003
0.10960174 0.18087649 0.76700002
0.11123585 0.18134815 0.76900005
0.11214495 0.18064067 0.76600003
0.11363617 0.18087649 0.76700002
0.11528079 0.18134815 0.76900005
0.1166291 0.18134815 0.76900005
0.11813083 0.18158397 0.77000004
0.11994641 0.18229143 0.77300006
0.12130173 0.18229143 0.77300006
0.12265706 0.18229143 0.77300006
0.12401239 0.18229143 0.77300006
0.1255299 0.18252726 0.77400005
0.12688698 0.18252726 0.77400005
0.12791269 0.18205561 0.77200001
0.1290988 0.18181978 0.77100003
0.13028143 0.18158397 0.77000004
0.13146055 0.18134815 0.76900005
0.13280886 0.18134815 0.76900005
0.13468054 0.18205561 0.77200001
0.13621032 0.18229143 0.77300006
0.13792159 0.18276308 0.77500004
0.13946013 0.18299891 0.77600002
0.14082071 0.18299891 0.77600002
0.14181486 0.18252726 0.77400005
0.14317194 0.18252726 0.77400005
0.14434229 0.18229143 0.77300006
0.14550914 0.18205561 0.77200001
0.1468627 0.18205561 0.77200001
0.14821628 0.18205561 0.77200001
0.14937611 0.18181978 0.77100003
0.15092343 0.18205561 0.77200001
0.15227699 0.18205561 0.77200001
0.15363057 0.18205561 0.77200001
0.15538566 0.18252726 0.77400005
0.15674274 0.18252726 0.77400005
0.15809982 0.18252726 0.77400005
0.15966292 0.18276308 0.77500004
0.16102175 0.18276308 0.77500004
0.16238058 0.18276308 0.77500004
0.16373941 0.18276308 0.77500004
0.16509825 0.18276308 0.77500004
0.16667187 0.18299891 0.77600002
0.16803245 0.18299891 0.77600002
0.16961133 0.18323472 0.77700001
0.17031354 0.18252726 0.77400005
0.17144883 0.18229143 0.77300006
0.17302769 0.18252726 0.77400005
0.17438477 0.18252726 0.77400005
0.17596892 0.18276308 0.77500004
0.17732775 0.18276308 0.77500004
0.17868659 0.18276308 0.77500004
0.18004541 0.18276308 0.77500004
0.18140425 0.18276308 0.77500004
0.083721668 0.18150857 0.76400006
0.085061215 0.18150857 0.76400006
0.0859484 0.18055826 0.76000005
0.08739578 0.18079585 0.76100004
0.088846661 0.18103342 0.76200002
0.090064347 0.18079585 0.76100004
0.091398634 0.18079585 0.76100004
0.092976637 0.181271 0.76300001
0.094561651 0.18174616 0.76500005
0.09590295 0.18174616 0.76500005
0.097244248 0.18174616 0.76500005
0.098843291 0.18222131 0.76700002
0.1001881 0.18222131 0.76700002
0.10153291 0.18222131 0.76700002
0.10301184 0.18245888 0.76800001
0.1043584 0.18245888 0.76800001
0.10529205 0.18174616 0.76500005
0.10649396 0.18150857 0.76400006
0.10811579 0.18198372 0.76600003
0.10945885 0.18198372 0.76600003
0.1108019 0.18198372 0.76600003
0.11229136 0.18222131 0.76700002
0.113488 0.18198372 0.76600003
0.11483106 0.18198372 0.76600003
0.11617411 0.18198372 0.76600003
0.11767058 0.18222131 0.76700002
0.1194809 0.18293403 0.77000004
0.12083097 0.18293403 0.77000004
0.12218104 0.18293403 0.77000004
0.12369153 0.18317162 0.77100003
0.12504335 0.18317162 0.77100003
0.12623124 0.18293403 0.77000004
0.1275813 0.18293403 0.77000004
0.12859648 0.18245888 0.76800001
0.12977384 0.18222131 0.76700002
0.13094769 0.18198372 0.76600003
0.13263616 0.18245888 0.76800001
0.13433163 0.18293403 0.77000004
0.13603412 0.18340918 0.77200001
0.13792159 0.18412192 0.77500004
0.13928041 0.18412192 0.77500004
0.14063925 0.18412192 0.77500004
0.14181486 0.18388434 0.77400005
0.14298697 0.18364677 0.77300006
0.14434229 0.18364677 0.77300006
0.14550914 0.18340918 0.77200001
0.14648223 0.18293403 0.77000004
0.1478323 0.18293403 0.77000004
0.14898862 0.18269646 0.76900005
0.15053244 0.18293403 0.77000004
0.15227699 0.18340918 0.77200001
0.15363057 0.18340918 0.77200001
0.15498415 0.18340918 0.77200001
0.15613522 0.18317162 0.77100003
0.15769129 0.18340918 0.77200001
0.15945689 0.18388434 0.77400005
0.16081397 0.18388434 0.77400005
0.16217107 0.18388434 0.77400005
0.16373941 0.18412192 0.77500004
0.16509825 0.18412192 0.77500004
0.1662423 0.18388434 0.77400005
0.16759938 0.18388434 0.77400005
0.16895646 0.18388434 0.77400005
0.16987345 0.18340918 0.77200001
0.17100523 0.18317162 0.77100003
0.1725806 0.18340918 0.77200001
0.17393418 0.18340918 0.77200001
0.17528774 0.18340918 0.77200001
0.17664132 0.18340918 0.77200001
0.17845602 0.18388434 0.77400005
0.18004541 0.18412192 0.77500004
0.18140425 0.18412192 0.77500004
0.083721668 0.18284813 0.76400006
0.085061215 0.18284813 0.76400006
0.0859484 0.1818908 0.76000005
0.087280929 0.1818908 0.76000005
0.088613465 0.1818908 0.76000005
0.089827649 0.18165147 0.75900006
0.091158427 0.18165147 0.75900006
0.092611067 0.1818908 0.76000005
0.093943596 0.1818908 0.76000005
0.095401496 0.18213013 0.76100004
0.097117133 0.18284813 0.76400006
0.098714419 0.18332678 0.76600003
0.10005748 0.18332678 0.76600003
0.10140052 0.18332678 0.76600003
0.10287771 0.18356611 0.76700002
0.10422251 0.18356611 0.76700002
0.10556732 0.18356611 0.76700002
0.10663335 0.18308745 0.76500005
0.10797465 0.18308745 0.76500005
0.10945885 0.18332678 0.76600003
0.1108019 0.18332678 0.76600003
0.11214495 0.18332678 0.76600003
0.11333985 0.18308745 0.76500005
0.11483106 0.18332678 0.76600003
0.11617411 0.18332678 0.76600003
0.11767058 0.18356611 0.76700002
0.11917056 0.18380544 0.76800001
0.12051712 0.18380544 0.76800001
0.12186368 0.18380544 0.76800001
0.12337067 0.18404476 0.76900005
0.1245568 0.18380544 0.76800001
0.12590335 0.18380544 0.76800001
0.12724993 0.18380544 0.76800001
0.12842904 0.18356611 0.76700002
0.12977384 0.18356611 0.76700002
0.13094769 0.18332678 0.76600003
0.13229075 0.18332678 0.76600003
0.13363381 0.18332678 0.76600003
0.13532928 0.18380544 0.76800001
0.13720973 0.18452343 0.77100003
0.13874127 0.18476276 0.77200001
0.14009485 0.18476276 0.77200001
0.14126518 0.18452343 0.77100003
0.14243203 0.18428411 0.77000004
0.14396884 0.18452343 0.77100003
0.14532065 0.18452343 0.77100003
0.14648223 0.18428411 0.77000004
0.14744832 0.18380544 0.76800001
0.14860113 0.18356611 0.76700002
0.15014143 0.18380544 0.76800001
0.1518825 0.18428411 0.77000004
0.15382957 0.18500209 0.77300006
0.15498415 0.18476276 0.77200001
0.15613522 0.18452343 0.77100003
0.15748703 0.18452343 0.77100003
0.15904486 0.18476276 0.77200001
0.16081397 0.18524142 0.77400005
0.16217107 0.18524142 0.77400005
0.16352814 0.18524142 0.77400005
0.16488522 0.18524142 0.77400005
0.16602752 0.18500209 0.77300006
0.16759938 0.18524142 0.77400005
0.16895646 0.18524142 0.77400005
0.16987345 0.18476276 0.77200001
0.17100523 0.18452343 0.77100003
0.17235705 0.18452343 0.77100003
0.17348357 0.18428411 0.77000004
0.17483363 0.18428411 0.77000004
0.1761837 0.18428411 0.77000004
0.17753376 0.18428411 0.77000004
0.17888384 0.18428411 0.77000004
0.18070205 0.18476276 0.77200001
0.083392918 0.18346442 0.76100004
0.084727205 0.18346442 0.76100004
0.0859484 0.18322334 0.76000005
0.087280929 0.18322334 0.76000005
0.088496871 0.18298225 0.75900006
0.089709297 0.18274117 0.75800002
0.091038324 0.18274117 0.75800002
0.092367351 0.18274117 0.75800002
0.093696378 0.18274117 0.75800002
0.095150769 0.18298225 0.75900006
0.096608669 0.18322334 0.76000005
0.09807007 0.18346442 0.76100004
0.099796228 0.18418767 0.76400006
0.10113578 0.18418767 0.76400006
0.10287771 0.18491091 0.76700002
0.1043584 0.18515199 0.76800001
0.10556732 0.18491091 0.76700002
0.10663335 0.18442875 0.76500005
0.10797465 0.18442875 0.76500005
0.10960174 0.18491091 0.76700002
0.1108019 0.18466984 0.76600003
0.11214495 0.18466984 0.76600003
0.11333985 0.18442875 0.76500005
0.11468115 0.18442875 0.76500005
0.11617411 0.18466984 0.76600003
0.11767058 0.18491091 0.76700002
0.11917056 0.18515199 0.76800001
0.12051712 0.18515199 0.76800001
0.12186368 0.18515199 0.76800001
0.12321024 0.18515199 0.76800001
0.1245568 0.18515199 0.76800001
0.12590335 0.18515199 0.76800001
0.12724993 0.18515199 0.76800001
0.12842904 0.18491091 0.76700002
0.12977384 0.18491091 0.76700002
0.13077675 0.18442875 0.76500005
0.13229075 0.18466984 0.76600003
0.13363381 0.18466984 0.76600003
0.13497686 0.18466984 0.76600003
0.1368538 0.18539308 0.76900005
0.13856155 0.18587525 0.77100003
0.1397319 0.18563417 0.77000004
0.14108196 0.18563417 0.77000004
0.14243203 0.18563417 0.77000004
0.14396884 0.18587525 0.77100003
0.14532065 0.18587525 0.77100003
0.14648223 0.18563417 0.77000004
0.1478323 0.18563417 0.77000004
0.14879487 0.18515199 0.76800001
0.15014143 0.18515199 0.76800001
0.15148801 0.18515199 0.76800001
0.15323256 0.18563417 0.77000004
0.15458263 0.18563417 0.77000004
0.15552768 0.18515199 0.76800001
0.15687424 0.18515199 0.76800001
0.15863283 0.18563417 0.77000004
0.16039844 0.18611634 0.77200001
0.16175202 0.18611634 0.77200001
0.16331686 0.18635741 0.77300006
0.1646722 0.18635741 0.77300006
0.16559795 0.18587525 0.77100003
0.16694976 0.18587525 0.77100003
0.16830158 0.18587525 0.77100003
0.16921332 0.18539308 0.76900005
0.17056164 0.18539308 0.76900005
0.17213351 0.18563417 0.77000004
0.17325826 0.18539308 0.76900005
0.17506069 0.18587525 0.77100003
0.17641251 0.18587525 0.77100003
0.17753376 0.18563417 0.77000004
0.17888384 0.18563417 0.77000004
0.17999983 0.18539308 0.76900005
0.083283335 0.18455586 0.76000005
0.08450453 0.18431303 0.75900006
0.085722223 0.18407018 0.75800002
0.087051243 0.18407018 0.75800002
0.08838027 0.18407018 0.75800002
0.089590952 0.18382736 0.75700003
0.090918221 0.18382736 0.75700003
0.092367351 0.18407018 0.75800002
0.093696378 0.18407018 0.75800002
0.095025405 0.18407018 0.75800002
0.096354432 0.18407018 0.75800002
0.097941197 0.18455586 0.76000005
0.099534981 0.18504153 0.76200002
0.10087102 0.18504153 0.76200002
0.10220706 0.18504153 0.76200002
0.10381486 0.18552721 0.76400006
0.10570496 0.18649855 0.76800001
0.10663335 0.18577005 0.76500005
0.10797465 0.18577005 0.76500005
0.10960174 0.18625572 0.76700002
0.1108019 0.18601288 0.76600003
0.11229136 0.18625572 0.76700002
0.11333985 0.18577005 0.76500005
0.11468115 0.18577005 0.76500005
0.11602245 0.18577005 0.76500005
0.11736375 0.18577005 0.76500005
0.11886022 0.18601288 0.76600003
0.1203602 0.18625572 0.76700002
0.121705 0.18625572 0.76700002
0.12321024 0.18649855 0.76800001
0.12439462 0.18625572 0.76700002
0.12573943 0.18625572 0.76700002
0.12691854 0.18601288 0.76600003
0.12809415 0.18577005 0.76500005
0.12943545 0.18577005 0.76500005
0.13077675 0.18577005 0.76500005
0.13229075 0.18601288 0.76600003
0.13363381 0.18601288 0.76600003
0.13497686 0.18601288 0.76600003
0.13631991 0.18601288 0.76600003
0.13802239 0.18649855 0.76800001
0.1397319 0.18698423 0.77000004
0.14089875 0.1867414 0.76900005
0.14243203 0.18698423 0.77000004
0.14378209 0.18698423 0.77000004
0.14513217 0.18698423 0.77000004
0.14648223 0.18698423 0.77000004
0.1476403 0.1867414 0.76900005
0.14860113 0.18625572 0.76700002
0.14955495 0.18577005 0.76500005
0.1510935 0.18601288 0.76600003
0.15283456 0.18649855 0.76800001
0.15418112 0.18649855 0.76800001
0.15532517 0.18625572 0.76700002
0.15666997 0.18625572 0.76700002
0.15842682 0.1867414 0.76900005
0.16019067 0.18722707 0.77100003
0.16154249 0.18722707 0.77100003
0.16268303 0.18698423 0.77000004
0.1640331 0.18698423 0.77000004
0.16516839 0.1867414 0.76900005
0.16673324 0.18698423 0.77000004
0.1680833 0.18698423 0.77000004
0.16921332 0.1867414 0.76900005
0.17056164 0.1867414 0.76900005
0.17190994 0.1867414 0.76900005
0.17325826 0.1867414 0.76900005
0.17437951 0.18649855 0.76800001
0.17572609 0.18649855 0.76800001
0.17707264 0.18649855 0.76800001
0.1784192 0.18649855 0.76800001
0.17999983 0.1867414 0.76900005
0.082954586 0.18515463 0.75700003
0.08417052 0.18491004 0.75600004
0.085609131 0.18515463 0.75700003
0.086936399 0.18515463 0.75700003
0.088263676 0.18515463 0.75700003
0.089590952 0.18515463 0.75700003
0.090918221 0.18515463 0.75700003
0.092245497 0.18515463 0.75700003
0.093696378 0.18539922 0.75800002
0.095150769 0.18564381 0.75900006
0.096481547 0.18564381 0.75900006
0.097941197 0.18588839 0.76000005
0.099273734 0.18588839 0.76000005
0.10060626 0.18588839 0.76000005
0.1019388 0.18588839 0.76000005
0.1035431 0.18637758 0.76200002
0.10556732 0.18760052 0.76700002
0.10663335 0.18711135 0.76500005
0.10797465 0.18711135 0.76500005
0.10931595 0.18711135 0.76500005
0.1105126 0.18686676 0.76400006
0.11199855 0.18711135 0.76500005
0.11304354 0.18662217 0.76300001
0.11438133 0.18662217 0.76300001
0.11602245 0.18711135 0.76500005
0.11736375 0.18711135 0.76500005
0.11886022 0.18735594 0.76600003
0.12004635 0.18711135 0.76500005
0.12138765 0.18711135 0.76500005
0.12272895 0.18711135 0.76500005
0.12423243 0.18735594 0.76600003
0.12557548 0.18735594 0.76600003
0.12691854 0.18735594 0.76600003
0.12809415 0.18711135 0.76500005
0.12943545 0.18711135 0.76500005
0.13077675 0.18711135 0.76500005
0.13211805 0.18711135 0.76500005
0.1332849 0.18686676 0.76400006
0.13462444 0.18686676 0.76400006
0.13578603 0.18662217 0.76300001
0.13748325 0.18711135 0.76500005
0.13936897 0.18784513 0.76800001
0.1405323 0.18760052 0.76700002
0.1418771 0.18760052 0.76700002
0.14322191 0.18760052 0.76700002
0.14456671 0.18760052 0.76700002
0.14610176 0.18784513 0.76800001
0.14725633 0.18760052 0.76700002
0.14763242 0.18637758 0.76200002
0.14916396 0.18662217 0.76300001
0.150699 0.18686676 0.76400006
0.15243655 0.18735594 0.76600003
0.15357885 0.18711135 0.76500005
0.15471764 0.18686676 0.76400006
0.15646571 0.18735594 0.76600003
0.15801479 0.18760052 0.76700002
0.1599829 0.1883343 0.77000004
0.16133296 0.1883343 0.77000004
0.16268303 0.1883343 0.77000004
0.1640331 0.1883343 0.77000004
0.16516839 0.18808971 0.76900005
0.16651669 0.18808971 0.76900005
0.16764672 0.18784513 0.76800001
0.16899328 0.18784513 0.76800001
0.17033984 0.18784513 0.76800001
0.17146285 0.18760052 0.76700002
0.17280765 0.18760052 0.76700002
0.17415246 0.18760052 0.76700002
0.17549726 0.18760052 0.76700002
0.17591982 0.18662217 0.76300001
0.17725761 0.18662217 0.76300001
0.17859541 0.18662217 0.76300001
0.082954586 0.18648191 0.75700003
0.08417052 0.18623556 0.75600004
0.085609131 0.18648191 0.75700003
0.086936399 0.18648191 0.75700003
0.088263676 0.18648191 0.75700003
0.089590952 0.18648191 0.75700003
0.090918221 0.18648191 0.75700003
0.092245497 0.18648191 0.75700003
0.093572773 0.18648191 0.75700003
0.095025405 0.18672824 0.75800002
0.096481547 0.18697459 0.75900006
0.097812332 0.18697459 0.75900006
0.09914311 0.18697459 0.75900006
0.10060626 0.18722093 0.76000005
0.1019388 0.18722093 0.76000005
0.1035431 0.18771362 0.76200002
0.10501678 0.18795997 0.76300001
0.10635457 0.18795997 0.76300001
0.10755122 0.18771362 0.76200002
0.10903016 0.18795997 0.76300001
0.11036795 0.18795997 0.76300001
0.11170574 0.18795997 0.76300001
0.11289538 0.18771362 0.76200002
0.11468115 0.18845265 0.76500005
0.11587079 0.1882063 0.76400006
0.11721034 0.1882063 0.76400006
0.11870505 0.18845265 0.76500005
0.1197325 0.18795997 0.76300001
0.12122897 0.1882063 0.76400006
0.12256852 0.1882063 0.76400006
0.12390807 0.1882063 0.76400006
0.12508367 0.18795997 0.76300001
0.12642147 0.18795997 0.76300001
0.12775926 0.18795997 0.76300001
0.12909706 0.18795997 0.76300001
0.13043486 0.18795997 0.76300001
0.13211805 0.18845265 0.76500005
0.1332849 0.1882063 0.76400006
0.13462444 0.1882063 0.76400006
0.13578603 0.18795997 0.76300001
0.13730353 0.1882063 0.76400006
0.13864309 0.1882063 0.76400006
0.13998263 0.1882063 0.76400006
0.1411372 0.18795997 0.76300001
0.14247499 0.18795997 0.76300001
0.14400126 0.1882063 0.76400006
0.14534082 0.1882063 0.76400006
0.14648837 0.18795997 0.76300001
0.14782616 0.18795997 0.76300001
0.14916396 0.18795997 0.76300001
0.15089625 0.18845265 0.76500005
0.15243655 0.18869899 0.76600003
0.1533781 0.1882063 0.76400006
0.15451513 0.18795997 0.76300001
0.15585293 0.18795997 0.76300001
0.15719071 0.18795997 0.76300001
0.15935959 0.18894534 0.76700002
0.16091391 0.18919168 0.76800001
0.16226047 0.18919168 0.76800001
0.16360705 0.18919168 0.76800001
0.16516839 0.18943802 0.76900005
0.16630016 0.18919168 0.76800001
0.16764672 0.18919168 0.76800001
0.16899328 0.18919168 0.76800001
0.16989625 0.18869899 0.76600003
0.17101575 0.18845265 0.76500005
0.17235705 0.18845265 0.76500005
0.17369835 0.18845265 0.76500005
0.17503965 0.18845265 0.76500005
0.17591982 0.18795997 0.76300001
0.17725761 0.18795997 0.76300001
0.17812727 0.18746728 0.76100004
0.081411652 0.18731298 0.75500005
0.082625836 0.18706489 0.75400001
0.083836511 0.18681678 0.75300002
0.085382946 0.18731298 0.75500005
0.086706713 0.18731298 0.75500005
0.087797292 0.18681678 0.75300002
0.089117549 0.18681678 0.75300002
0.090437807 0.18681678 0.75300002
0.092001781 0.18731298 0.75500005
0.093572773 0.18780917 0.75700003
0.095025405 0.18805727 0.75800002
0.096354432 0.18805727 0.75800002
0.097812332 0.18830536 0.75900006
0.09914311 0.18830536 0.75900006
0.10047389 0.18830536 0.75900006
0.10180467 0.18830536 0.75900006
0.10327134 0.18855347 0.76000005
0.10474151 0.18880156 0.76100004
0.10621518 0.18904966 0.76200002
0.10755122 0.18904966 0.76200002
0.10874436 0.18880156 0.76100004
0.11007865 0.18880156 0.76100004
0.11126653 0.18855347 0.76000005
0.11289538 0.18904966 0.76200002
0.11423142 0.18904966 0.76200002
0.11556746 0.18904966 0.76200002
0.1169035 0.18904966 0.76200002
0.11839471 0.18929775 0.76300001
0.11926173 0.18855347 0.76000005
0.12091162 0.18904966 0.76200002
0.12240809 0.18929775 0.76300001
0.12390807 0.18954585 0.76400006
0.1247558 0.18880156 0.76100004
0.12609009 0.18880156 0.76100004
0.12775926 0.18929775 0.76300001
0.12909706 0.18929775 0.76300001
0.13043486 0.18929775 0.76300001
0.13177264 0.18929775 0.76300001
0.13293599 0.18904966 0.76200002
0.13427202 0.18904966 0.76200002
0.13507417 0.18830536 0.75900006
0.13640495 0.18830536 0.75900006
0.13828014 0.18904966 0.76200002
0.13924973 0.18855347 0.76000005
0.14058226 0.18855347 0.76000005
0.1419148 0.18855347 0.76000005
0.14324734 0.18855347 0.76000005
0.1447701 0.18880156 0.76100004
0.1461044 0.18880156 0.76100004
0.14743868 0.18880156 0.76100004
0.14896846 0.18904966 0.76200002
0.15050174 0.18929775 0.76300001
0.15203854 0.18954585 0.76400006
0.1533781 0.18954585 0.76400006
0.15451513 0.18929775 0.76300001
0.15585293 0.18929775 0.76300001
0.15719071 0.18929775 0.76300001
0.15894406 0.18979394 0.76500005
0.16091391 0.19053824 0.76800001
0.16226047 0.19053824 0.76800001
0.16360705 0.19053824 0.76800001
0.16473882 0.19029014 0.76700002
0.16586709 0.19004205 0.76600003
0.16721013 0.19004205 0.76600003
0.16833314 0.18979394 0.76500005
0.16967446 0.18979394 0.76500005
0.17056865 0.18929775 0.76300001
0.17190644 0.18929775 0.76300001
0.17369835 0.18979394 0.76500005
0.17458203 0.18929775 0.76300001
0.17591982 0.18929775 0.76300001
0.17725761 0.18929775 0.76300001
0.17836134 0.18904966 0.76200002
0.081411652 0.18863675 0.75500005
0.08240667 0.18788719 0.75200003
0.083725169 0.18788719 0.75200003
0.084930591 0.18763734 0.75100005
0.086477026 0.18813705 0.75300002
0.08768069 0.18788719 0.75200003
0.088999197 0.18788719 0.75200003
0.090317704 0.18788719 0.75200003
0.091879927 0.1883869 0.75400001
0.093201943 0.1883869 0.75400001
0.094398588 0.18813705 0.75300002
0.095718846 0.18813705 0.75300002
0.097425722 0.1888866 0.75600004
0.098881863 0.18913645 0.75700003
0.10020914 0.18913645 0.75700003
0.10167054 0.18938629 0.75800002
0.10299957 0.18938629 0.75800002
0.10460386 0.189886 0.76000005
0.10607579 0.19013585 0.76100004
0.10741007 0.19013585 0.76100004
0.10874436 0.19013585 0.76100004
0.109934 0.189886 0.76000005
0.11141293 0.19013585 0.76100004
0.11274722 0.19013585 0.76100004
0.11408151 0.19013585 0.76100004
0.11511247 0.18963616 0.75900006
0.11644325 0.18963616 0.75900006
0.1179292 0.189886 0.76000005
0.11910481 0.18963616 0.75900006
0.12043559 0.18963616 0.75900006
0.12160594 0.18938629 0.75800002
0.12325934 0.189886 0.76000005
0.12442793 0.18963616 0.75900006
0.12575871 0.18963616 0.75900006
0.12708949 0.18963616 0.75900006
0.12875867 0.19013585 0.76100004
0.13009295 0.19013585 0.76100004
0.13142723 0.19013585 0.76100004
0.13258706 0.189886 0.76000005
0.1339196 0.189886 0.76000005
0.13471824 0.18913645 0.75700003
0.13604552 0.18913645 0.75700003
0.13773572 0.18963616 0.75900006
0.1390665 0.18963616 0.75900006
0.14021231 0.18938629 0.75800002
0.14154133 0.18938629 0.75800002
0.14287037 0.18938629 0.75800002
0.14419939 0.18938629 0.75800002
0.14572041 0.18963616 0.75900006
0.14724493 0.189886 0.76000005
0.14896846 0.1903857 0.76200002
0.15089625 0.19113524 0.76500005
0.15203854 0.19088539 0.76400006
0.15317734 0.19063555 0.76300001
0.15451513 0.19063555 0.76300001
0.15585293 0.19063555 0.76300001
0.15739673 0.19088539 0.76400006
0.15894406 0.19113524 0.76500005
0.16049488 0.19138511 0.76600003
0.16183792 0.19138511 0.76600003
0.16318098 0.19138511 0.76600003
0.16430925 0.19113524 0.76500005
0.16521747 0.19063555 0.76300001
0.16655527 0.19063555 0.76300001
0.16789307 0.19063555 0.76300001
0.16923085 0.19063555 0.76300001
0.17056865 0.19063555 0.76300001
0.17190644 0.19063555 0.76300001
0.17324424 0.19063555 0.76300001
0.17458203 0.19063555 0.76300001
0.17591982 0.19063555 0.76300001
0.17725761 0.19063555 0.76300001
0.17859541 0.19063555 0.76300001
0.080980331 0.1889541 0.75100005
0.082297079 0.1889541 0.75100005
0.083613835 0.1889541 0.75100005
0.085043676 0.18920571 0.75200003
0.086362183 0.18920571 0.75200003
0.087913886 0.18970892 0.75400001
0.089235902 0.18970892 0.75400001
0.090557911 0.18970892 0.75400001
0.091879927 0.18970892 0.75400001
0.093325548 0.18996051 0.75500005
0.094398588 0.18945731 0.75300002
0.095591731 0.18920571 0.75200003
0.097039111 0.18945731 0.75300002
0.098489992 0.18970892 0.75400001
0.099812008 0.18970892 0.75400001
0.10140228 0.19021212 0.75600004
0.1027278 0.19021212 0.75600004
0.10419095 0.19046372 0.75700003
0.10579701 0.19096693 0.75900006
0.10712779 0.19096693 0.75900006
0.10860147 0.19121853 0.76000005
0.109934 0.19121853 0.76000005
0.11126653 0.19121853 0.76000005
0.11259907 0.19121853 0.76000005
0.1139316 0.19121853 0.76000005
0.1149608 0.19071533 0.75800002
0.11628983 0.19071533 0.75800002
0.11761886 0.19071533 0.75800002
0.11894789 0.19071533 0.75800002
0.12011824 0.19046372 0.75700003
0.12144551 0.19046372 0.75700003
0.12325934 0.19121853 0.76000005
0.12442793 0.19096693 0.75900006
0.12575871 0.19096693 0.75900006
0.12708949 0.19096693 0.75900006
0.12842026 0.19096693 0.75900006
0.12975106 0.19096693 0.75900006
0.13108183 0.19096693 0.75900006
0.13241261 0.19096693 0.75900006
0.13339096 0.19046372 0.75700003
0.13471824 0.19046372 0.75700003
0.13586579 0.19021212 0.75600004
0.13719133 0.19021212 0.75600004
0.13851684 0.19021212 0.75600004
0.13984236 0.19021212 0.75600004
0.14116788 0.19021212 0.75600004
0.1424934 0.19021212 0.75600004
0.14381891 0.19021212 0.75600004
0.14533643 0.19046372 0.75700003
0.14705119 0.19096693 0.75900006
0.14877295 0.19147013 0.76100004
0.15050174 0.19197334 0.76300001
0.15183954 0.19197334 0.76300001
0.15357885 0.19247656 0.76500005
0.15492015 0.19247656 0.76500005
0.15626144 0.19247656 0.76500005
0.15719071 0.19197334 0.76300001
0.15873627 0.19222495 0.76400006
0.16028535 0.19247656 0.76500005
0.16162665 0.19247656 0.76500005
0.16296795 0.19247656 0.76500005
0.16409446 0.19222495 0.76400006
0.16521747 0.19197334 0.76300001
0.16633698 0.19172174 0.76200002
0.16767302 0.19172174 0.76200002
0.16900906 0.19172174 0.76200002
0.1703451 0.19172174 0.76200002
0.17168114 0.19172174 0.76200002
0.17324424 0.19197334 0.76300001
0.17435321 0.19172174 0.76200002
0.17568927 0.19172174 0.76200002
0.1770253 0.19172174 0.76200002
0.17859541 0.19197334 0.76300001
0.079557501 0.19001749 0.75000006
0.080764666 0.18976414 0.74900001
0.08240667 0.19052421 0.75200003
0.083502501 0.19001749 0.75000006
0.084704407 0.18976414 0.74900001
0.086362183 0.19052421 0.75200003
0.08768069 0.19052421 0.75200003
0.088880852 0.19027086 0.75100005
0.0901976 0.19027086 0.75100005
0.091636211 0.19052421 0.75200003
0.093201943 0.19103092 0.75400001
0.094273224 0.19052421 0.75200003
0.095464617 0.19027086 0.75100005
0.096523628 0.18976414 0.74900001
0.097836874 0.18976414 0.74900001
0.099150121 0.18976414 0.74900001
0.10086576 0.19052421 0.75200003
0.10218427 0.19052421 0.75200003
0.10350277 0.19052421 0.75200003
0.10496067 0.19077757 0.75300002
0.10656322 0.19128428 0.75500005
0.10774408 0.19103092 0.75400001
0.1090661 0.19103092 0.75400001
0.11038812 0.19103092 0.75400001
0.11200644 0.19153763 0.75600004
0.11333196 0.19153763 0.75600004
0.11435416 0.19103092 0.75400001
0.11567616 0.19103092 0.75400001
0.11684301 0.19077757 0.75300002
0.11816327 0.19077757 0.75300002
0.11980088 0.19128428 0.75500005
0.12112465 0.19128428 0.75500005
0.1226106 0.19153763 0.75600004
0.12393612 0.19153763 0.75600004
0.12559302 0.19204435 0.75800002
0.12692204 0.19204435 0.75800002
0.12858947 0.19255106 0.76000005
0.129922 0.19255106 0.76000005
0.13125454 0.19255106 0.76000005
0.13241261 0.19229771 0.75900006
0.13321476 0.19153763 0.75600004
0.13436231 0.19128428 0.75500005
0.13568608 0.19128428 0.75500005
0.13719133 0.19153763 0.75600004
0.13851684 0.19153763 0.75600004
0.13965738 0.19128428 0.75500005
0.14098115 0.19128428 0.75500005
0.1424934 0.19153763 0.75600004
0.14381891 0.19153763 0.75600004
0.14533643 0.191791 0.75700003
0.14705119 0.19229771 0.75900006
0.14857747 0.19255106 0.76000005
0.14991 0.19255106 0.76000005
0.15164053 0.19305778 0.76200002
0.15317734 0.19331114 0.76300001
0.15451513 0.19331114 0.76300001
0.15605718 0.19356449 0.76400006
0.15677868 0.19280443 0.76100004
0.15832074 0.19305778 0.76200002
0.1598663 0.19331114 0.76300001
0.1612041 0.19331114 0.76300001
0.1625419 0.19331114 0.76300001
0.16366489 0.19305778 0.76200002
0.1647844 0.19280443 0.76100004
0.16590039 0.19255106 0.76000005
0.16767302 0.19305778 0.76200002
0.16856547 0.19255106 0.76000005
0.169898 0.19255106 0.76000005
0.17100523 0.19229771 0.75900006
0.17279013 0.19280443 0.76100004
0.1741244 0.19280443 0.76100004
0.17568927 0.19305778 0.76200002
0.1770253 0.19305778 0.76200002
0.17859541 0.19331114 0.76300001
0.079557501 0.1913325 0.75000006
0.080764666 0.19107738 0.74900001
0.082077913 0.19107738 0.74900001
0.083502501 0.1913325 0.75000006
0.084704407 0.19107738 0.74900001
0.086017653 0.19107738 0.74900001
0.08768069 0.19184272 0.75200003
0.088880852 0.19158761 0.75100005
0.0901976 0.19158761 0.75100005
0.091514356 0.19158761 0.75100005
0.092831112 0.19158761 0.75100005
0.094022498 0.1913325 0.75000006
0.095337503 0.1913325 0.75000006
0.096523628 0.19107738 0.74900001
0.097836874 0.19107738 0.74900001
0.099150121 0.19107738 0.74900001
0.1005975 0.1913325 0.75000006
0.10218427 0.19184272 0.75200003
0.10350277 0.19184272 0.75200003
0.10482128 0.19184272 0.75200003
0.10628093 0.19209783 0.75300002
0.10760119 0.19209783 0.75300002
0.10892145 0.19209783 0.75300002
0.11024171 0.19209783 0.75300002
0.11200644 0.19286315 0.75600004
0.11333196 0.19286315 0.75600004
0.11435416 0.19235294 0.75400001
0.11567616 0.19235294 0.75400001
0.11699818 0.19235294 0.75400001
0.11832019 0.19235294 0.75400001
0.11948353 0.19209783 0.75300002
0.12096422 0.19235294 0.75400001
0.1226106 0.19286315 0.75600004
0.12393612 0.19286315 0.75600004
0.12526163 0.19286315 0.75600004
0.12708949 0.19362849 0.75900006
0.12842026 0.19362849 0.75900006
0.12975106 0.19362849 0.75900006
0.13073643 0.19311827 0.75700003
0.13188924 0.19286315 0.75600004
0.13286234 0.19235294 0.75400001
0.13418435 0.19235294 0.75400001
0.13532665 0.19209783 0.75300002
0.13700984 0.19260804 0.75500005
0.13833362 0.19260804 0.75500005
0.13965738 0.19260804 0.75500005
0.14098115 0.19260804 0.75500005
0.14268188 0.19311827 0.75700003
0.14400916 0.19311827 0.75700003
0.14552842 0.19337338 0.75800002
0.14685744 0.19337338 0.75800002
0.14818648 0.19337338 0.75800002
0.14951549 0.19337338 0.75800002
0.15124254 0.1938836 0.76000005
0.15277582 0.19413871 0.76100004
0.15370509 0.19362849 0.75900006
0.1548316 0.19337338 0.75800002
0.15616064 0.19337338 0.75800002
0.15748966 0.19337338 0.75800002
0.15881869 0.19337338 0.75800002
0.16057026 0.1938836 0.76000005
0.16232885 0.19439381 0.76200002
0.16366489 0.19439381 0.76200002
0.1647844 0.19413871 0.76100004
0.16590039 0.1938836 0.76000005
0.16723293 0.1938836 0.76000005
0.16834366 0.19362849 0.75900006
0.16967446 0.19362849 0.75900006
0.17100523 0.19362849 0.75900006
0.17256306 0.1938836 0.76000005
0.1738956 0.1938836 0.76000005
0.17568927 0.19439381 0.76200002
0.1770253 0.19439381 0.76200002
0.17859541 0.19464892 0.76300001
0.079451419 0.19239064 0.74900001
0.080872498 0.1926475 0.75000006
0.082187496 0.1926475 0.75000006
0.083502501 0.1926475 0.75000006
0.084817499 0.1926475 0.75000006
0.086132497 0.1926475 0.75000006
0.087564096 0.19290437 0.75100005
0.088880852 0.19290437 0.75100005
0.0901976 0.19290437 0.75100005
0.091392502 0.1926475 0.75000006
0.0927075 0.1926475 0.75000006
0.093771771 0.19213377 0.74800003
0.095210381 0.19239064 0.74900001
0.09626589 0.1918769 0.74700004
0.097575627 0.1918769 0.74700004
0.099017747 0.19213377 0.74800003
0.10046337 0.19239064 0.74900001
0.10164073 0.19213377 0.74800003
0.10295223 0.19213377 0.74800003
0.10468189 0.19290437 0.75100005
0.10599864 0.19290437 0.75100005
0.10745829 0.19316122 0.75200003
0.1087768 0.19316122 0.75200003
0.11024171 0.19341809 0.75300002
0.11171012 0.19367495 0.75400001
0.11303214 0.19367495 0.75400001
0.11420249 0.19341809 0.75300002
0.11567616 0.19367495 0.75400001
0.11699818 0.19367495 0.75400001
0.11832019 0.19367495 0.75400001
0.11932486 0.19316122 0.75200003
0.12096422 0.19367495 0.75400001
0.12228623 0.19367495 0.75400001
0.12393612 0.19418868 0.75600004
0.12526163 0.19418868 0.75600004
0.1267546 0.19444554 0.75700003
0.12842026 0.19495927 0.75900006
0.12975106 0.19495927 0.75900006
0.13073643 0.19444554 0.75700003
0.13188924 0.19418868 0.75600004
0.13303855 0.19393182 0.75500005
0.13418435 0.19367495 0.75400001
0.13532665 0.19341809 0.75300002
0.13700984 0.19393182 0.75500005
0.13833362 0.19393182 0.75500005
0.13965738 0.19393182 0.75500005
0.14098115 0.19393182 0.75500005
0.14268188 0.19444554 0.75700003
0.14400916 0.19444554 0.75700003
0.14552842 0.1947024 0.75800002
0.14685744 0.1947024 0.75800002
0.14818648 0.1947024 0.75800002
0.14951549 0.1947024 0.75800002
0.15084453 0.1947024 0.75800002
0.15217355 0.1947024 0.75800002
0.15350258 0.1947024 0.75800002
0.1548316 0.1947024 0.75800002
0.15616064 0.1947024 0.75800002
0.15748966 0.1947024 0.75800002
0.15881869 0.1947024 0.75800002
0.16057026 0.19521613 0.76000005
0.1619028 0.19521613 0.76000005
0.16302055 0.19495927 0.75900006
0.16413479 0.1947024 0.75800002
0.16590039 0.19521613 0.76000005
0.16723293 0.19521613 0.76000005
0.16856547 0.19521613 0.76000005
0.169898 0.19521613 0.76000005
0.17100523 0.19495927 0.75900006
0.17233601 0.19495927 0.75900006
0.1741244 0.195473 0.76100004
0.17568927 0.19572985 0.76200002
0.17725761 0.19598672 0.76300001
0.17859541 0.19598672 0.76300001
0.079557501 0.1939625 0.75000006
0.080872498 0.1939625 0.75000006
0.082187496 0.1939625 0.75000006
0.083502501 0.1939625 0.75000006
0.084930591 0.19422111 0.75100005
0.08624734 0.19422111 0.75100005
0.087564096 0.19422111 0.75100005
0.088880852 0.19422111 0.75100005
0.0901976 0.19422111 0.75100005
0.091392502 0.1939625 0.75000006
0.0927075 0.1939625 0.75000006
0.093771771 0.19344527 0.74800003
0.095210381 0.19370387 0.74900001
0.09626589 0.19318666 0.74700004
0.097575627 0.19318666 0.74700004
0.098885372 0.19318666 0.74700004
0.10032924 0.19344527 0.74800003
0.10164073 0.19344527 0.74800003
0.10281459 0.19318666 0.74700004
0.10426372 0.19344527 0.74800003
0.10557521 0.19344527 0.74800003
0.1071725 0.1939625 0.75000006
0.1084875 0.1939625 0.75000006
0.1098025 0.1939625 0.75000006
0.11156197 0.19473834 0.75300002
0.11288223 0.19473834 0.75300002
0.11405083 0.19447973 0.75200003
0.11552275 0.19473834 0.75300002
0.11668784 0.19447973 0.75200003
0.11800635 0.19447973 0.75200003
0.11932486 0.19447973 0.75200003
0.12080379 0.19473834 0.75300002
0.12212405 0.19473834 0.75300002
0.12360825 0.19499697 0.75400001
0.12526163 0.1955142 0.75600004
0.12658715 0.1955142 0.75600004
0.12791269 0.1955142 0.75600004
0.1292382 0.1955142 0.75600004
0.13056372 0.1955142 0.75600004
0.13188924 0.1955142 0.75600004
0.13286234 0.19499697 0.75400001
0.13418435 0.19499697 0.75400001
0.13532665 0.19473834 0.75300002
0.13664691 0.19473834 0.75300002
0.13796717 0.19473834 0.75300002
0.13928743 0.19473834 0.75300002
0.14116788 0.1955142 0.75600004
0.14268188 0.19577281 0.75700003
0.14400916 0.19577281 0.75700003
0.14533643 0.19577281 0.75700003
0.1466637 0.19577281 0.75700003
0.14818648 0.19603144 0.75800002
0.14931825 0.19577281 0.75700003
0.15024751 0.19525558 0.75500005
0.15137053 0.19499697 0.75400001
0.15309756 0.1955142 0.75600004
0.15442307 0.1955142 0.75600004
0.15574861 0.1955142 0.75600004
0.15728189 0.19577281 0.75700003
0.15881869 0.19603144 0.75800002
0.16014771 0.19603144 0.75800002
0.1619028 0.19654867 0.76000005
0.16302055 0.19629005 0.75900006
0.16413479 0.19603144 0.75800002
0.16546382 0.19603144 0.75800002
0.16679284 0.19603144 0.75800002
0.16812187 0.19603144 0.75800002
0.16945089 0.19603144 0.75800002
0.17077993 0.19603144 0.75800002
0.1718819 0.19577281 0.75700003
0.17366679 0.19629005 0.75900006
0.17522813 0.19654867 0.76000005
0.17725761 0.19732451 0.76300001
0.17859541 0.19732451 0.76300001
0.079557501 0.1952775 0.75000006
0.080872498 0.1952775 0.75000006
0.082187496 0.1952775 0.75000006
0.083502501 0.1952775 0.75000006
0.084930591 0.19553787 0.75100005
0.08624734 0.19553787 0.75100005
0.08768069 0.19579823 0.75200003
0.088880852 0.19553787 0.75100005
0.0901976 0.19553787 0.75100005
0.091392502 0.1952775 0.75000006
0.092831112 0.19553787 0.75100005
0.093897134 0.19501713 0.74900001
0.095210381 0.19501713 0.74900001
0.096137017 0.19423603 0.74600005
0.097445004 0.19423603 0.74600005
0.09875299 0.19423603 0.74600005
0.10019511 0.19449639 0.74700004
0.10164073 0.19475676 0.74800003
0.10281459 0.19449639 0.74700004
0.10412433 0.19449639 0.74700004
0.10543407 0.19449639 0.74700004
0.10674381 0.19449639 0.74700004
0.10834285 0.19501713 0.74900001
0.1096561 0.19501713 0.74900001
0.11141381 0.19579823 0.75200003
0.11273232 0.19579823 0.75200003
0.11405083 0.19579823 0.75200003
0.11536933 0.19579823 0.75200003
0.11668784 0.19579823 0.75200003
0.11800635 0.19579823 0.75200003
0.11916617 0.19553787 0.75100005
0.12064336 0.19579823 0.75200003
0.12212405 0.19605862 0.75300002
0.12360825 0.19631898 0.75400001
0.12526163 0.19683972 0.75600004
0.12658715 0.19683972 0.75600004
0.12791269 0.19683972 0.75600004
0.1292382 0.19683972 0.75600004
0.13021831 0.19631898 0.75400001
0.13154033 0.19631898 0.75400001
0.13268612 0.19605862 0.75300002
0.1340064 0.19605862 0.75300002
0.13496722 0.19553787 0.75100005
0.13664691 0.19605862 0.75300002
0.13815039 0.19631898 0.75400001
0.13965738 0.19657935 0.75500005
0.14098115 0.19657935 0.75500005
0.14230491 0.19657935 0.75500005
0.14400916 0.19710009 0.75700003
0.14533643 0.19710009 0.75700003
0.1466637 0.19710009 0.75700003
0.14799097 0.19710009 0.75700003
0.14931825 0.19710009 0.75700003
0.15004851 0.19631898 0.75400001
0.15137053 0.19631898 0.75400001
0.15249003 0.19605862 0.75300002
0.15381029 0.19605862 0.75300002
0.15513055 0.19605862 0.75300002
0.15665857 0.19631898 0.75400001
0.15860917 0.19710009 0.75700003
0.15993644 0.19710009 0.75700003
0.16147675 0.19736046 0.75800002
0.16259098 0.19710009 0.75700003
0.16370171 0.19683972 0.75600004
0.16480894 0.19657935 0.75500005
0.16613272 0.19657935 0.75500005
0.16767828 0.19683972 0.75600004
0.1690038 0.19683972 0.75600004
0.17032932 0.19683972 0.75600004
0.17142779 0.19657935 0.75500005
0.17320918 0.19710009 0.75700003
0.174767 0.19736046 0.75800002
0.17656067 0.19788119 0.76000005
0.17812727 0.19814157 0.76100004
0.079769656 0.19711675 0.75200003
0.080872498 0.19659249 0.75000006
0.082187496 0.19659249 0.75000006
0.083502501 0.19659249 0.75000006
0.084930591 0.19685462 0.75100005
0.08624734 0.19685462 0.75100005
0.087797292 0.19737887 0.75300002
0.088999197 0.19711675 0.75200003
0.0901976 0.19685462 0.75100005
0.091392502 0.19659249 0.75000006
0.0927075 0.19659249 0.75000006
0.093897134 0.19633037 0.74900001
0.095083266 0.19606826 0.74800003
0.096008152 0.19528188 0.74500006
0.09731438 0.19528188 0.74500006
0.09875299 0.195544 0.74600005
0.10019511 0.19580613 0.74700004
0.10136896 0.195544 0.74600005
0.10267695 0.195544 0.74600005
0.10412433 0.19580613 0.74700004
0.10543407 0.19580613 0.74700004
0.10674381 0.19580613 0.74700004
0.10805355 0.19580613 0.74700004
0.10936329 0.19580613 0.74700004
0.11141381 0.19711675 0.75200003
0.11273232 0.19711675 0.75200003
0.11405083 0.19711675 0.75200003
0.11536933 0.19711675 0.75200003
0.11668784 0.19711675 0.75200003
0.11800635 0.19711675 0.75200003
0.11932486 0.19711675 0.75200003
0.12080379 0.19737887 0.75300002
0.12212405 0.19737887 0.75300002
0.12344431 0.19737887 0.75300002
0.12476457 0.19737887 0.75300002
0.12608483 0.19737887 0.75300002
0.12740509 0.19737887 0.75300002
0.12872535 0.19737887 0.75300002
0.13021831 0.19764099 0.75400001
0.13136587 0.19737887 0.75300002
0.13250992 0.19711675 0.75200003
0.1340064 0.19737887 0.75300002
0.13532665 0.19737887 0.75300002
0.13664691 0.19737887 0.75300002
0.13796717 0.19737887 0.75300002
0.13947241 0.19764099 0.75400001
0.14079443 0.19764099 0.75400001
0.14192794 0.19737887 0.75300002
0.14324822 0.19737887 0.75300002
0.14495245 0.19790311 0.75500005
0.14627622 0.19790311 0.75500005
0.14799097 0.19842736 0.75700003
0.14892375 0.19790311 0.75500005
0.14945151 0.19685462 0.75100005
0.15076825 0.19685462 0.75100005
0.15228751 0.19711675 0.75200003
0.15340176 0.19685462 0.75100005
0.15471852 0.19685462 0.75100005
0.15665857 0.19764099 0.75400001
0.15819012 0.19790311 0.75500005
0.15951388 0.19790311 0.75500005
0.1612637 0.19842736 0.75700003
0.1623762 0.19816524 0.75600004
0.16326864 0.19764099 0.75400001
0.16459066 0.19764099 0.75400001
0.16591267 0.19764099 0.75400001
0.16723469 0.19764099 0.75400001
0.16878025 0.19790311 0.75500005
0.17055462 0.19842736 0.75700003
0.17142779 0.19790311 0.75500005
0.17275155 0.19790311 0.75500005
0.174767 0.19868949 0.75800002
0.17609604 0.19868949 0.75800002
0.17742506 0.19868949 0.75800002
0.079769656 0.19843525 0.75200003
0.080872498 0.19790749 0.75000006
0.082187496 0.19790749 0.75000006
0.083502501 0.19790749 0.75000006
0.084930591 0.19817138 0.75100005
0.086477026 0.19869913 0.75300002
0.08768069 0.19843525 0.75200003
0.088880852 0.19817138 0.75100005
0.090077497 0.19790749 0.75000006
0.091392502 0.19790749 0.75000006
0.092460282 0.19737974 0.74800003
0.093771771 0.19737974 0.74800003
0.09482903 0.196852 0.74600005
0.096137017 0.196852 0.74600005
0.097575627 0.19711587 0.74700004
0.09875299 0.196852 0.74600005
0.10006098 0.196852 0.74600005
0.10150485 0.19711587 0.74700004
0.10281459 0.19711587 0.74700004
0.10426372 0.19737974 0.74800003
0.10543407 0.19711587 0.74700004
0.10660091 0.196852 0.74600005
0.1079089 0.196852 0.74600005
0.10921688 0.196852 0.74600005
0.1111175 0.19790749 0.75000006
0.1124325 0.19790749 0.75000006
0.1137475 0.19790749 0.75000006
0.1150625 0.19790749 0.75000006
0.1163775 0.19790749 0.75000006
0.11753558 0.19764362 0.74900001
0.11932486 0.19843525 0.75200003
0.12080379 0.19869913 0.75300002
0.12212405 0.19869913 0.75300002
0.12344431 0.19869913 0.75300002
0.12476457 0.19869913 0.75300002
0.12608483 0.19869913 0.75300002
0.12757428 0.198963 0.75400001
0.1288963 0.198963 0.75400001
0.13004561 0.19869913 0.75300002
0.13136587 0.19869913 0.75300002
0.13268612 0.19869913 0.75300002
0.1340064 0.19869913 0.75300002
0.13532665 0.19869913 0.75300002
0.13664691 0.19869913 0.75300002
0.13796717 0.19869913 0.75300002
0.13928743 0.19869913 0.75300002
0.14060768 0.19869913 0.75300002
0.14173947 0.19843525 0.75200003
0.14305797 0.19843525 0.75200003
0.14437647 0.19843525 0.75200003
0.14550124 0.19817138 0.75100005
0.14720899 0.19869913 0.75300002
0.14852925 0.19869913 0.75300002
0.1492525 0.19790749 0.75000006
0.1505675 0.19790749 0.75000006
0.15208501 0.19817138 0.75100005
0.15340176 0.19817138 0.75100005
0.15471852 0.19817138 0.75100005
0.15624304 0.19843525 0.75200003
0.15777107 0.19869913 0.75300002
0.15909132 0.19869913 0.75300002
0.1604116 0.19869913 0.75300002
0.16151707 0.19843525 0.75200003
0.1624025 0.19790749 0.75000006
0.16415408 0.19843525 0.75200003
0.16547258 0.19843525 0.75200003
0.1667911 0.19843525 0.75200003
0.16833314 0.19869913 0.75300002
0.16987871 0.198963 0.75400001
0.17074661 0.19843525 0.75200003
0.17206512 0.19843525 0.75200003
0.17407532 0.19922689 0.75500005
0.17493445 0.19869913 0.75300002
0.1762547 0.19869913 0.75300002
0.080872498 0.19922251 0.75000006
0.082187496 0.19922251 0.75000006
0.083279826 0.19869123 0.74800003
0.084591322 0.19869123 0.74800003
0.086132497 0.19922251 0.75000006
0.0873309 0.19895686 0.74900001
0.088644147 0.19895686 0.74900001
0.08983729 0.19869123 0.74800003
0.091148786 0.19869123 0.74800003
0.092583887 0.19895686 0.74900001
0.093771771 0.19869123 0.74800003
0.09482903 0.19815998 0.74600005
0.096137017 0.19815998 0.74600005
0.097183757 0.19762872 0.74400002
0.098488241 0.19762872 0.74400002
0.099926852 0.19789435 0.74500006
0.10096131 0.19736309 0.74300003
0.10240168 0.19762872 0.74400002
0.10398494 0.19815998 0.74600005
0.10515178 0.19789435 0.74500006
0.10631512 0.19762872 0.74400002
0.1079089 0.19815998 0.74600005
0.10921688 0.19815998 0.74600005
0.11067303 0.19842561 0.74700004
0.11228259 0.19895686 0.74900001
0.1137475 0.19922251 0.75000006
0.1150625 0.19922251 0.75000006
0.1163775 0.19922251 0.75000006
0.11737865 0.19869123 0.74800003
0.1190075 0.19922251 0.75000006
0.12048293 0.19948813 0.75100005
0.12212405 0.20001939 0.75300002
0.12344431 0.20001939 0.75300002
0.12476457 0.20001939 0.75300002
0.12608483 0.20001939 0.75300002
0.12723589 0.19975376 0.75200003
0.1285544 0.19975376 0.75200003
0.1297002 0.19948813 0.75100005
0.13101695 0.19948813 0.75100005
0.13250992 0.19975376 0.75200003
0.13382843 0.19975376 0.75200003
0.13532665 0.20001939 0.75300002
0.13628396 0.19948813 0.75100005
0.13760072 0.19948813 0.75100005
0.13891748 0.19948813 0.75100005
0.14023423 0.19948813 0.75100005
0.14079705 0.19842561 0.74700004
0.14210679 0.19842561 0.74700004
0.1439925 0.19922251 0.75000006
0.14511375 0.19895686 0.74900001
0.14720899 0.20001939 0.75300002
0.14852925 0.20001939 0.75300002
0.1492525 0.19922251 0.75000006
0.1505675 0.19922251 0.75000006
0.15208501 0.19948813 0.75100005
0.15360603 0.19975376 0.75200003
0.15471852 0.19948813 0.75100005
0.15624304 0.19975376 0.75200003
0.15777107 0.20001939 0.75300002
0.15909132 0.20001939 0.75300002
0.1604116 0.20001939 0.75300002
0.16151707 0.19975376 0.75200003
0.1624025 0.19922251 0.75000006
0.16349921 0.19895686 0.74900001
0.16481246 0.19895686 0.74900001
0.1661257 0.19895686 0.74900001
0.16788605 0.19948813 0.75100005
0.1692028 0.19948813 0.75100005
0.17051956 0.19948813 0.75100005
0.17160749 0.19922251 0.75000006
0.17407532 0.20055065 0.75500005
0.17446981 0.19948813 0.75100005
0.17578657 0.19948813 0.75100005
0.080656841 0.20000273 0.74800003
0.08196833 0.20000273 0.74800003
0.083279826 0.20000273 0.74800003
0.084478229 0.19973534 0.74700004
0.085787967 0.19973534 0.74700004
0.087097712 0.19973534 0.74700004
0.088525802 0.20000273 0.74800003
0.089717187 0.19973534 0.74700004
0.091026932 0.19973534 0.74700004
0.092460282 0.20000273 0.74800003
0.093646407 0.19973534 0.74700004
0.094701916 0.19920059 0.74500006
0.09626589 0.19973534 0.74700004
0.09731438 0.19920059 0.74500006
0.098620616 0.19920059 0.74500006
0.099658586 0.19866581 0.74300003
0.1010972 0.1989332 0.74400002
0.10253932 0.19920059 0.74500006
0.10412433 0.19973534 0.74700004
0.10529292 0.19946797 0.74600005
0.10631512 0.1989332 0.74400002
0.1076196 0.1989332 0.74400002
0.10892408 0.1989332 0.74400002
0.11082119 0.20000273 0.74800003
0.1124325 0.2005375 0.75000006
0.1137475 0.2005375 0.75000006
0.1150625 0.2005375 0.75000006
0.1163775 0.2005375 0.75000006
0.11753558 0.20027012 0.74900001
0.11884882 0.20027012 0.74900001
0.12048293 0.20080489 0.75100005
0.12179969 0.20080489 0.75100005
0.12311643 0.20080489 0.75100005
0.12443319 0.20080489 0.75100005
0.12591739 0.20107226 0.75200003
0.1270667 0.20080489 0.75100005
0.12838344 0.20080489 0.75100005
0.1297002 0.20080489 0.75100005
0.13101695 0.20080489 0.75100005
0.13233371 0.20080489 0.75100005
0.13382843 0.20107226 0.75200003
0.13496722 0.20080489 0.75100005
0.13628396 0.20080489 0.75100005
0.1374175 0.2005375 0.75000006
0.13854752 0.20027012 0.74900001
0.13967404 0.20000273 0.74800003
0.14060856 0.19946797 0.74600005
0.14172632 0.19920059 0.74500006
0.14322454 0.19946797 0.74600005
0.14433879 0.19920059 0.74500006
0.1462315 0.20000273 0.74800003
0.147543 0.20000273 0.74800003
0.1490535 0.20027012 0.74900001
0.15036674 0.20027012 0.74900001
0.1518825 0.2005375 0.75000006
0.15278897 0.20000273 0.74800003
0.15410046 0.20000273 0.74800003
0.15520419 0.19973534 0.74700004
0.15672345 0.20000273 0.74800003
0.1584575 0.2005375 0.75000006
0.1597725 0.2005375 0.75000006
0.16087271 0.20027012 0.74900001
0.16153635 0.19946797 0.74600005
0.16284434 0.19946797 0.74600005
0.16481246 0.20027012 0.74900001
0.1663475 0.2005375 0.75000006
0.1681096 0.20107226 0.75200003
0.16807629 0.19946797 0.74600005
0.16938427 0.19946797 0.74600005
0.17000583 0.19866581 0.74300003
0.17130856 0.19866581 0.74300003
0.17377287 0.20000273 0.74800003
0.17508435 0.20000273 0.74800003
0.080333352 0.20050682 0.74500006
0.081749164 0.20077595 0.74600005
0.083279826 0.20131423 0.74800003
0.084591322 0.20131423 0.74800003
0.08590281 0.20131423 0.74800003
0.08698111 0.20077595 0.74600005
0.088525802 0.20131423 0.74800003
0.08947698 0.20050682 0.74500006
0.090783216 0.20050682 0.74500006
0.092583887 0.20158336 0.74900001
0.093771771 0.20131423 0.74800003
0.09482903 0.20077595 0.74600005
0.096008152 0.20050682 0.74500006
0.09731438 0.20050682 0.74500006
0.098620616 0.20050682 0.74500006
0.099658586 0.19996855 0.74300003
0.1010972 0.20023768 0.74400002
0.10253932 0.20050682 0.74500006
0.10384555 0.20050682 0.74500006
0.10529292 0.20077595 0.74600005
