# .PCD v0.7 - Point Cloud Data file format
VERSION 0.7
FIELDS x y z
SIZE 4 4 4
TYPE F F F
COUNT 1 1 1
WIDTH 1452
HEIGHT 1
VIEWPOINT 0 0 0 1 0 0 0
POINTS 1452
DATA ascii
0.19584557 -1.2217034 3.5460002
0.20405732 -1.2337619 3.5810001
-0.64240205 -1.1263641 3.2860003
-0.63567185 -1.1246502 3.2810001
-0.63126314 -1.1270497 3.2880001
-0.62036175 -1.1177948 3.2610002
-0.61671746 -1.1215652 3.2720001
-0.61303461 -1.1253358 3.2830002
-0.60727841 -1.1253358 3.2830002
-0.59565908 -1.1143669 3.2510002
-0.58995897 -1.1143669 3.2510002
-0.46384871 -0.88470656 2.5810001
-0.45932335 -0.88470656 2.5810001
-0.45426938 -0.88367826 2.5780001
-0.44626015 -0.87682271 2.5580001
-0.44229323 -0.87785101 2.5610001
-0.43780294 -0.87785101 2.5610001
-0.43297428 -0.8771655 2.559
-0.42832005 -0.87682271 2.5580001
-0.42433208 -0.87785101 2.5610001
-0.42000574 -0.8781938 2.562
-0.41551369 -0.8781938 2.562
-0.4107008 -0.87750828 2.5600002
-0.40589491 -0.87682271 2.5580001
-0.40454835 -0.88367826 2.5780001
-0.39971793 -0.88299268 2.5760002
-0.39520133 -0.88299268 2.5760002
-0.39083642 -0.88333547 2.5770001
-0.38616815 -0.88299268 2.5760002
-0.38194788 -0.88367826 2.5780001
-0.37757421 -0.88402104 2.5790002
-0.37305236 -0.88402104 2.5790002
-0.36981657 -0.887106 2.5880001
-0.36739609 -0.89224768 2.6030002
-0.36255339 -0.8915621 2.6010001
-0.35537788 -0.88504934 2.582
-0.35166606 -0.887106 2.5880001
-0.34712845 -0.887106 2.5880001
-0.34378219 -0.89019102 2.5970001
-0.33922881 -0.89019102 2.5970001
-0.3346754 -0.89019102 2.5970001
-0.33063045 -0.8915621 2.6010001
-0.32657149 -0.89293319 2.605
-0.32200405 -0.89293319 2.605
-0.31719291 -0.89224768 2.6030002
-0.31238878 -0.8915621 2.6010001
-0.3081834 -0.89259046 2.6040001
-0.30303472 -0.89087653 2.5990002
-0.29836297 -0.89053375 2.598
-0.2939209 -0.89087653 2.5990002
-0.28758261 -0.88539213 2.5830002
-0.28338251 -0.88642043 2.5860002
-0.27884838 -0.88642043 2.5860002
-0.27410209 -0.88573492 2.5840001
-0.27071905 -0.88950545 2.595
-0.26606658 -0.88916266 2.5940001
-0.26151842 -0.88916266 2.5940001
-0.25885248 -0.89567542 2.6130002
-0.25271407 -0.89019102 2.5970001
-0.24825622 -0.89053375 2.598
-0.24445148 -0.89327598 2.6060002
-0.2396982 -0.89259046 2.6040001
-0.23477133 -0.89121932 2.6000001
-0.23003557 -0.89053375 2.598
-0.22582757 -0.89190489 2.6020002
-0.22126541 -0.89190489 2.6020002
-0.21670324 -0.89190489 2.6020002
-0.21157035 -0.88950545 2.595
-0.20542492 -0.8826499 2.575
-0.20176834 -0.88642043 2.5860002
-0.19914097 -0.89498985 2.6110001
-0.19389236 -0.89190489 2.6020002
-0.18933019 -0.89190489 2.6020002
-0.18476802 -0.89190489 2.6020002
-0.1802751 -0.89224768 2.6030002
-0.17584619 -0.89293319 2.605
-0.17127874 -0.89293319 2.605
-0.16664732 -0.89259046 2.6040001
-0.16208164 -0.89259046 2.6040001
-0.15739498 -0.89190489 2.6020002
-0.15283281 -0.89190489 2.6020002
-0.14827064 -0.89190489 2.6020002
-0.14420553 -0.89498985 2.6110001
-0.13962758 -0.89498985 2.6110001
-0.13556686 -0.89841765 2.6210001
-0.13097137 -0.89841765 2.6210001
-0.12637588 -0.89841765 2.6210001
-0.1217804 -0.89841765 2.6210001
-0.11807911 -0.9052732 2.641
-0.1134056 -0.90493041 2.6400001
-0.1087356 -0.90458763 2.6390002
-0.1040691 -0.90424484 2.638
-0.099519201 -0.90493041 2.6400001
-0.094890401 -0.90493041 2.6400001
-0.090261601 -0.90493041 2.6400001
-0.085535489 -0.90390205 2.6370001
-0.080911949 -0.90390205 2.6370001
-0.07628841 -0.90390205 2.6370001
-0.07166487 -0.90390205 2.6370001
-0.06699048 -0.90321648 2.6350002
-0.062323108 -0.90253097 2.6330001
-0.057706583 -0.90253097 2.6330001
-0.053513486 -0.90972924 2.654
-0.04886014 -0.90972924 2.654
-0.044240106 -0.91041481 2.6560001
-0.039613061 -0.91110039 2.6580002
-0.0349527 -0.91110039 2.6580002
-0.030429101 -0.9152137 2.6700001
-0.025844133 -0.91864145 2.6800001
-0.0211452 -0.91864145 2.6800001
-0.01658741 -0.92652529 2.7030001
-0.01184815 -0.92652529 2.7030001
-0.00710889 -0.92652529 2.7030001
-0.0023696299 -0.92652529 2.7030001
0.0023678767 -0.92583978 2.7010002
0.0070957402 -0.92481142 2.6980002
0.011835 -0.925497 2.7
0.016569 -0.925497 2.7
0.021303 -0.925497 2.7
0.026037 -0.925497 2.7
0.030805189 -0.92652529 2.7030001
0.035544451 -0.92652529 2.7030001
0.04064139 -0.93475199 2.7270002
0.045422729 -0.93475199 2.7270002
0.050185658 -0.9344092 2.7260001
0.054965246 -0.9344092 2.7260001
0.059547585 -0.93132418 2.7170002
0.064477079 -0.93372363 2.7240002
0.069812469 -0.94126475 2.7460001
0.074409716 -0.93852252 2.7380002
0.07915248 -0.93783695 2.7360001
0.084010966 -0.93852252 2.7380002
0.088325046 -0.93338084 2.723
0.093030989 -0.93269533 2.7210002
0.098484732 -0.93920809 2.7400002
0.10321347 -0.93852252 2.7380002
0.1064361 -0.92481142 2.6980002
0.11170223 -0.92926753 2.7110002
0.11740057 -0.93680865 2.733
0.12179004 -0.93372363 2.7240002
0.12656611 -0.93372363 2.7240002
0.16851725 -1.1980045 3.4950001
0.17474508 -1.1986899 3.4970002
0.18335922 -1.2151433 3.5450001
0.18957478 -1.2151433 3.5450001
0.19584557 -1.215486 3.5460002
0.2030886 -1.2216561 3.5640001
-0.64240205 -1.1206026 3.2860003
-0.63567185 -1.1188976 3.2810001
-0.62915123 -1.1175334 3.2770002
-0.62340558 -1.1175334 3.2770002
-0.61275929 -1.1086669 3.2510002
-0.60705924 -1.1086669 3.2510002
-0.60135913 -1.1086669 3.2510002
-0.59565908 -1.1086669 3.2510002
-0.58995897 -1.1086669 3.2510002
-0.46330956 -0.87915814 2.5780001
-0.45878947 -0.87915814 2.5780001
-0.45426938 -0.87915814 2.5780001
-0.44626015 -0.8723377 2.5580001
-0.44177511 -0.8723377 2.5580001
-0.4372901 -0.8723377 2.5580001
-0.43280506 -0.8723377 2.5580001
-0.42832005 -0.8723377 2.5580001
-0.42433208 -0.87336075 2.5610001
-0.42328447 -0.88052225 2.582
-0.41551369 -0.87370175 2.562
-0.4107008 -0.87301975 2.5600002
-0.40906844 -0.87915814 2.5780001
-0.40454835 -0.87915814 2.5780001
-0.40002826 -0.87915814 2.5780001
-0.39228642 -0.87199664 2.5570002
-0.3879548 -0.8723377 2.5580001
-0.38646796 -0.87915814 2.5780001
-0.38194788 -0.87915814 2.5780001
-0.37742779 -0.87915814 2.5780001
-0.3737756 -0.88120431 2.5840001
-0.36981657 -0.88256836 2.5880001
-0.36471438 -0.88120431 2.5840001
-0.36018375 -0.88120431 2.5840001
-0.35689187 -0.88427347 2.5930002
-0.35316077 -0.88631964 2.5990002
-0.34940866 -0.88836581 2.605
-0.34457645 -0.88768375 2.6030002
-0.33922881 -0.88563758 2.5970001
-0.3346754 -0.88563758 2.5970001
-0.33037621 -0.88631964 2.5990002
-0.32657149 -0.88836581 2.605
-0.32200405 -0.88836581 2.605
-0.31719291 -0.88768375 2.6030002
-0.31238878 -0.88700169 2.6010001
-0.3081834 -0.88802475 2.6040001
-0.30280155 -0.88563758 2.5970001
-0.29836297 -0.88597864 2.598
-0.29346853 -0.88495553 2.595
-0.28713727 -0.8794992 2.5790002
-0.28261542 -0.8794992 2.5790002
-0.27809358 -0.8794992 2.5790002
-0.2736778 -0.8798402 2.5800002
-0.26936284 -0.88052225 2.582
-0.26473317 -0.88018119 2.5810001
-0.26000619 -0.8794992 2.5790002
-0.25548434 -0.8794992 2.5790002
-0.25183827 -0.88256836 2.5880001
-0.24768288 -0.88393247 2.592
-0.24407627 -0.88734269 2.6020002
-0.2395141 -0.88734269 2.6020002
-0.23459074 -0.88597864 2.598
-0.23003557 -0.88597864 2.598
-0.22582757 -0.88734269 2.6020002
-0.22126541 -0.88734269 2.6020002
-0.21512085 -0.88086325 2.5830002
-0.21059199 -0.88086325 2.5830002
-0.20638223 -0.88222736 2.5870001
-0.20317276 -0.88802475 2.6040001
-0.20005621 -0.89450419 2.6230001
-0.19530818 -0.89382213 2.6210001
-0.19034888 -0.89211702 2.6160002
-0.18526509 -0.88972986 2.6090002
-0.18041362 -0.88836581 2.605
-0.17584619 -0.88836581 2.605
-0.17127874 -0.88836581 2.605
-0.16671132 -0.88836581 2.605
-0.16214389 -0.88836581 2.605
-0.15751596 -0.88802475 2.6040001
-0.15283281 -0.88734269 2.6020002
-0.14827064 -0.88734269 2.6020002
-0.14392938 -0.8887068 2.6060002
-0.13936019 -0.8887068 2.6060002
-0.13556686 -0.89382213 2.6210001
-0.13097137 -0.89382213 2.6210001
-0.12637588 -0.89382213 2.6210001
-0.1217804 -0.89382213 2.6210001
-0.11807911 -0.90064263 2.641
-0.1134056 -0.90030158 2.6400001
-0.1087768 -0.90030158 2.6400001
-0.1032801 -0.89279908 2.618
-0.098765269 -0.89348114 2.6200001
-0.094890401 -0.90030158 2.6400001
-0.090261601 -0.90030158 2.6400001
-0.085535489 -0.89927852 2.6370001
-0.080911949 -0.89927852 2.6370001
-0.07628841 -0.89927852 2.6370001
-0.07166487 -0.89927852 2.6370001
-0.06699048 -0.89859647 2.6350002
-0.062323108 -0.89791441 2.6330001
-0.057706583 -0.89791441 2.6330001
-0.053090055 -0.89791441 2.6330001
-0.04886014 -0.90507591 2.654
-0.044240106 -0.90575796 2.6560001
-0.039642867 -0.90712208 2.6600001
-0.034979001 -0.90712208 2.6600001
-0.030451894 -0.91121435 2.6720002
-0.025892349 -0.91564763 2.6850002
-0.021184649 -0.91564763 2.6850002
-0.016599683 -0.92246813 2.7050002
-0.011835 -0.92076302 2.7
-0.0071009998 -0.92076302 2.7
-0.0023670001 -0.92076302 2.7
0.0023670001 -0.92076302 2.7
0.0071009998 -0.92076302 2.7
0.011835 -0.92076302 2.7
0.016569 -0.92076302 2.7
0.021303 -0.92076302 2.7
0.026037 -0.92076302 2.7
0.030771 -0.92076302 2.7
0.035505001 -0.92076302 2.7
0.04064139 -0.92997062 2.7270002
0.045422729 -0.92997062 2.7270002
0.050130431 -0.92860651 2.723
0.054904755 -0.92860651 2.723
0.059284583 -0.92246813 2.7050002
0.064453408 -0.92860651 2.723
0.069787048 -0.93610907 2.7450001
0.073947713 -0.92792451 2.7210002
0.07915248 -0.93303984 2.7360001
0.084072329 -0.93440396 2.7400002
0.088357478 -0.92894757 2.7240002
0.093167752 -0.92928857 2.7250001
0.098017469 -0.92997062 2.7270002
0.1028742 -0.93065268 2.7290001
0.10765905 -0.93065268 2.7290001
0.11240269 -0.93031162 2.7280002
0.11800196 -0.93679106 2.7470002
0.1220583 -0.93099368 2.73
0.1268449 -0.93099368 2.73
0.16871011 -1.1932406 3.4990001
0.17484502 -1.1932406 3.4990001
0.18341094 -1.2092687 3.5460002
0.18957478 -1.2089278 3.5450001
0.19579035 -1.2089278 3.5450001
0.20303161 -1.2150661 3.5630002
-0.64220655 -1.114502 3.2850001
-0.63644683 -1.114502 3.2850001
-0.62703931 -1.1080558 3.2660003
-0.62131298 -1.1080558 3.2660003
-0.61841381 -1.1131449 3.2810001
-0.61266112 -1.1131449 3.2810001
-0.60690844 -1.1131449 3.2810001
-0.60115576 -1.1131449 3.2810001
-0.59540308 -1.1131449 3.2810001
-0.46330956 -0.87463808 2.5780001
-0.45878947 -0.87463808 2.5780001
-0.45426938 -0.87463808 2.5780001
-0.44974929 -0.87463808 2.5780001
-0.44177511 -0.86785263 2.5580001
-0.4372901 -0.86785263 2.5580001
-0.43280506 -0.86785263 2.5580001
-0.42832005 -0.86785263 2.5580001
-0.42433208 -0.86887044 2.5610001
-0.42328447 -0.87599516 2.582
-0.41551369 -0.86920971 2.562
-0.41054037 -0.8681919 2.559
-0.40906844 -0.87463808 2.5780001
-0.40454835 -0.87463808 2.5780001
-0.40002826 -0.87463808 2.5780001
-0.39228642 -0.86751336 2.5570002
-0.3879548 -0.86785263 2.5580001
-0.38646796 -0.87463808 2.5780001
-0.38194788 -0.87463808 2.5780001
-0.37742779 -0.87463808 2.5780001
-0.3737756 -0.8766737 2.5840001
-0.36981657 -0.87803078 2.5880001
-0.36471438 -0.8766737 2.5840001
-0.35990497 -0.87599516 2.582
-0.3551026 -0.87531662 2.5800002
-0.35085076 -0.87599516 2.582
-0.34632367 -0.87599516 2.582
-0.34431171 -0.88244128 2.6010001
-0.33922881 -0.8810842 2.5970001
-0.3346754 -0.8810842 2.5970001
-0.3302491 -0.88142347 2.598
-0.32632077 -0.88311982 2.6030002
-0.32200405 -0.88379836 2.605
-0.31694919 -0.88244128 2.6010001
-0.31238878 -0.88244128 2.6010001
-0.30782834 -0.88244128 2.6010001
-0.3010526 -0.87599516 2.582
-0.29652548 -0.87599516 2.582
-0.29165912 -0.87497735 2.5790002
-0.28713727 -0.87497735 2.5790002
-0.28261542 -0.87497735 2.5790002
-0.27809358 -0.87497735 2.5790002
-0.27388996 -0.87599516 2.582
-0.26936284 -0.87599516 2.582
-0.26452804 -0.87497735 2.5790002
-0.26010701 -0.87531662 2.5800002
-0.25617778 -0.87735224 2.5860002
-0.25183827 -0.87803078 2.5880001
-0.24701399 -0.87701297 2.585
-0.24229401 -0.87633443 2.5830002
-0.23776515 -0.87633443 2.5830002
-0.23359747 -0.87769151 2.5870001
-0.2290616 -0.87769151 2.5870001
-0.22426535 -0.8766737 2.5840001
-0.22160555 -0.88413763 2.6060002
-0.21670324 -0.88278055 2.6020002
-0.21214105 -0.88278055 2.6020002
-0.20773844 -0.88345909 2.6040001
-0.20325078 -0.88379836 2.605
-0.19860707 -0.88345909 2.6040001
-0.19560625 -0.89058375 2.6250002
-0.19107652 -0.89092302 2.6260002
-0.18640125 -0.89058375 2.6250002
-0.18055212 -0.8844769 2.6070001
-0.17584619 -0.88379836 2.605
-0.17127874 -0.88379836 2.605
-0.16671132 -0.88379836 2.605
-0.16214389 -0.88379836 2.605
-0.15751596 -0.88345909 2.6040001
-0.15283281 -0.88278055 2.6020002
-0.14827064 -0.88278055 2.6020002
-0.14365323 -0.88244128 2.6010001
-0.14016235 -0.88922668 2.6210001
-0.13556686 -0.88922668 2.6210001
-0.13092139 -0.88888741 2.6200001
-0.12637588 -0.88922668 2.6210001
-0.1217804 -0.88922668 2.6210001
-0.11718491 -0.88922668 2.6210001
-0.11254647 -0.88888741 2.6200001
-0.10795274 -0.88888741 2.6200001
-0.1032801 -0.88820887 2.618
-0.098727569 -0.88854814 2.6190002
-0.094171531 -0.88888741 2.6200001
-0.090261601 -0.8956728 2.6400001
-0.085535489 -0.89465499 2.6370001
-0.080911949 -0.89465499 2.6370001
-0.07628841 -0.89465499 2.6370001
-0.07166487 -0.89465499 2.6370001
-0.06699048 -0.89397645 2.6350002
-0.062323108 -0.89329791 2.6330001
-0.057706583 -0.89329791 2.6330001
-0.053090055 -0.89329791 2.6330001
-0.04886014 -0.90042257 2.654
-0.044290077 -0.90211892 2.6590002
-0.039642867 -0.90245819 2.6600001
-0.034979001 -0.90245819 2.6600001
-0.030429101 -0.90585089 2.6700001
-0.02586342 -0.90992212 2.6820002
-0.021160981 -0.90992212 2.6820002
-0.016569 -0.91602898 2.7
-0.011835 -0.91602898 2.7
-0.0071009998 -0.91602898 2.7
-0.0023670001 -0.91602898 2.7
0.0023670001 -0.91602898 2.7
0.0071009998 -0.91602898 2.7
0.011835 -0.91602898 2.7
0.016569 -0.91602898 2.7
0.021303 -0.91602898 2.7
0.026037 -0.91602898 2.7
0.030771 -0.91602898 2.7
0.035505001 -0.91602898 2.7
0.040313516 -0.91772532 2.7050002
0.045372758 -0.92417145 2.7240002
0.050167251 -0.92451072 2.7250001
0.054985411 -0.92518926 2.7270002
0.059284583 -0.91772532 2.7050002
0.064074688 -0.91840386 2.707
0.069329433 -0.92518926 2.7270002
0.073974885 -0.92349291 2.7220001
0.07845816 -0.92010021 2.7120001
0.083274566 -0.92077875 2.7140002
0.088779159 -0.92858201 2.7370002
0.093954116 -0.93231398 2.7480001
0.098808222 -0.93265325 2.7490001
0.10374123 -0.93367106 2.7520001
0.1077774 -0.9268856 2.7320001
0.11244389 -0.9258678 2.7290001
0.11821675 -0.93367106 2.7520001
0.12232656 -0.92824274 2.7360001
0.12712368 -0.92824274 2.7360001
0.16702253 -1.1752312 3.4640002
0.17514485 -1.1891414 3.5050001
0.18279026 -1.1989802 3.5340002
0.18984216 -1.2044085 3.5500002
0.19645311 -1.2067834 3.5570002
0.20303161 -1.208819 3.5630002
-0.64572549 -1.1148175 3.3030002
-0.63993424 -1.1148175 3.3030002
-0.62838328 -1.1046921 3.2730002
-0.6226446 -1.1046921 3.2730002
-0.61841381 -1.1073922 3.2810001
-0.61266112 -1.1073922 3.2810001
-0.60690844 -1.1073922 3.2810001
-0.60115576 -1.1073922 3.2810001
-0.45971522 -0.86336762 2.5580001
-0.45523021 -0.86336762 2.5580001
-0.45074517 -0.86336762 2.5580001
-0.44626015 -0.86336762 2.5580001
-0.44177511 -0.86336762 2.5580001
-0.4372901 -0.86336762 2.5580001
-0.43280506 -0.86336762 2.5580001
-0.42832005 -0.86336762 2.5580001
-0.42764589 -0.87113053 2.5810001
-0.42328447 -0.87146801 2.582
-0.41875735 -0.87146801 2.582
-0.41358852 -0.87011796 2.5780001
-0.40906844 -0.87011796 2.5780001
-0.40454835 -0.87011796 2.5780001
-0.40002826 -0.87011796 2.5780001
-0.39228642 -0.86303014 2.5570002
-0.3879548 -0.86336762 2.5580001
-0.38646796 -0.87011796 2.5780001
-0.38194788 -0.87011796 2.5780001
-0.3780134 -0.87146801 2.582
-0.3708826 -0.86539274 2.5640001
-0.36695865 -0.86674279 2.5680001
-0.36471438 -0.87214309 2.5840001
-0.35976559 -0.87113053 2.5810001
-0.35537788 -0.87146801 2.582
-0.35085076 -0.87146801 2.582
-0.34632367 -0.87146801 2.582
-0.34431171 -0.87788087 2.6010001
-0.33922881 -0.87653077 2.5970001
-0.3346754 -0.87653077 2.5970001
-0.33012199 -0.87653077 2.5970001
-0.32581931 -0.87720579 2.5990002
-0.32200405 -0.87923092 2.605
-0.31719291 -0.87855589 2.6030002
-0.31250888 -0.87821835 2.6020002
-0.3074733 -0.87686831 2.598
-0.30093598 -0.87113053 2.5810001
-0.29618096 -0.8704555 2.5790002
-0.29165912 -0.8704555 2.5790002
-0.28713727 -0.8704555 2.5790002
-0.28261542 -0.8704555 2.5790002
-0.2778779 -0.86978042 2.5770001
-0.2736778 -0.87079298 2.5800002
-0.26936284 -0.87146801 2.582
-0.26452804 -0.8704555 2.5790002
-0.26010701 -0.87079298 2.5800002
-0.25617778 -0.87281811 2.5860002
-0.25183827 -0.87349313 2.5880001
-0.24701399 -0.87248057 2.585
-0.24229401 -0.87180555 2.5830002
-0.23794925 -0.87248057 2.585
-0.23477133 -0.87754333 2.6000001
-0.2303012 -0.87788087 2.6010001
-0.22582757 -0.87821835 2.6020002
-0.22143547 -0.87889338 2.6040001
-0.21711965 -0.87990594 2.6070001
-0.2125487 -0.87990594 2.6070001
-0.20797777 -0.87990594 2.6070001
-0.20340683 -0.87990594 2.6070001
-0.19883589 -0.87990594 2.6070001
-0.19426495 -0.87990594 2.6070001
-0.19114928 -0.88665628 2.6270001
-0.18654327 -0.88665628 2.6270001
-0.18193726 -0.88665628 2.6270001
-0.17638621 -0.88193107 2.6130002
-0.17141025 -0.87990594 2.6070001
-0.16671132 -0.87923092 2.605
-0.16214389 -0.87923092 2.605
-0.15757644 -0.87923092 2.605
-0.15289155 -0.87855589 2.6030002
-0.14935331 -0.88463116 2.6210001
-0.14475782 -0.88463116 2.6210001
-0.14016235 -0.88463116 2.6210001
-0.13556686 -0.88463116 2.6210001
-0.13092139 -0.88429368 2.6200001
-0.12637588 -0.88463116 2.6210001
-0.12270966 -0.8913815 2.641
-0.11718491 -0.88463116 2.6210001
-0.11250351 -0.88395613 2.6190002
-0.10791153 -0.88395613 2.6190002
-0.10324065 -0.88328111 2.6170001
-0.098689869 -0.88361865 2.618
-0.094171531 -0.88429368 2.6200001
-0.089577802 -0.88429368 2.6200001
-0.085146248 -0.88598126 2.6250002
-0.081433564 -0.89576924 2.654
-0.076809153 -0.89610672 2.6550002
-0.071746401 -0.89104402 2.6400001
-0.067015909 -0.88969392 2.6360002
-0.062346779 -0.88901889 2.6340001
-0.057706583 -0.88868135 2.6330001
-0.05311022 -0.88901889 2.6340001
-0.048878551 -0.89610672 2.6550002
-0.044290077 -0.89745682 2.6590002
-0.039613061 -0.89711928 2.6580002
-0.0349527 -0.89711928 2.6580002
-0.030406306 -0.90049446 2.6680002
-0.025844133 -0.90454465 2.6800001
-0.021160981 -0.90521967 2.6820002
-0.016569 -0.911295 2.7
-0.011835 -0.911295 2.7
-0.0071009998 -0.911295 2.7
-0.0023670001 -0.911295 2.7
0.0023696299 -0.91230756 2.7030001
0.0071009998 -0.911295 2.7
0.011835 -0.911295 2.7
0.016569 -0.911295 2.7
0.02132667 -0.91230756 2.7030001
0.02600807 -0.91028243 2.697
0.030805189 -0.91230756 2.7030001
0.035570748 -0.91298258 2.7050002
0.040313516 -0.91298258 2.7050002
0.045422729 -0.92040795 2.7270002
0.050204068 -0.92040795 2.7270002
0.054985411 -0.92040795 2.7270002
0.059350334 -0.91399515 2.7080002
0.064098358 -0.91399515 2.7080002
0.068719268 -0.91230756 2.7030001
0.074029237 -0.91939539 2.7240002
0.078255646 -0.91298258 2.7050002
0.083243884 -0.91568273 2.7130001
0.08910352 -0.9271583 2.7470002
0.094227642 -0.93019593 2.756
0.099059828 -0.93019593 2.756
0.10389201 -0.93019593 2.756
0.1077774 -0.92209554 2.7320001
0.11339157 -0.92884588 2.7520001
0.11821675 -0.92884588 2.7520001
0.12232656 -0.92344558 2.7360001
0.16155301 -1.1735455 3.4770002
0.16682966 -1.1678077 3.4600003
0.17519481 -1.1833334 3.5060003
0.1817558 -1.1860336 3.5140002
0.18973522 -1.1975092 3.5480001
0.19877277 -1.2147225 3.5990002
0.20508301 -1.2147225 3.5990002
-0.6461165 -1.1096978 3.3050001
-0.63993424 -1.1090263 3.3030002
-0.62895924 -1.0999607 3.2760003
-0.62321532 -1.0999607 3.2760003
-0.6174714 -1.0999607 3.2760003
-0.61172748 -1.0999607 3.2760003
-0.61282772 -1.112384 3.3130002
-0.60701889 -1.112384 3.3130002
-0.46420026 -0.85888261 2.5580001
-0.45971522 -0.85888261 2.5580001
-0.45523021 -0.85888261 2.5580001
-0.45074517 -0.85888261 2.5580001
-0.44626015 -0.85888261 2.5580001
-0.44177511 -0.85888261 2.5580001
-0.4372901 -0.85888261 2.5580001
-0.43280506 -0.85888261 2.5580001
-0.42832005 -0.85888261 2.5580001
-0.42764589 -0.86660516 2.5810001
-0.42328447 -0.86694092 2.582
-0.41875735 -0.86694092 2.582
-0.41423026 -0.86694092 2.582
-0.40954447 -0.86660516 2.5810001
-0.40501913 -0.86660516 2.5810001
-0.40002826 -0.86559784 2.5780001
-0.39228642 -0.85854685 2.5570002
-0.3879548 -0.85888261 2.5580001
-0.38646796 -0.86559784 2.5780001
-0.38194788 -0.86559784 2.5780001
-0.3780134 -0.86694092 2.582
-0.37059331 -0.86022568 2.562
-0.36695865 -0.86224025 2.5680001
-0.36471438 -0.86761242 2.5840001
-0.35976559 -0.86660516 2.5810001
-0.35524023 -0.86660516 2.5810001
-0.34989959 -0.86459059 2.575
-0.34779909 -0.87063432 2.5930002
-0.34378219 -0.87197739 2.5970001
-0.33922881 -0.87197739 2.5970001
-0.3346754 -0.87197739 2.5970001
-0.33012199 -0.87197739 2.5970001
-0.32632077 -0.87399197 2.6030002
-0.32175684 -0.87399197 2.6030002
-0.31682733 -0.87298465 2.6000001
-0.31226867 -0.87298465 2.6000001
-0.30723661 -0.87164164 2.5960002
-0.30093598 -0.86660516 2.5810001
-0.29618096 -0.86593366 2.5790002
-0.29188529 -0.86660516 2.5810001
-0.28713727 -0.86593366 2.5790002
-0.28261542 -0.86593366 2.5790002
-0.2778779 -0.86526209 2.5770001
-0.27335957 -0.86526209 2.5770001
-0.26884124 -0.86526209 2.5770001
-0.26452804 -0.86593366 2.5790002
-0.26010701 -0.86626941 2.5800002
-0.25607872 -0.86794823 2.585
-0.25154635 -0.86794823 2.585
-0.24682286 -0.86727667 2.5830002
-0.24229401 -0.86727667 2.5830002
-0.23794925 -0.86794823 2.585
-0.23486163 -0.8733204 2.6010001
-0.2303012 -0.8733204 2.6010001
-0.22582757 -0.87365621 2.6020002
-0.22143547 -0.87432772 2.6040001
-0.21711965 -0.87533498 2.6070001
-0.2125487 -0.87533498 2.6070001
-0.20797777 -0.87533498 2.6070001
-0.20340683 -0.87533498 2.6070001
-0.19883589 -0.87533498 2.6070001
-0.19426495 -0.87533498 2.6070001
-0.19114928 -0.88205028 2.6270001
-0.18654327 -0.88205028 2.6270001
-0.18193726 -0.88205028 2.6270001
-0.17861381 -0.88842976 2.6460001
-0.17371149 -0.88708675 2.6420002
-0.16792725 -0.88104296 2.6240001
-0.1633265 -0.88104296 2.6240001
-0.15872575 -0.88104296 2.6240001
-0.15400754 -0.88037145 2.6220002
-0.14935331 -0.8800357 2.6210001
-0.14475782 -0.8800357 2.6210001
-0.14016235 -0.8800357 2.6210001
-0.13660133 -0.88675094 2.641
-0.1319208 -0.88641518 2.6400001
-0.12734021 -0.88675094 2.641
-0.12270966 -0.88675094 2.641
-0.11718491 -0.8800357 2.6210001
-0.11241759 -0.87869263 2.6170001
-0.10795274 -0.87969995 2.6200001
-0.103359 -0.87969995 2.6200001
-0.098689869 -0.87902838 2.618
-0.094099648 -0.87902838 2.618
-0.089475229 -0.87869263 2.6170001
-0.085340872 -0.88339335 2.631
-0.08097332 -0.88607943 2.6390002
-0.076924868 -0.89279467 2.6590002
-0.071827933 -0.8874225 2.6430001
-0.067143023 -0.88675094 2.641
-0.06241779 -0.88540792 2.6370001
-0.057772335 -0.88507211 2.6360002
-0.053170711 -0.88540792 2.6370001
-0.048933778 -0.89245892 2.6580002
-0.044256762 -0.89212316 2.6570001
-0.039613061 -0.89245892 2.6580002
-0.0349527 -0.89245892 2.6580002
-0.030406306 -0.89581656 2.6680002
-0.025844133 -0.89984572 2.6800001
-0.021160981 -0.90051723 2.6820002
-0.016569 -0.90656102 2.7
-0.01184815 -0.90756828 2.7030001
-0.00710889 -0.90756828 2.7030001
-0.0023713834 -0.90823978 2.7050002
0.0023696299 -0.90756828 2.7030001
0.00710889 -0.90756828 2.7030001
0.011856916 -0.90823978 2.7050002
0.016599683 -0.90823978 2.7050002
0.021342451 -0.90823978 2.7050002
0.025959853 -0.90387487 2.6920002
0.030805189 -0.90756828 2.7030001
0.035570748 -0.90823978 2.7050002
0.040313516 -0.90823978 2.7050002
0.045422729 -0.91562659 2.7270002
0.050204068 -0.91562659 2.7270002
0.054985411 -0.91562659 2.7270002
0.059525665 -0.91193318 2.7160001
0.064287722 -0.91193318 2.7160001
0.068719268 -0.90756828 2.7030001
0.074029237 -0.91461933 2.7240002
0.078197792 -0.90756828 2.7030001
0.083090469 -0.9092471 2.7080002
0.088876463 -0.91999155 2.7400002
0.093919933 -0.92234188 2.7470002
0.098880112 -0.9236849 2.7510002
0.10389201 -0.92536372 2.756
0.10765905 -0.91629815 2.7290001
0.11244389 -0.91629815 2.7290001
0.11808787 -0.92301339 2.7490001
0.12232656 -0.91864848 2.7360001
0.16155301 -1.1674491 3.4770002
0.16682966 -1.1617411 3.4600003
0.17494497 -1.1755074 3.5010002
0.183773 -1.1929671 3.5530002
0.1902165 -1.1943102 3.5570002
0.19849662 -1.2067335 3.5940001
0.20405732 -1.2023685 3.5810001
-0.64279306 -1.0982249 3.2880001
-0.63547814 -1.0955528 3.2800002
-0.62761533 -1.0918787 3.2690001
-0.62759078 -1.101899 3.2990003
-0.62142956 -1.101231 3.2970002
-0.61564881 -1.101231 3.2970002
-0.62466621 -1.1279517 3.3770001
-0.61874521 -1.1279517 3.3770001
-0.46420026 -0.85439759 2.5580001
-0.45971522 -0.85439759 2.5580001
-0.45523021 -0.85439759 2.5580001
-0.45074517 -0.85439759 2.5580001
-0.4473069 -0.85640162 2.5640001
-0.44281134 -0.85640162 2.5640001
-0.4372901 -0.85439759 2.5580001
-0.43280506 -0.85439759 2.5580001
-0.43166891 -0.86107779 2.5780001
-0.42764589 -0.8620798 2.5810001
-0.42328447 -0.86241382 2.582
-0.41875735 -0.86241382 2.582
-0.41423026 -0.86241382 2.582
-0.40970317 -0.86241382 2.582
-0.40517604 -0.86241382 2.582
-0.40002826 -0.86107779 2.5780001
-0.39243984 -0.85439759 2.5580001
-0.38856146 -0.85573363 2.562
-0.38706762 -0.86241382 2.582
-0.38254052 -0.86241382 2.582
-0.3780134 -0.86241382 2.582
-0.37059331 -0.85573363 2.562
-0.36695865 -0.85773766 2.5680001
-0.36457324 -0.86274785 2.5830002
-0.35948682 -0.86141181 2.5790002
-0.35496497 -0.86141181 2.5790002
-0.34949192 -0.8590737 2.572
-0.34753084 -0.86541992 2.5910001
-0.34351745 -0.86675596 2.595
-0.33922881 -0.86742395 2.5970001
-0.3346754 -0.86742395 2.5970001
-0.32986775 -0.86675596 2.595
-0.32519248 -0.86642194 2.5940001
-0.32064435 -0.86642194 2.5940001
-0.31597432 -0.86608791 2.5930002
-0.31214857 -0.868092 2.5990002
-0.3074733 -0.86775798 2.598
-0.30268493 -0.86708993 2.5960002
-0.29641065 -0.8620798 2.5810001
-0.29211146 -0.86274785 2.5830002
-0.28735992 -0.8620798 2.5810001
-0.28261542 -0.86141181 2.5790002
-0.28003451 -0.86742395 2.5970001
-0.27569327 -0.868092 2.5990002
-0.27113634 -0.868092 2.5990002
-0.26504087 -0.86308181 2.5840001
-0.26030862 -0.86241382 2.582
-0.25617778 -0.86374986 2.5860002
-0.25203291 -0.8650859 2.5900002
-0.24720509 -0.86408389 2.5870001
-0.24238782 -0.86308181 2.5840001
-0.23785719 -0.86308181 2.5840001
-0.23513252 -0.86976206 2.6040001
-0.23056684 -0.86976206 2.6040001
-0.22591437 -0.86942804 2.6030002
-0.22126541 -0.86909401 2.6020002
-0.21711965 -0.87076408 2.6070001
-0.2125487 -0.87076408 2.6070001
-0.20797777 -0.87076408 2.6070001
-0.20340683 -0.87076408 2.6070001
-0.20036128 -0.87744427 2.6270001
-0.19575529 -0.87744427 2.6270001
-0.19114928 -0.87744427 2.6270001
-0.18654327 -0.87744427 2.6270001
-0.18325314 -0.88379043 2.6460001
-0.17861381 -0.88379043 2.6460001
-0.173843 -0.88312244 2.6440001
-0.16818324 -0.87777829 2.628
-0.1633265 -0.87644225 2.6240001
-0.15860479 -0.8757742 2.6220002
-0.15400754 -0.8757742 2.6220002
-0.14935331 -0.87544018 2.6210001
-0.14475782 -0.87544018 2.6210001
-0.14016235 -0.87544018 2.6210001
-0.13654959 -0.88178641 2.6400001
-0.13187084 -0.88145238 2.6390002
-0.12734021 -0.88212043 2.641
-0.12270966 -0.88212043 2.641
-0.11807911 -0.88212043 2.641
-0.11327673 -0.88078439 2.6370001
-0.10795274 -0.87510622 2.6200001
-0.103359 -0.87510622 2.6200001
-0.098689869 -0.87443817 2.618
-0.094099648 -0.87443817 2.618
-0.089714557 -0.87644225 2.6240001
-0.085470617 -0.88011634 2.6350002
-0.081096053 -0.88278842 2.6430001
-0.07704059 -0.88946861 2.6630001
-0.071990989 -0.88479251 2.6490002
-0.067143023 -0.88212043 2.641
-0.06241779 -0.88078439 2.6370001
-0.057794251 -0.88078439 2.6370001
-0.053170711 -0.88078439 2.6370001
-0.048547171 -0.88078439 2.6370001
-0.043906972 -0.88045037 2.6360002
-0.039613061 -0.88779855 2.6580002
-0.0349527 -0.88779855 2.6580002
-0.030406306 -0.89113867 2.6680002
-0.025844133 -0.89514679 2.6800001
-0.021160981 -0.89581484 2.6820002
-0.016569 -0.90182698 2.7
-0.01184815 -0.90282905 2.7030001
-0.00710889 -0.90282905 2.7030001
-0.0023713834 -0.90349704 2.7050002
0.0023713834 -0.90349704 2.7050002
0.0071141501 -0.90349704 2.7050002
0.011856916 -0.90349704 2.7050002
0.016599683 -0.90349704 2.7050002
0.021342451 -0.90349704 2.7050002
0.025969496 -0.89948893 2.6930001
0.030827982 -0.90349704 2.7050002
0.035570748 -0.90349704 2.7050002
0.040313516 -0.90349704 2.7050002
0.045422729 -0.91084528 2.7270002
0.050204068 -0.91084528 2.7270002
0.054985411 -0.91084528 2.7270002
0.060248915 -0.91819346 2.7490001
0.065068826 -0.91819346 2.7490001
0.069253162 -0.90984321 2.7240002
0.074029237 -0.90984321 2.7240002
0.078197792 -0.90282905 2.7030001
0.083090469 -0.90449905 2.7080002
0.088519663 -0.91151327 2.7290001
0.093748979 -0.91585541 2.7420001
0.098880112 -0.91886151 2.7510002
0.10389201 -0.92053157 2.756
0.10765905 -0.91151327 2.7290001
0.11244389 -0.91151327 2.7290001
0.11722874 -0.91151327 2.7290001
0.12313134 -0.91986352 2.7540002
0.16313276 -1.1727091 3.5110002
0.16928871 -1.1727091 3.5110002
0.17719361 -1.1843995 3.5460002
0.18341094 -1.1843995 3.5460002
0.19000259 -1.1867375 3.5530002
0.19822046 -1.1987619 3.5890002
0.20417129 -1.1967578 3.5830002
-0.64201105 -1.0911309 3.2840002
-0.63470316 -1.0884728 3.2760003
-0.62703931 -1.0851502 3.2660003
-0.62721026 -1.0954503 3.2970002
-0.62142956 -1.0954503 3.2970002
-0.62143743 -1.1057502 3.3280001
-0.62466621 -1.1220307 3.3770001
-0.47234976 -0.85655767 2.5780001
-0.46782964 -0.85655767 2.5780001
-0.45971522 -0.84991252 2.5580001
-0.45523021 -0.84991252 2.5580001
-0.45074517 -0.84991252 2.5580001
-0.44957483 -0.85622543 2.5770001
-0.4450565 -0.85622543 2.5770001
-0.4372901 -0.84991252 2.5580001
-0.43280506 -0.84991252 2.5580001
-0.43166891 -0.85655767 2.5780001
-0.42764589 -0.85755444 2.5810001
-0.42328447 -0.85788673 2.582
-0.41875735 -0.85788673 2.582
-0.41423026 -0.85788673 2.582
-0.40970317 -0.85788673 2.582
-0.40517604 -0.85788673 2.582
-0.40002826 -0.85655767 2.5780001
-0.39243984 -0.84991252 2.5580001
-0.38886479 -0.85190606 2.5640001
-0.38736743 -0.8585512 2.5840001
-0.38283682 -0.8585512 2.5840001
-0.3780134 -0.85788673 2.582
-0.37348631 -0.85788673 2.582
-0.36967367 -0.85954797 2.5870001
-0.36725494 -0.86453182 2.6020002
-0.36227462 -0.86353505 2.5990002
-0.35771769 -0.86353505 2.5990002
-0.35234547 -0.86154151 2.5930002
-0.34779909 -0.86154151 2.5930002
-0.34351745 -0.86220604 2.595
-0.33909819 -0.86253828 2.5960002
-0.33441764 -0.86220604 2.595
-0.32961351 -0.86154151 2.5930002
-0.32506713 -0.86154151 2.5930002
-0.32052073 -0.86154151 2.5930002
-0.31597432 -0.86154151 2.5930002
-0.31214857 -0.86353505 2.5990002
-0.30759165 -0.86353505 2.5990002
-0.30303472 -0.86353505 2.5990002
-0.29721454 -0.85988027 2.5880001
-0.29312927 -0.86120927 2.592
-0.28836197 -0.86054474 2.5900002
-0.28447834 -0.86253828 2.5960002
-0.28057367 -0.86453182 2.6020002
-0.27611756 -0.86486411 2.6030002
-0.27155364 -0.86486411 2.6030002
-0.26545116 -0.85988027 2.5880001
-0.26071191 -0.85921574 2.5860002
-0.25617778 -0.85921574 2.5860002
-0.25183827 -0.85988027 2.5880001
-0.24902067 -0.86586088 2.6060002
-0.24417007 -0.86486411 2.6030002
-0.23785719 -0.8585512 2.5840001
-0.23459074 -0.86320281 2.598
-0.23021266 -0.86386734 2.6000001
-0.22495967 -0.86120927 2.592
-0.22024496 -0.86054474 2.5900002
-0.21695308 -0.86552858 2.605
-0.2125487 -0.86619312 2.6070001
-0.20797777 -0.86619312 2.6070001
-0.20317276 -0.86519635 2.6040001
-0.20013247 -0.87184149 2.6240001
-0.19553173 -0.87184149 2.6240001
-0.19107652 -0.87250602 2.6260002
-0.18654327 -0.87283826 2.6270001
-0.18325314 -0.87915111 2.6460001
-0.17861381 -0.87915111 2.6460001
-0.173843 -0.87848663 2.6440001
-0.16843922 -0.87449956 2.6320002
-0.1633265 -0.87184149 2.6240001
-0.15860479 -0.87117696 2.6220002
-0.15400754 -0.87117696 2.6220002
-0.14935331 -0.87084472 2.6210001
-0.14475782 -0.87084472 2.6210001
-0.14123188 -0.87748986 2.641
-0.13660133 -0.87748986 2.641
-0.13187084 -0.87682533 2.6390002
-0.12724379 -0.87682533 2.6390002
-0.12270966 -0.87748986 2.641
-0.11807911 -0.87748986 2.641
-0.11233168 -0.86885118 2.615
-0.10696385 -0.86253828 2.5960002
-0.10331955 -0.87018019 2.6190002
-0.098727569 -0.87018019 2.6190002
-0.09413559 -0.87018019 2.6190002
-0.089646183 -0.87117696 2.6220002
-0.085600361 -0.87682533 2.6390002
-0.081617668 -0.88380271 2.6600001
-0.07704059 -0.88479948 2.6630001
-0.071990989 -0.88014793 2.6490002
-0.067092173 -0.87682533 2.6390002
-0.06241779 -0.8761608 2.6370001
-0.057794251 -0.8761608 2.6370001
-0.053150546 -0.87582856 2.6360002
-0.04851035 -0.87549633 2.6350002
-0.043973599 -0.87715757 2.6400001
-0.039613061 -0.88313824 2.6580002
-0.0349527 -0.88313824 2.6580002
-0.030406306 -0.88646078 2.6680002
-0.025844133 -0.89044785 2.6800001
-0.021184649 -0.89210916 2.6850002
-0.016599683 -0.8987543 2.7050002
-0.011856916 -0.8987543 2.7050002
-0.0071141501 -0.8987543 2.7050002
-0.0023713834 -0.8987543 2.7050002
0.0023713834 -0.8987543 2.7050002
0.0071141501 -0.8987543 2.7050002
0.011856916 -0.8987543 2.7050002
0.016599683 -0.8987543 2.7050002
0.021342451 -0.8987543 2.7050002
0.026065931 -0.89808977 2.7030001
0.030805189 -0.89808977 2.7030001
0.035570748 -0.8987543 2.7050002
0.040313516 -0.8987543 2.7050002
0.045422729 -0.90606391 2.7270002
0.050204068 -0.90606391 2.7270002
0.054985411 -0.90606391 2.7270002
0.060248915 -0.91337359 2.7490001
0.065068826 -0.91337359 2.7490001
0.069253162 -0.90506715 2.7240002
0.074029237 -0.90506715 2.7240002
0.078284577 -0.89908653 2.7060001
0.083121151 -0.9000833 2.7090001
0.088487223 -0.90639621 2.7280002
0.093304507 -0.90672845 2.7290001
0.098916054 -0.91437036 2.7520001
0.10381662 -0.91503483 2.7540002
0.1077774 -0.90772521 2.7320001
0.11256751 -0.90772521 2.7320001
0.11735761 -0.90772521 2.7320001
0.12313134 -0.91503483 2.7540002
0.16475898 -1.1781821 3.5460002
0.1709763 -1.1781821 3.5460002
0.17719361 -1.1781821 3.5460002
0.1853247 -1.1904756 3.5830002
0.1918208 -1.1918046 3.5870001
0.19888324 -1.1964562 3.6010001
0.20519698 -1.1964562 3.6010001
-0.64181554 -1.0850425 3.2830002
-0.63567185 -1.0843815 3.2810001
-0.62703931 -1.0794239 3.2660003
-0.62721026 -1.0896695 3.2970002
-0.62727255 -1.099915 3.3280001
-0.62759954 -1.1108217 3.3610001
-0.62466621 -1.1161097 3.3770001
-0.47234976 -0.85203761 2.5780001
-0.46782964 -0.85203761 2.5780001
-0.46330956 -0.85203761 2.5780001
-0.45878947 -0.85203761 2.5780001
-0.45145002 -0.84674954 2.562
-0.44992375 -0.85236812 2.5790002
-0.44868326 -0.85864764 2.598
-0.44070908 -0.85203761 2.5780001
-0.436189 -0.85203761 2.5780001
-0.43166891 -0.85203761 2.5780001
-0.42764589 -0.85302907 2.5810001
-0.42328447 -0.85335958 2.582
-0.41875735 -0.85335958 2.582
-0.41423026 -0.85335958 2.582
-0.4100205 -0.8540206 2.5840001
-0.40548989 -0.8540206 2.5840001
-0.40111443 -0.8543511 2.585
-0.39336032 -0.84741056 2.5640001
-0.38886479 -0.84741056 2.5640001
-0.38751733 -0.8543511 2.585
-0.38268867 -0.85369009 2.5830002
-0.37772059 -0.85269862 2.5800002
-0.37030399 -0.84608853 2.5600002
-0.36610126 -0.84674954 2.562
-0.36683151 -0.85897815 2.5990002
-0.36199582 -0.85831714 2.5970001
-0.35744241 -0.85831714 2.5970001
-0.352889 -0.85831714 2.5970001
-0.34833559 -0.85831714 2.5970001
-0.34325269 -0.85699517 2.5930002
-0.33831444 -0.85600364 2.5900002
-0.335062 -0.85930866 2.6000001
-0.32986775 -0.85765612 2.595
-0.32506713 -0.85699517 2.5930002
-0.32052073 -0.85699517 2.5930002
-0.31597432 -0.85699517 2.5930002
-0.31130785 -0.85666466 2.592
-0.30759165 -0.85897815 2.5990002
-0.30303472 -0.85897815 2.5990002
-0.2979036 -0.85732561 2.5940001
-0.29426017 -0.85996968 2.6020002
-0.28958666 -0.85963917 2.6010001
-0.28502625 -0.85963917 2.6010001
-0.28068149 -0.86030018 2.6030002
-0.27611756 -0.86030018 2.6030002
-0.27155364 -0.86030018 2.6030002
-0.26586145 -0.85666466 2.592
-0.26131681 -0.85666466 2.592
-0.25657403 -0.85600364 2.5900002
-0.25358987 -0.86129171 2.6060002
-0.24844733 -0.85930866 2.6000001
-0.24426387 -0.86063069 2.6040001
-0.2395141 -0.85996968 2.6020002
-0.23495193 -0.85996968 2.6020002
-0.23038976 -0.85996968 2.6020002
-0.22383142 -0.85236812 2.5790002
-0.21973474 -0.8540206 2.5840001
-0.21653667 -0.85930866 2.6000001
-0.2138532 -0.86691022 2.6230001
-0.20925419 -0.86691022 2.6230001
-0.2046552 -0.86691022 2.6230001
-0.20005621 -0.86691022 2.6230001
-0.19545722 -0.86691022 2.6230001
-0.19085822 -0.86691022 2.6230001
-0.18767942 -0.87352031 2.6430001
-0.18318388 -0.87418133 2.6450002
-0.17854631 -0.87418133 2.6450002
-0.17377725 -0.87352031 2.6430001
-0.16863121 -0.87087625 2.6350002
-0.16326426 -0.86691022 2.6230001
-0.15854429 -0.8662492 2.6210001
-0.1539488 -0.8662492 2.6210001
-0.14935331 -0.8662492 2.6210001
-0.14586243 -0.8728593 2.641
-0.14123188 -0.8728593 2.641
-0.13660133 -0.8728593 2.641
-0.13197076 -0.8728593 2.641
-0.12714735 -0.87153727 2.6370001
-0.12270966 -0.8728593 2.641
-0.11807911 -0.8728593 2.641
-0.11233168 -0.86426622 2.615
-0.10770551 -0.86393571 2.6140001
-0.10387185 -0.8702153 2.6330001
-0.099481501 -0.87219828 2.6390002
-0.094854459 -0.87219828 2.6390002
-0.089475229 -0.86492723 2.6170001
-0.085600361 -0.87219828 2.6390002
-0.081586979 -0.87880838 2.6590002
-0.07704059 -0.88013035 2.6630001
-0.072045341 -0.87616432 2.651
-0.067092173 -0.87219828 2.6390002
-0.06241779 -0.87153727 2.6370001
-0.057794251 -0.87153727 2.6370001
-0.053150546 -0.87120676 2.6360002
-0.04851035 -0.87087625 2.6350002
-0.043973599 -0.87252879 2.6400001
-0.039613061 -0.87847787 2.6580002
-0.0349527 -0.87847787 2.6580002
-0.030406306 -0.88178289 2.6680002
-0.02586342 -0.88640994 2.6820002
-0.021184649 -0.88740146 2.6850002
-0.016599683 -0.8940115 2.7050002
-0.011856916 -0.8940115 2.7050002
-0.0071141501 -0.8940115 2.7050002
-0.0023713834 -0.8940115 2.7050002
0.0023713834 -0.8940115 2.7050002
0.0071141501 -0.8940115 2.7050002
0.011856916 -0.8940115 2.7050002
0.016599683 -0.8940115 2.7050002
0.021342451 -0.8940115 2.7050002
0.026065931 -0.89335048 2.7030001
0.030805189 -0.89335048 2.7030001
0.035570748 -0.8940115 2.7050002
0.040313516 -0.8940115 2.7050002
0.045422729 -0.90128261 2.7270002
0.050204068 -0.90128261 2.7270002
0.054985411 -0.90128261 2.7270002
0.060248915 -0.90855366 2.7490001
0.065068826 -0.90855366 2.7490001
0.069253162 -0.90029109 2.7240002
0.074029237 -0.90029109 2.7240002
0.078342438 -0.89500302 2.7080002
0.083090469 -0.89500302 2.7080002
0.08845479 -0.90128261 2.7270002
0.093304507 -0.90194356 2.7290001
0.098484732 -0.90557915 2.7400002
0.10340196 -0.90657061 2.743
0.1077774 -0.90293509 2.7320001
0.11256751 -0.90293509 2.7320001
0.11735761 -0.90293509 2.7320001
0.12214772 -0.90293509 2.7320001
0.16475898 -1.1719648 3.5460002
0.1709763 -1.1719648 3.5460002
0.17719361 -1.1719648 3.5460002
0.1853247 -1.1841935 3.5830002
0.1918208 -1.1855154 3.5870001
0.19915938 -1.191795 3.6060002
0.2054819 -1.191795 3.6060002
-0.64904892 -1.09145 3.3200002
-0.64400285 -1.092765 3.3240001
-0.63855875 -1.0934225 3.3260002
-0.63405883 -1.0957237 3.3330002
-0.63537729 -1.1082163 3.3710001
-0.62797296 -1.1055863 3.3630002
-0.62466621 -1.1101887 3.3770001
-0.46868527 -0.8409425 2.5580001
-0.46420026 -0.8409425 2.5580001
-0.46330956 -0.84751749 2.5780001
-0.45878947 -0.84751749 2.5780001
-0.45479801 -0.84850377 2.5810001
-0.45323843 -0.85409248 2.598
-0.44868326 -0.85409248 2.598
-0.44070908 -0.84751749 2.5780001
-0.436189 -0.84751749 2.5780001
-0.43166891 -0.84751749 2.5780001
-0.42764589 -0.84850377 2.5810001
-0.42328447 -0.84883249 2.582
-0.41875735 -0.84883249 2.582
-0.41423026 -0.84883249 2.582
-0.40716434 -0.8435725 2.5660002
-0.40235141 -0.842915 2.5640001
-0.40126961 -0.85014749 2.5860002
-0.39351374 -0.84324372 2.5650001
-0.38901645 -0.84324372 2.5650001
-0.38766727 -0.85014749 2.5860002
-0.38254052 -0.84883249 2.582
-0.37742779 -0.84751749 2.5780001
-0.3700147 -0.8409425 2.5580001
-0.36552966 -0.8409425 2.5580001
-0.36654922 -0.85376376 2.5970001
-0.36199582 -0.85376376 2.5970001
-0.35744241 -0.85376376 2.5970001
-0.35261723 -0.85310626 2.595
-0.34779909 -0.85244876 2.5930002
-0.34298795 -0.85179126 2.5910001
-0.33726946 -0.84883249 2.582
-0.33222687 -0.84751749 2.5780001
-0.32770675 -0.84751749 2.5780001
-0.32293594 -0.84685999 2.5760002
-0.31829575 -0.84653127 2.575
-0.31414649 -0.84751749 2.5780001
-0.31214857 -0.85442126 2.5990002
-0.30759165 -0.85442126 2.5990002
-0.30303472 -0.85442126 2.5990002
-0.29847783 -0.85442126 2.5990002
-0.29448634 -0.85606498 2.6040001
-0.28980935 -0.85573626 2.6030002
-0.28524542 -0.85573626 2.6030002
-0.28089714 -0.85639375 2.605
-0.27611756 -0.85573626 2.6030002
-0.27155364 -0.85573626 2.6030002
-0.26893854 -0.86198246 2.6220002
-0.26434129 -0.86198246 2.6220002
-0.25964499 -0.86165375 2.6210001
-0.25466028 -0.86033875 2.6170001
-0.24892512 -0.85639375 2.605
-0.24407627 -0.85540748 2.6020002
-0.2395141 -0.85540748 2.6020002
-0.23495193 -0.85540748 2.6020002
-0.23038976 -0.85540748 2.6020002
-0.22582757 -0.85540748 2.6020002
-0.22092526 -0.85409248 2.598
-0.21637011 -0.85409248 2.598
-0.21222259 -0.85573626 2.6030002
-0.20893508 -0.86099625 2.6190002
-0.2046552 -0.86231124 2.6230001
-0.20005621 -0.86231124 2.6230001
-0.19545722 -0.86231124 2.6230001
-0.19231349 -0.86888623 2.6430001
-0.18625923 -0.86231124 2.6230001
-0.18166023 -0.86231124 2.6230001
-0.1784113 -0.86888623 2.6430001
-0.17364575 -0.86822873 2.641
-0.16875921 -0.86691374 2.6370001
-0.16326426 -0.86231124 2.6230001
-0.15866527 -0.86231124 2.6230001
-0.1539488 -0.86165375 2.6210001
-0.14935331 -0.86165375 2.6210001
-0.14586243 -0.86822873 2.641
-0.14123188 -0.86822873 2.641
-0.13660133 -0.86822873 2.641
-0.13197076 -0.86822873 2.641
-0.12714735 -0.86691374 2.6370001
-0.12270966 -0.86822873 2.641
-0.11781085 -0.86625624 2.6350002
-0.11228873 -0.85935247 2.6140001
-0.10770551 -0.85935247 2.6140001
-0.1034379 -0.86198246 2.6220002
-0.099406108 -0.86691374 2.6370001
-0.094782569 -0.86691374 2.6370001
-0.089475229 -0.86033875 2.6170001
-0.085470617 -0.86625624 2.6350002
-0.081586979 -0.87414622 2.6590002
-0.07704059 -0.87546122 2.6630001
-0.071909457 -0.86987251 2.6460001
-0.067092173 -0.86757123 2.6390002
-0.06241779 -0.86691374 2.6370001
-0.057794251 -0.86691374 2.6370001
-0.053130385 -0.86625624 2.6350002
-0.04849194 -0.86592752 2.6340001
-0.043973599 -0.86790001 2.6400001
-0.039613061 -0.8738175 2.6580002
-0.0349527 -0.8738175 2.6580002
-0.030406306 -0.877105 2.6680002
-0.02586342 -0.88170749 2.6820002
-0.021184649 -0.88269377 2.6850002
-0.016599683 -0.88926876 2.7050002
-0.011856916 -0.88926876 2.7050002
-0.0071141501 -0.88926876 2.7050002
-0.0023713834 -0.88926876 2.7050002
0.0023713834 -0.88926876 2.7050002
0.0071141501 -0.88926876 2.7050002
0.011856916 -0.88926876 2.7050002
0.016599683 -0.88926876 2.7050002
0.021303 -0.88762498 2.7
0.026037 -0.88762498 2.7
0.030805189 -0.88861126 2.7030001
0.035570748 -0.88926876 2.7050002
0.04064139 -0.89650124 2.7270002
0.045422729 -0.89650124 2.7270002
0.050204068 -0.89650124 2.7270002
0.054985411 -0.89650124 2.7270002
0.060248915 -0.90373373 2.7490001
0.064997822 -0.90274751 2.7460001
0.069329433 -0.89650124 2.7270002
0.07345853 -0.88861126 2.7030001
0.078342438 -0.89025497 2.7080002
0.083090469 -0.89025497 2.7080002
0.088519663 -0.89715874 2.7290001
0.093133561 -0.89551497 2.7240002
0.097909637 -0.89551497 2.7240002
0.10298729 -0.89814502 2.7320001
0.1077774 -0.89814502 2.7320001
0.11256751 -0.89814502 2.7320001
0.11735761 -0.89814502 2.7320001
0.12214772 -0.89814502 2.7320001
0.16647813 -1.1779113 3.5830002
0.17367643 -1.1841575 3.6020002
0.17999195 -1.1841575 3.6020002
0.1853247 -1.1779113 3.5830002
0.1918208 -1.1792263 3.5870001
0.19888324 -1.1838287 3.6010001
0.20519698 -1.1838287 3.6010001
-0.64904892 -1.0856289 3.3200002
-0.64400285 -1.086937 3.3240001
-0.63951868 -1.0892259 3.3310001
-0.6352002 -1.0918418 3.3390002
-0.62934583 -1.0918418 3.3390002
-0.62797296 -1.0996898 3.3630002
-0.61856198 -1.0934769 3.3440001
-0.46868527 -0.83645749 2.5580001
-0.46420026 -0.83645749 2.5580001
-0.46330956 -0.84299737 2.5780001
-0.45878947 -0.84299737 2.5780001
-0.45074517 -0.83645749 2.5580001
-0.44992375 -0.84332442 2.5790002
-0.44868326 -0.84953731 2.598
-0.44070908 -0.84299737 2.5780001
-0.436189 -0.84299737 2.5780001
-0.43166891 -0.84299737 2.5780001
-0.42764589 -0.8439784 2.5810001
-0.42328447 -0.8443054 2.582
-0.41875735 -0.8443054 2.582
-0.41519284 -0.84626734 2.5880001
-0.40716434 -0.83907342 2.5660002
-0.40266526 -0.83907342 2.5660002
-0.40157995 -0.84626734 2.5880001
-0.39382058 -0.83940041 2.5670002
-0.38856146 -0.83776546 2.562
-0.38706762 -0.8443054 2.582
-0.38254052 -0.8443054 2.582
-0.37742779 -0.84299737 2.5780001
-0.3729077 -0.84299737 2.5780001
-0.36838761 -0.84299737 2.5780001
-0.36654922 -0.84921032 2.5970001
-0.36199582 -0.84921032 2.5970001
-0.35744241 -0.84921032 2.5970001
-0.35207373 -0.84724838 2.5910001
-0.34753084 -0.84724838 2.5910001
-0.34298795 -0.84724838 2.5910001
-0.33818382 -0.84659439 2.5890002
-0.33261347 -0.8439784 2.5810001
-0.32986775 -0.84855634 2.595
-0.32531786 -0.84855634 2.595
-0.32064435 -0.84822935 2.5940001
-0.31670547 -0.8498643 2.5990002
-0.31262898 -0.85117233 2.6030002
-0.30794671 -0.85084534 2.6020002
-0.30338451 -0.85084534 2.6020002
-0.29882234 -0.85084534 2.6020002
-0.29426017 -0.85084534 2.6020002
-0.28980935 -0.85117233 2.6030002
-0.28524542 -0.85117233 2.6030002
-0.28068149 -0.85117233 2.6030002
-0.27611756 -0.85117233 2.6030002
-0.27155364 -0.85117233 2.6030002
-0.26893854 -0.85738528 2.6220002
-0.26434129 -0.85738528 2.6220002
-0.25964499 -0.85705829 2.6210001
-0.25466028 -0.85575026 2.6170001
-0.25074068 -0.85803926 2.6240001
-0.24585854 -0.85705829 2.6210001
-0.24107894 -0.85640424 2.6190002
-0.23477133 -0.85019135 2.6000001
-0.23038976 -0.85084534 2.6020002
-0.22582757 -0.85084534 2.6020002
-0.22092526 -0.84953731 2.598
-0.21628681 -0.84921032 2.5970001
-0.21173342 -0.84921032 2.5970001
-0.20757888 -0.85084534 2.6020002
-0.20348485 -0.85280728 2.608
-0.1995986 -0.85575026 2.6170001
-0.19530818 -0.85705829 2.6210001
-0.19231349 -0.86425221 2.6430001
-0.1861172 -0.85705829 2.6210001
-0.18166023 -0.85771227 2.6230001
-0.1784113 -0.86425221 2.6430001
-0.17377725 -0.86425221 2.6430001
-0.16914319 -0.86425221 2.6430001
-0.16376221 -0.8603282 2.631
-0.15866527 -0.85771227 2.6230001
-0.1539488 -0.85705829 2.6210001
-0.14935331 -0.85705829 2.6210001
-0.14586243 -0.86359817 2.641
-0.14123188 -0.86359817 2.641
-0.13660133 -0.86359817 2.641
-0.13197076 -0.86359817 2.641
-0.12695448 -0.86098224 2.6330001
-0.12252381 -0.8622902 2.6370001
-0.11745317 -0.85902023 2.6270001
-0.11228873 -0.85476929 2.6140001
-0.10770551 -0.85476929 2.6140001
-0.1031223 -0.85476929 2.6140001
-0.099406108 -0.8622902 2.6370001
-0.094782569 -0.8622902 2.6370001
-0.090159029 -0.8622902 2.6370001
-0.085794985 -0.86490619 2.6450002
-0.08128015 -0.86621416 2.6490002
-0.076635569 -0.86621416 2.6490002
-0.07166487 -0.8622902 2.6370001
-0.067066751 -0.86261719 2.638
-0.06241779 -0.8622902 2.6370001
-0.057794251 -0.8622902 2.6370001
-0.053130385 -0.86163622 2.6350002
-0.048933778 -0.86915714 2.6580002
-0.044323388 -0.87013811 2.661
-0.039613061 -0.86915714 2.6580002
-0.0349527 -0.86915714 2.6580002
-0.030406306 -0.87242711 2.6680002
-0.025892349 -0.87798607 2.6850002
-0.021184649 -0.87798607 2.6850002
-0.016599683 -0.88452595 2.7050002
-0.011856916 -0.88452595 2.7050002
-0.0071141501 -0.88452595 2.7050002
-0.0023713834 -0.88452595 2.7050002
0.0023713834 -0.88452595 2.7050002
0.0071141501 -0.88452595 2.7050002
0.011856916 -0.88452595 2.7050002
0.01658741 -0.88387197 2.7030001
0.021303 -0.882891 2.7
0.026037 -0.882891 2.7
0.031021727 -0.89008492 2.7220001
0.035794299 -0.89008492 2.7220001
0.040566873 -0.89008492 2.7220001
0.045339447 -0.89008492 2.7220001
0.05011202 -0.89008492 2.7220001
0.054985411 -0.89171988 2.7270002
0.059766751 -0.89171988 2.7270002
0.06454809 -0.89171988 2.7270002
0.069329433 -0.89171988 2.7270002
0.073594414 -0.88550699 2.7080002
0.078689598 -0.88943094 2.72
0.083427981 -0.88910395 2.7190001
0.088552102 -0.89270091 2.73
0.093201943 -0.89139289 2.7260001
0.09808936 -0.89237392 2.7290001
0.10306269 -0.89400887 2.7340002
0.10821135 -0.89695185 2.743
0.11302074 -0.89695185 2.743
0.11735761 -0.89335489 2.7320001
0.12214772 -0.89335489 2.7320001
0.16647813 -1.1716291 3.5830002
0.17367643 -1.177842 3.6020002
0.17999195 -1.177842 3.6020002
0.1853247 -1.1716291 3.5830002
0.19230209 -1.17588 3.5960002
0.19888324 -1.177515 3.6010001
0.20519698 -1.177515 3.6010001
-0.64787596 -1.0778564 3.3140001
