# .PCD v0.7 - Point Cloud Data file format
VERSION 0.7
FIELDS x y z
SIZE 4 4 4
TYPE F F F
COUNT 1 1 1
WIDTH 523
HEIGHT 1
VIEWPOINT 0 0 0 1 0 0 0
POINTS 523
DATA ascii
0.59006155 0.013972313 1.2260001
0.59172809 0.013960917 1.225
0.58951277 0.013858346 1.2160001
0.59018517 0.013824156 1.2130001
0.59231192 0.013824156 1.2130001
0.5949288 0.013835553 1.2140001
0.59459829 0.01377857 1.2090001
0.59721166 0.013789967 1.21
0.59636128 0.013721586 1.2040001
0.58958024 0.016108749 1.225
0.59172809 0.016108749 1.225
0.58951277 0.015990401 1.2160001
0.58969861 0.0159378 1.212
0.59182364 0.0159378 1.212
0.59443873 0.01595095 1.2130001
0.59459829 0.015898351 1.2090001
0.59671807 0.015898351 1.2090001
0.59636128 0.015832599 1.2040001
0.58958024 0.018256582 1.225
0.59172809 0.018256582 1.225
0.58951277 0.018122453 1.2160001
0.58969861 0.018062839 1.212
0.59182364 0.018062839 1.212
0.59443873 0.018077742 1.2130001
0.59459829 0.01801813 1.2090001
0.59671807 0.01801813 1.2090001
0.59636128 0.017943613 1.2040001
0.59198672 0.0204877 1.23
0.59172809 0.020404417 1.225
0.59145194 0.020321133 1.22
0.59213132 0.020271163 1.217
0.59231192 0.020204537 1.2130001
0.59443873 0.020204537 1.2130001
0.59656554 0.020204537 1.2130001
0.59671807 0.02013791 1.2090001
0.59636128 0.020054627 1.2040001
0.58958024 0.02255225 1.225
0.59172809 0.02255225 1.225
0.59145194 0.0224602 1.22
0.59213132 0.022404971 1.217
0.59231192 0.022331329 1.2130001
0.59443873 0.022331329 1.2130001
0.5941065 0.022239279 1.2080001
0.59622449 0.022239279 1.2080001
0.59586596 0.022147229 1.2030001
0.58958024 0.024700083 1.225
0.59172809 0.024700083 1.225
0.58951277 0.024518613 1.2160001
0.58969861 0.02443796 1.212
0.59182364 0.02443796 1.212
0.59394866 0.02443796 1.212
0.5941065 0.024357306 1.2080001
0.59671807 0.024377469 1.2090001
0.59636128 0.024276653 1.2040001
0.58958024 0.026847916 1.225
0.58931285 0.026738333 1.22
0.58951277 0.026650667 1.2160001
0.58969861 0.026563 1.212
0.59182364 0.026563 1.212
0.59198844 0.026475333 1.2080001
0.5941065 0.026475333 1.2080001
0.59425026 0.026387667 1.2040001
0.59190339 0.026190417 1.1950001
0.58958024 0.02899575 1.225
0.58931285 0.0288774 1.22
0.58951277 0.02878272 1.2160001
0.58969861 0.02868804 1.212
0.59231192 0.02871171 1.2130001
0.59247851 0.02861703 1.2090001
0.5941065 0.02859336 1.2080001
0.58980817 0.028285651 1.1950001
0.59190339 0.028285651 1.1950001
0.59198672 0.031270701 1.23
0.59172809 0.031143583 1.225
0.59145194 0.031016467 1.22
0.59213132 0.030940196 1.217
0.59231192 0.030838503 1.2130001
0.59247851 0.03073681 1.2090001
0.5941065 0.030711386 1.2080001
0.58980817 0.030380882 1.1950001
0.59190339 0.030380882 1.1950001
0.58958024 0.033291418 1.225
0.59172809 0.033291418 1.225
0.59193671 0.03318271 1.2210001
0.59018517 0.032965295 1.2130001
0.59231192 0.032965295 1.2130001
0.59247851 0.032856591 1.2090001
0.5941065 0.032829411 1.2080001
0.59375668 0.032693531 1.2030001
0.59190339 0.032476116 1.1950001
0.58958024 0.035439249 1.225
0.59172809 0.035439249 1.225
0.59193671 0.03532353 1.2210001
0.59018517 0.035092089 1.2130001
0.59035873 0.034976371 1.2090001
0.59247851 0.034976371 1.2090001
0.5941065 0.03494744 1.2080001
0.59375668 0.034802791 1.2030001
0.59190339 0.03457135 1.1950001
0.58958024 0.037587084 1.225
0.59172809 0.037587084 1.225
0.59145194 0.037433665 1.22
0.59018517 0.037218884 1.2130001
0.58987039 0.037065465 1.2080001
0.59198844 0.037065465 1.2080001
0.5941065 0.037065465 1.2080001
0.59375668 0.03691205 1.2030001
0.58942682 0.036513165 1.1900001
0.58958024 0.039734915 1.225
0.59172809 0.039734915 1.225
0.59145194 0.039572734 1.22
0.59018517 0.039345678 1.2130001
0.59035873 0.03921593 1.2090001
0.59198844 0.039183494 1.2080001
0.5941065 0.039183494 1.2080001
0.59375668 0.039021309 1.2030001
0.58942682 0.038599633 1.1900001
0.58958024 0.04188275 1.225
0.59172809 0.04188275 1.225
0.59145194 0.0417118 1.22
0.59018517 0.041472469 1.2130001
0.59035873 0.041335709 1.2090001
0.59198844 0.041301519 1.2080001
0.5941065 0.041301519 1.2080001
0.58931464 0.04082286 1.194
0.59140807 0.04082286 1.194
0.5910241 0.044138413 1.228
0.59172809 0.044030584 1.225
0.59145194 0.043850865 1.22
0.59164482 0.043707091 1.2160001
0.59182364 0.043563321 1.212
0.59394866 0.043563321 1.212
0.59607369 0.043563321 1.212
0.58931464 0.042916339 1.194
0.59140807 0.042916339 1.194
0.5910241 0.046291508 1.228
0.59172809 0.046178415 1.225
0.59145194 0.045989934 1.22
0.59164482 0.045839146 1.2160001
0.59182364 0.045688361 1.212
0.59394866 0.045688361 1.212
0.59607369 0.045688361 1.212
0.58931464 0.045009818 1.194
0.59190339 0.045047518 1.1950001
0.59198672 0.048523501 1.23
0.59221113 0.048365701 1.2260001
0.59193671 0.048168451 1.2210001
0.59213132 0.048010651 1.217
0.59426516 0.048010651 1.217
0.59590888 0.0479712 1.2160001
0.59804094 0.0479712 1.2160001
0.59246796 0.050721303 1.2310001
0.59269416 0.050556488 1.2270001
0.59484553 0.050556488 1.2270001
0.59553719 0.050432879 1.2240001
0.59768325 0.050432879 1.2240001
0.59246796 0.052879658 1.2310001
0.59462637 0.052879658 1.2310001
0.59678471 0.052879658 1.2310001
0.60040271 0.053008527 1.2340001
0.6025663 0.053008527 1.2340001
0.59150541 0.054948591 1.2290001
0.59366024 0.054948591 1.2290001
0.5977543 0.055127431 1.233
0.59198672 0.057149898 1.23
0.59414327 0.057149898 1.23
0.5977543 0.057289291 1.233
0.59391183 0.059499368 1.2340001
0.59391183 0.072481044 1.2340001
0.59391183 0.074644662 1.2340001
0.59607548 0.074644662 1.2340001
0.59391183 0.076808274 1.2340001
0.59607548 0.076808274 1.2340001
0.59391183 0.078971885 1.2340001
0.59607548 0.078971885 1.2340001
0.59391183 0.081135496 1.2340001
0.5951094 0.081004001 1.2320001
0.59343058 0.083231613 1.233
0.5951094 0.083164103 1.2320001
0.49985778 0.068853401 1.0200001
0.50213802 0.068920903 1.021
0.50392818 0.068920903 1.021
0.50522298 0.068853401 1.0200001
0.59343058 0.085393466 1.233
0.5931772 0.085047185 1.228
0.59484553 0.084977932 1.2270001
0.59651029 0.084908672 1.2260001
0.49855769 0.070711054 1.021
0.49985778 0.070641801 1.0200001
0.50164622 0.070641801 1.0200001
0.5034346 0.070641801 1.0200001
0.50472766 0.07057254 1.0190001
0.59343058 0.087555327 1.233
0.5931772 0.087200277 1.228
0.59484553 0.087129273 1.2270001
0.59553719 0.086916238 1.2240001
0.49953431 0.072643228 1.023
0.50132799 0.072643228 1.023
0.50312161 0.072643228 1.023
0.50442171 0.072572216 1.0220001
0.50621361 0.072572216 1.0220001
0.59294927 0.089644425 1.2320001
0.5951094 0.089644425 1.2320001
0.59678471 0.089571662 1.2310001
0.5974834 0.089353375 1.228
0.49953431 0.074436888 1.023
0.50132799 0.074436888 1.023
0.50459707 0.074655183 1.026
0.5049153 0.074436888 1.023
0.50670892 0.074436888 1.023
0.59198672 0.0916555 1.23
0.59414327 0.0916555 1.23
0.59629989 0.0916555 1.23
0.5984565 0.0916555 1.23
0.49806941 0.076007001 1.0200001
0.50034785 0.076081514 1.021
0.50410527 0.076379582 1.0250001
0.50540882 0.076305069 1.024
0.50720423 0.076305069 1.024
0.59246796 0.093888372 1.2310001
0.59414327 0.093812101 1.23
0.59387589 0.09343075 1.225
0.59699684 0.093583286 1.2270001
0.49855769 0.077871673 1.021
0.50034785 0.077871673 1.021
0.50361341 0.07810048 1.024
0.50540882 0.07810048 1.024
0.50720423 0.07810048 1.024
0.5910241 0.095812656 1.228
0.59172809 0.095578581 1.225
0.59387589 0.095578581 1.225
0.59456408 0.095344514 1.222
0.49806941 0.079583801 1.0200001
0.50034785 0.079661824 1.021
0.50410527 0.079973914 1.0250001
0.50392818 0.079661824 1.021
0.50670892 0.079817869 1.023
0.5910241 0.097965747 1.228
0.59221113 0.097806193 1.2260001
0.59436071 0.097806193 1.2260001
0.59456408 0.097487085 1.222
0.49806941 0.081372201 1.0200001
0.50034785 0.081451975 1.021
0.50410527 0.081771083 1.0250001
0.50392818 0.081451975 1.021
0.50670892 0.081611529 1.023
0.59150541 0.10020037 1.2290001
0.59366024 0.10020037 1.2290001
0.59484553 0.10003731 1.2270001
0.59505063 0.099711187 1.223
0.49855769 0.083242126 1.021
0.49887767 0.082997538 1.018
0.50115436 0.08307907 1.0190001
0.5049153 0.083405189 1.023
0.50670892 0.083405189 1.023
0.58958024 0.10202208 1.225
0.59172809 0.10202208 1.225
0.59387589 0.10202208 1.225
0.59359097 0.10160567 1.22
0.59573007 0.10160567 1.22
0.49887767 0.084782436 1.018
0.50115436 0.084865719 1.0190001
0.50442171 0.085115567 1.0220001
0.50621361 0.085115567 1.0220001
0.58909893 0.10408488 1.2240001
0.58931285 0.10374473 1.22
0.59145194 0.10374473 1.22
0.59359097 0.10374473 1.22
0.59573007 0.10374473 1.22
0.49985778 0.086737402 1.0200001
0.50213802 0.086822435 1.021
0.50442171 0.086907476 1.0220001
0.50621361 0.086907476 1.0220001
0.59294927 0.10692528 1.2320001
0.58979589 0.10597059 1.2210001
0.59145194 0.1058838 1.22
0.59359097 0.1058838 1.22
0.59573007 0.1058838 1.22
0.501818 0.088872962 1.024
0.50410527 0.088959746 1.0250001
0.50442171 0.088699378 1.0220001
0.50621361 0.088699378 1.0220001
0.59343058 0.10917393 1.233
0.59027892 0.10819995 1.222
0.59193671 0.10811141 1.2210001
0.59359097 0.10802287 1.22
0.59573007 0.10802287 1.22
0.50328821 0.090934001 1.0270001
0.50508887 0.090934001 1.0270001
0.50590241 0.090756916 1.0250001
0.50720423 0.090668373 1.024
0.59294927 0.11124549 1.2320001
0.59027892 0.11034252 1.222
0.59242153 0.11034252 1.222
0.59359097 0.11016193 1.22
0.60012478 0.1109746 1.2290001
0.50328821 0.09273468 1.0270001
0.50508887 0.09273468 1.0270001
0.50688952 0.09273468 1.0270001
0.50869024 0.09273468 1.0270001
0.59294927 0.1134056 1.2320001
0.59027892 0.1124851 1.222
0.59242153 0.1124851 1.222
0.59407753 0.11239305 1.2210001
0.60012478 0.11312945 1.2290001
0.50328821 0.094535351 1.0270001
0.50508887 0.094535351 1.0270001
0.50738311 0.094627403 1.028
0.50869024 0.094535351 1.0270001
0.59294927 0.1155657 1.2320001
0.5951094 0.1155657 1.2320001
0.59242153 0.11462767 1.222
0.59456408 0.11462767 1.222
0.59817159 0.11490908 1.225
0.59982938 0.11481528 1.2240001
0.50705612 0.096711233 1.031
0.50738311 0.096429825 1.028
0.50968087 0.096523628 1.029
0.59294927 0.11772581 1.2320001
0.59027892 0.11677025 1.222
0.59242153 0.11677025 1.222
0.59456408 0.11677025 1.222
0.59621835 0.11667469 1.2210001
0.59786916 0.11657913 1.22
0.50754791 0.098614477 1.0320001
0.50787669 0.098327808 1.029
0.50968087 0.098327808 1.029
0.59294927 0.11988592 1.2320001
0.58979589 0.11881551 1.2210001
0.59193671 0.11881551 1.2210001
0.59456408 0.11891282 1.222
0.59524179 0.11862089 1.2190001
0.59737909 0.11862089 1.2190001
0.60000819 0.1187182 1.22
0.50688952 0.099937372 1.0270001
0.50869024 0.099937372 1.0270001
0.59006155 0.12145165 1.2260001
0.59221113 0.12145165 1.2260001
0.59242153 0.12105539 1.222
0.59456408 0.12105539 1.222
0.59573007 0.12085727 1.22
0.59590888 0.12046101 1.2160001
0.59312284 0.11947038 1.2060001
0.50688952 0.10173804 1.0270001
0.50869024 0.10173804 1.0270001
0.59150541 0.12390368 1.2290001
0.59269416 0.12370205 1.2270001
0.59145194 0.12299633 1.22
0.59359097 0.12299633 1.22
0.59573007 0.12299633 1.22
0.59590888 0.12259307 1.2160001
0.51295781 0.10515178 1.0430001
0.50837022 0.10384116 1.0300001
0.51017618 0.10384116 1.0300001
0.59054285 0.12585339 1.2270001
0.59027892 0.12534054 1.222
0.58999753 0.12482769 1.217
0.59164482 0.12472512 1.2160001
0.59573007 0.12513539 1.22
0.59590888 0.12472512 1.2160001
0.51295781 0.10698051 1.0430001
0.50837022 0.1056471 1.0300001
0.5106715 0.10574967 1.031
0.58717382 0.12727447 1.22
0.58689767 0.12675285 1.215
0.58854318 0.12664853 1.2140001
0.58969861 0.12643988 1.212
0.59377682 0.12685718 1.2160001
0.50622851 0.107766 1.033
0.50312161 0.10672277 1.023
0.5049153 0.10672277 1.023
0.50720423 0.1068271 1.024
0.58476734 0.12888315 1.215
0.58448243 0.12835276 1.21
0.58563435 0.12814061 1.2080001
0.58969861 0.12856492 1.212
0.59377682 0.12898922 1.2160001
0.50622851 0.10957719 1.033
0.50312161 0.10851643 1.023
0.50540882 0.10862251 1.024
0.50769961 0.10872858 1.0250001
0.58428603 0.13090561 1.2140001
0.58351636 0.13025863 1.2080001
0.58514959 0.13015081 1.207
0.58969861 0.13068996 1.212
0.59182364 0.13068996 1.212
0.50769871 0.11171188 1.036
0.50656432 0.1110649 1.0300001
0.50590241 0.11052575 1.0250001
0.50769961 0.11052575 1.0250001
0.58139831 0.13237667 1.2080001
0.58158416 0.13193834 1.2040001
0.58369517 0.13193834 1.2040001
0.58580619 0.13193834 1.2040001
0.50637054 0.11363792 1.0370001
0.50818878 0.11363792 1.0370001
0.50705612 0.11298042 1.031
0.50590241 0.11232292 1.0250001
0.50769961 0.11232292 1.0250001
0.57947314 0.13404934 1.2040001
0.58158416 0.13404934 1.2040001
0.58369517 0.13404934 1.2040001
0.58580619 0.13404934 1.2040001
0.50637054 0.11545612 1.0370001
0.50818878 0.11545612 1.0370001
0.50558066 0.11445409 1.028
0.50590241 0.11412008 1.0250001
0.50769961 0.11412008 1.0250001
0.57754797 0.135708 1.2
0.57965201 0.135708 1.2
0.581756 0.135708 1.2
0.58337343 0.1355949 1.199
0.5849874 0.13548182 1.1980001
0.50279814 0.11603034 1.026
0.50459707 0.11603034 1.026
0.50540882 0.11580416 1.024
0.50720423 0.11580416 1.024
0.57369769 0.13689326 1.192
0.57578766 0.13689326 1.192
0.57981682 0.13735263 1.1960001
0.58094072 0.13712294 1.194
0.50328821 0.1179441 1.0270001
0.50508887 0.1179441 1.0270001
0.5049153 0.11748473 1.023
0.50670892 0.11748473 1.023
0.55300218 0.13396958 1.149
0.55501682 0.13396958 1.149
0.57933199 0.13933301 1.1950001
0.58094072 0.13921642 1.194
0.50475836 0.12009457 1.0300001
0.50656432 0.12009457 1.0300001
0.50540882 0.11939499 1.024
0.50621361 0.11916179 1.0220001
0.55203962 0.13574745 1.1470001
0.55211854 0.13527405 1.143
0.55412257 0.13527405 1.143
0.55661321 0.1353924 1.1440001
0.55227107 0.13385385 1.131
0.50622851 0.12225555 1.033
0.50803971 0.12225555 1.033
0.506396 0.1214271 1.026
0.50819492 0.1214271 1.026
0.55011445 0.13727811 1.143
0.55018634 0.1367977 1.1390001
0.55218339 0.1367977 1.1390001
0.55418044 0.1367977 1.1390001
0.55227107 0.13583687 1.131
0.55474412 0.13595697 1.1320001
0.50656432 0.12370643 1.0300001
0.50787669 0.12358633 1.029
0.50968087 0.12358633 1.029
0.55011445 0.13928217 1.143
0.5497033 0.13867289 1.138
0.55169863 0.13867289 1.138
0.554667 0.1389166 1.1400001
0.55666578 0.1389166 1.1400001
0.55474412 0.13794175 1.1320001
0.50508887 0.12514679 1.0270001
0.506396 0.12502494 1.026
0.50968087 0.12539051 1.029
0.54578286 0.14017373 1.1340001
0.54583895 0.1396793 1.13
0.54782021 0.1396793 1.13
0.55272079 0.14042096 1.136
0.55666578 0.14091539 1.1400001
0.55670434 0.14042096 1.136
0.50508887 0.12694746 1.0270001
0.50688952 0.12694746 1.0270001
0.50968087 0.12719469 1.029
0.54722673 0.14253812 1.1370001
0.54342377 0.14103375 1.125
0.54539627 0.14103375 1.125
0.54931498 0.14153521 1.1290001
0.55129445 0.14153521 1.1290001
0.55523419 0.14203666 1.133
0.50656432 0.12912424 1.0300001
0.50837022 0.12912424 1.0300001
0.51017618 0.12912424 1.0300001
0.53134418 0.1403368 1.1040001
0.53231376 0.14008257 1.102
0.53424591 0.14008257 1.102
0.54055703 0.14122662 1.1110001
0.55129445 0.14351472 1.1290001
0.55572426 0.1441503 1.1340001
0.51049876 0.1319471 1.0380001
0.50886381 0.13105728 1.031
0.5106715 0.13105728 1.031
0.52990031 0.14188586 1.1010001
0.53134769 0.141757 1.1
0.53327632 0.141757 1.1
0.53520501 0.141757 1.1
0.53664535 0.14162813 1.0990001
0.53906232 0.141757 1.1
0.51049876 0.13376705 1.0380001
0.50886381 0.13286497 1.031
0.51116681 0.13299383 1.0320001
0.52797514 0.1432938 1.097
0.52941549 0.14316317 1.0960001
0.52939796 0.14264068 1.092
0.53131258 0.14264068 1.092
0.53322726 0.14264068 1.092
0.53563195 0.1427713 1.0930001
0.51246601 0.13610952 1.0420001
0.51231873 0.13558702 1.0380001
0.51265275 0.13519515 1.0350001
0.52460611 0.14429057 1.09
0.52651721 0.14429057 1.09
0.52600437 0.14362869 1.085
0.52742022 0.1434963 1.0840001
0.53322726 0.14455532 1.092
0.53563195 0.1446877 1.0930001
0.51394147 0.13833362 1.0450001
0.51231873 0.13740698 1.0380001
0.51017618 0.13634796 1.0300001
0.52268094 0.14566518 1.0860001
0.52072072 0.14459214 1.0780001
0.52212602 0.14445801 1.077
0.5225547 0.14405562 1.074
0.51760155 0.14217781 1.0600001
0.51897001 0.14204367 1.059
0.51394147 0.14016585 1.0450001
0.51429302 0.13976346 1.0420001
0.50968087 0.13801977 1.029
