# .PCD v0.7 - Point Cloud Data file format
VERSION 0.7
FIELDS x y z
SIZE 4 4 4
TYPE F F F
COUNT 1 1 1
WIDTH 1104
HEIGHT 1
VIEWPOINT 0 0 0 1 0 0 0
POINTS 1104
DATA ascii
0.38980106 0.37605494 1.12
0.44479874 0.37773374 1.125
0.44677123 0.37773374 1.125
0.44874376 0.37773374 1.125
0.45071626 0.37773374 1.125
0.50136214 0.37874103 1.128
0.51170421 0.37907681 1.1290001
0.51459366 0.37974831 1.131
0.51474971 0.37840527 1.1270001
0.33384344 0.38139382 1.13
0.33612189 0.38173136 1.131
0.36150926 0.38341892 1.136
0.36254111 0.38240638 1.133
0.36484939 0.3827439 1.1340001
0.37146822 0.38341892 1.136
0.37345999 0.38341892 1.136
0.37545177 0.38341892 1.136
0.37777582 0.38375646 1.1370001
0.38243443 0.38443148 1.1390001
0.38443148 0.38443148 1.1390001
0.38642853 0.38443148 1.1390001
0.38980106 0.37801868 1.12
0.39036563 0.3766686 1.1160001
0.39232236 0.3766686 1.1160001
0.44479874 0.37970623 1.125
0.44677123 0.37970623 1.125
0.44874376 0.37970623 1.125
0.45071626 0.37970623 1.125
0.46272218 0.38476899 1.1400001
0.4671292 0.3851065 1.141
0.46871859 0.38476899 1.1400001
0.47113031 0.3851065 1.141
0.51215744 0.38139382 1.13
0.51520646 0.3807188 1.128
0.51764274 0.38105631 1.1290001
0.51962227 0.38105631 1.1290001
0.52899379 0.38645658 1.1450001
0.52497256 0.38206887 1.1320001
0.52695733 0.38206887 1.1320001
0.52894211 0.38206887 1.1320001
0.53092688 0.38206887 1.1320001
0.54219818 0.38443148 1.1390001
0.54228407 0.38308141 1.1350001
0.54427409 0.38308141 1.1350001
0.54674542 0.38341892 1.136
0.33384344 0.38337511 1.13
0.33612189 0.38371438 1.131
0.3381049 0.38371438 1.131
0.36150926 0.38541073 1.136
0.36254111 0.38439292 1.133
0.36452764 0.38439292 1.133
0.3707774 0.3867678 1.1400001
0.37146822 0.38541073 1.136
0.37345999 0.38541073 1.136
0.37545177 0.38541073 1.136
0.37744358 0.38541073 1.136
0.37943536 0.38541073 1.136
0.38142714 0.38541073 1.136
0.38341892 0.38541073 1.136
0.38642853 0.38642853 1.1390001
0.38897437 0.38303584 1.1290001
0.39095387 0.38303584 1.1290001
0.38980106 0.37998241 1.12
0.39036563 0.3786253 1.1160001
0.39232236 0.3786253 1.1160001
0.39427906 0.3786253 1.1160001
0.447171 0.38371438 1.131
0.4475655 0.3823573 1.1270001
0.44874376 0.38167876 1.125
0.45512325 0.38541073 1.136
0.46272218 0.3867678 1.1400001
0.4671292 0.38710707 1.141
0.46912974 0.38710707 1.141
0.47113031 0.38710707 1.141
0.49486518 0.38846415 1.1450001
0.4973067 0.38880342 1.146
0.50864464 0.38371438 1.131
0.51062763 0.38371438 1.131
0.51215744 0.38337511 1.13
0.51231873 0.38201803 1.126
0.51566321 0.38303584 1.1290001
0.51764274 0.38303584 1.1290001
0.51962227 0.38303584 1.1290001
0.52899379 0.38846415 1.1450001
0.52695733 0.38405365 1.1320001
0.52894211 0.38405365 1.1320001
0.53092688 0.38405365 1.1320001
0.54029405 0.38507146 1.1350001
0.54228407 0.38507146 1.1350001
0.54427409 0.38507146 1.1350001
0.54626417 0.38507146 1.1350001
0.54825419 0.38507146 1.1350001
0.55315298 0.38710707 1.141
0.33413887 0.38569739 1.131
0.33612189 0.38569739 1.131
0.35553393 0.3874025 1.136
0.35752571 0.3874025 1.136
0.35951748 0.3874025 1.136
0.36055458 0.38637942 1.133
0.36254111 0.38637942 1.133
0.36452764 0.38637942 1.133
0.36683765 0.38672045 1.1340001
0.36947644 0.3874025 1.136
0.37146822 0.3874025 1.136
0.37345999 0.3874025 1.136
0.37545177 0.3874025 1.136
0.37744358 0.3874025 1.136
0.37943536 0.3874025 1.136
0.38142714 0.3874025 1.136
0.38341892 0.3874025 1.136
0.38642853 0.38842559 1.1390001
0.3874025 0.3874025 1.136
0.38931888 0.38535637 1.13
0.39095387 0.38501534 1.1290001
0.38910499 0.38126409 1.118
0.39001584 0.38024101 1.115
0.39197081 0.38024101 1.115
0.39639887 0.38262817 1.1220001
0.4221369 0.38637942 1.133
0.44200218 0.38637942 1.133
0.44359684 0.38603842 1.1320001
0.44558161 0.38603842 1.1320001
0.44756639 0.38603842 1.1320001
0.44915402 0.38569739 1.131
0.45033929 0.38501534 1.1290001
0.45231879 0.38501534 1.1290001
0.45711502 0.3874025 1.136
0.45910683 0.3874025 1.136
0.46109861 0.3874025 1.136
0.46309039 0.3874025 1.136
0.47113031 0.38910761 1.141
0.47713196 0.38910761 1.141
0.48059306 0.38706148 1.1350001
0.48258308 0.38706148 1.1350001
0.48457313 0.38706148 1.1350001
0.48656315 0.38706148 1.1350001
0.48855317 0.38706148 1.1350001
0.48967883 0.38637942 1.133
0.49209929 0.38672045 1.1340001
0.49408758 0.38672045 1.1340001
0.49607587 0.38672045 1.1340001
0.50864464 0.38569739 1.131
0.50791878 0.38365126 1.125
0.50989127 0.38365126 1.125
0.51231873 0.38399228 1.126
0.51566321 0.38501534 1.1290001
0.51764274 0.38501534 1.1290001
0.51962227 0.38501534 1.1290001
0.52391177 0.38672045 1.1340001
0.52497256 0.38603842 1.1320001
0.52695733 0.38603842 1.1320001
0.52894211 0.38603842 1.1320001
0.53092688 0.38603842 1.1320001
0.53830403 0.38706148 1.1350001
0.54029405 0.38706148 1.1350001
0.54228407 0.38706148 1.1350001
0.54427409 0.38706148 1.1350001
0.54626417 0.38706148 1.1350001
0.54825419 0.38706148 1.1350001
0.5512138 0.38774353 1.1370001
0.35615987 0.39007986 1.138
0.35815516 0.39007986 1.138
0.36015046 0.39007986 1.138
0.36087281 0.38870874 1.1340001
0.36254111 0.38836595 1.133
0.36452764 0.38836595 1.133
0.36651418 0.38836595 1.133
0.36817545 0.3880232 1.1320001
0.37016022 0.3880232 1.1320001
0.37181625 0.38768041 1.131
0.37379926 0.38768041 1.131
0.37578228 0.38768041 1.131
0.3777653 0.38768041 1.131
0.38142714 0.38939428 1.136
0.38341892 0.38939428 1.136
0.38507146 0.38905153 1.1350001
0.38569739 0.38768041 1.131
0.38733763 0.38733763 1.13
0.38931888 0.38733763 1.13
0.39095387 0.38699487 1.1290001
0.39154124 0.38562375 1.125
0.39106521 0.38322431 1.118
0.39302546 0.38322431 1.118
0.39639887 0.38459542 1.1220001
0.40085146 0.38699487 1.1290001
0.44200218 0.38836595 1.133
0.44359684 0.3880232 1.1320001
0.44558161 0.3880232 1.1320001
0.44756639 0.3880232 1.1320001
0.4487569 0.38733763 1.13
0.45033929 0.38699487 1.1290001
0.45231879 0.38699487 1.1290001
0.45550549 0.3880232 1.1320001
0.45749024 0.3880232 1.1320001
0.45947501 0.3880232 1.1320001
0.46145979 0.3880232 1.1320001
0.4650822 0.38939428 1.136
0.46707398 0.38939428 1.136
0.46906576 0.38939428 1.136
0.47105753 0.38939428 1.136
0.47346574 0.38973707 1.1370001
0.47545928 0.38973707 1.1370001
0.47829267 0.39042261 1.1390001
0.47860301 0.38905153 1.1350001
0.48059306 0.38905153 1.1350001
0.48130754 0.3880232 1.1320001
0.48329231 0.3880232 1.1320001
0.48527709 0.3880232 1.1320001
0.4868314 0.38768041 1.131
0.48881441 0.38768041 1.131
0.49036351 0.38733763 1.13
0.49234477 0.38733763 1.13
0.4956384 0.38836595 1.133
0.50621361 0.38733763 1.13
0.50864464 0.38768041 1.131
0.50791878 0.38562375 1.125
0.50989127 0.38562375 1.125
0.51231873 0.38596651 1.126
0.51520646 0.38665208 1.128
0.51718426 0.38665208 1.128
0.519162 0.38665208 1.128
0.52298778 0.3880232 1.1320001
0.52497256 0.3880232 1.1320001
0.52695733 0.3880232 1.1320001
0.52894211 0.3880232 1.1320001
0.53092688 0.3880232 1.1320001
0.53830403 0.38905153 1.1350001
0.53981799 0.38870874 1.1340001
0.54037297 0.38768041 1.131
0.54283547 0.3880232 1.1320001
0.54482025 0.3880232 1.1320001
0.54680502 0.3880232 1.1320001
0.54927462 0.38836595 1.133
0.55817455 0.39042261 1.1390001
0.5606634 0.3907654 1.1400001
0.56266218 0.3907654 1.1400001
0.35991812 0.38966343 1.131
0.36190113 0.38966343 1.131
0.36324069 0.38897437 1.1290001
0.36554369 0.38931888 1.13
0.36785021 0.38966343 1.131
0.36852524 0.38828531 1.1270001
0.37050125 0.38828531 1.1270001
0.37280777 0.38862982 1.128
0.37445325 0.38828531 1.1270001
0.3777653 0.38966343 1.131
0.37974831 0.38966343 1.131
0.38308141 0.39104155 1.1350001
0.38337511 0.38931888 1.13
0.38535637 0.38931888 1.13
0.38733763 0.38931888 1.13
0.38931888 0.38931888 1.13
0.39130017 0.38931888 1.13
0.39154124 0.38759625 1.125
0.39106521 0.38518453 1.118
0.39302546 0.38518453 1.118
0.39604557 0.38621813 1.1210001
0.40085146 0.38897437 1.1290001
0.40678999 0.38897437 1.1290001
0.40876949 0.38897437 1.1290001
0.44796175 0.39035249 1.133
0.44955117 0.39000794 1.1320001
0.45033929 0.38897437 1.1290001
0.45231879 0.38897437 1.1290001
0.45550549 0.39000794 1.1320001
0.45627782 0.38897437 1.1290001
0.45825735 0.38897437 1.1290001
0.46023685 0.38897437 1.1290001
0.46344456 0.39000794 1.1320001
0.46542934 0.39000794 1.1320001
0.46617538 0.38897437 1.1290001
0.46815491 0.38897437 1.1290001
0.47013441 0.38897437 1.1290001
0.47253209 0.38931888 1.13
0.4749333 0.38966343 1.131
0.47691631 0.38966343 1.131
0.47932276 0.39000794 1.1320001
0.48130754 0.39000794 1.1320001
0.48329231 0.39000794 1.1320001
0.48527709 0.39000794 1.1320001
0.48726186 0.39000794 1.1320001
0.48924664 0.39000794 1.1320001
0.49079746 0.38966343 1.131
0.49278048 0.38966343 1.131
0.49520093 0.39000794 1.1320001
0.49938178 0.39173061 1.1370001
0.50137532 0.39173061 1.1370001
0.50071257 0.38966343 1.131
0.50269556 0.38966343 1.131
0.50512481 0.39000794 1.1320001
0.50576568 0.38897437 1.1290001
0.50774515 0.38897437 1.1290001
0.50791878 0.38759625 1.125
0.50989127 0.38759625 1.125
0.51277375 0.38828531 1.1270001
0.51566321 0.38897437 1.1290001
0.51764274 0.38897437 1.1290001
0.519162 0.38862982 1.128
0.52298778 0.39000794 1.1320001
0.52497256 0.39000794 1.1320001
0.52695733 0.39000794 1.1320001
0.52894211 0.39000794 1.1320001
0.53092688 0.39000794 1.1320001
0.53791392 0.38931888 1.13
0.54132849 0.39035249 1.133
0.54331505 0.39035249 1.133
0.54482025 0.39000794 1.1320001
0.54487288 0.38862982 1.128
0.54685062 0.38862982 1.128
0.55272079 0.39138609 1.136
0.55568922 0.39207515 1.138
0.55621433 0.39104155 1.1350001
0.55967975 0.39207515 1.138
0.55970079 0.39069703 1.1340001
0.55772656 0.38794076 1.126
0.55920374 0.38759625 1.125
0.35991812 0.39164644 1.131
0.36190113 0.39164644 1.131
0.36324069 0.39095387 1.1290001
0.36424974 0.38991502 1.126
0.36654922 0.39026132 1.1270001
0.36852524 0.39026132 1.1270001
0.37050125 0.39026132 1.1270001
0.37280777 0.3906076 1.128
0.37445325 0.39026132 1.1270001
0.37642926 0.39026132 1.1270001
0.37974831 0.39164644 1.131
0.38173136 0.39164644 1.131
0.38371438 0.39164644 1.131
0.38569739 0.39164644 1.131
0.38699487 0.39095387 1.1290001
0.38931888 0.39130017 1.13
0.39130017 0.39130017 1.13
0.39154124 0.38956875 1.125
0.39351374 0.38956875 1.125
0.39548624 0.38956875 1.125
0.39745876 0.38956875 1.125
0.40085146 0.39095387 1.1290001
0.40516904 0.39130017 1.13
0.40678999 0.39095387 1.1290001
0.40876949 0.39095387 1.1290001
0.42535779 0.39164644 1.131
0.42734081 0.39164644 1.131
0.42932382 0.39164644 1.131
0.43206954 0.39233902 1.133
0.43367296 0.39199272 1.1320001
0.43565774 0.39199272 1.1320001
0.43764251 0.39199272 1.1320001
0.44001564 0.39233902 1.133
0.44835714 0.39268529 1.1340001
0.45034543 0.39268529 1.1340001
0.45153594 0.39199272 1.1320001
0.45352072 0.39199272 1.1320001
0.45429832 0.39095387 1.1290001
0.45627782 0.39095387 1.1290001
0.45825735 0.39095387 1.1290001
0.46023685 0.39095387 1.1290001
0.46344456 0.39199272 1.1320001
0.46542934 0.39199272 1.1320001
0.46617538 0.39095387 1.1290001
0.46815491 0.39095387 1.1290001
0.47055084 0.39130017 1.13
0.47253209 0.39130017 1.13
0.47325361 0.39026132 1.1270001
0.4735429 0.38887617 1.123
0.47551188 0.38887617 1.123
0.47960681 0.3906076 1.128
0.48158455 0.3906076 1.128
0.48527709 0.39199272 1.1320001
0.48726186 0.39199272 1.1320001
0.48881441 0.39164644 1.131
0.49123141 0.39199272 1.1320001
0.49278048 0.39164644 1.131
0.49520093 0.39199272 1.1320001
0.49938178 0.39372414 1.1370001
0.50093436 0.39337787 1.136
0.50071257 0.39164644 1.131
0.50269556 0.39164644 1.131
0.50512481 0.39199272 1.1320001
0.50531769 0.3906076 1.128
0.50774515 0.39095387 1.1290001
0.50791878 0.38956875 1.125
0.50989127 0.38956875 1.125
0.51277375 0.39026132 1.1270001
0.51474971 0.39026132 1.1270001
0.51764274 0.39095387 1.1290001
0.52146327 0.39233902 1.133
0.52344978 0.39233902 1.133
0.52543628 0.39233902 1.133
0.52695733 0.39199272 1.1320001
0.52894211 0.39199272 1.1320001
0.53735548 0.39233902 1.133
0.53934199 0.39233902 1.133
0.54180628 0.39268529 1.1340001
0.54379457 0.39268529 1.1340001
0.54337639 0.39095387 1.1290001
0.54342377 0.38956875 1.125
0.54588103 0.38991502 1.126
0.54980147 0.39130017 1.13
0.55324769 0.39233902 1.133
0.55572426 0.39268529 1.1340001
0.55426985 0.39026132 1.1270001
0.55624586 0.39026132 1.1270001
0.55822188 0.39026132 1.1270001
0.56019789 0.39026132 1.1270001
0.33493313 0.39223734 1.1270001
0.33690915 0.39223734 1.1270001
0.33858445 0.39188927 1.126
0.35991812 0.39362946 1.131
0.36030123 0.39188927 1.126
0.36195374 0.39154124 1.125
0.36392626 0.39154124 1.125
0.36622399 0.39188927 1.126
0.36721724 0.39084518 1.123
0.369515 0.39119321 1.1240001
0.37148574 0.39119321 1.1240001
0.37345648 0.39119321 1.1240001
0.37542725 0.39119321 1.1240001
0.37840527 0.39223734 1.1270001
0.38173136 0.39362946 1.131
0.38371438 0.39362946 1.131
0.38433328 0.39223734 1.1270001
0.38596651 0.39188927 1.126
0.38931888 0.39328143 1.13
0.39130017 0.39328143 1.13
0.39154124 0.39154124 1.125
0.39351374 0.39154124 1.125
0.39443162 0.39049715 1.1220001
0.39639887 0.39049715 1.1220001
0.39943126 0.39154124 1.125
0.40318775 0.39328143 1.13
0.40481049 0.3929334 1.1290001
0.40678999 0.3929334 1.1290001
0.40876949 0.3929334 1.1290001
0.41074902 0.3929334 1.1290001
0.41544268 0.39362946 1.131
0.41705662 0.39328143 1.13
0.41866708 0.3929334 1.1290001
0.42139176 0.39362946 1.131
0.42573386 0.39397749 1.1320001
0.42582944 0.39223734 1.1270001
0.42818505 0.39258537 1.128
0.43016279 0.39258537 1.128
0.43565774 0.39397749 1.1320001
0.43764251 0.39397749 1.1320001
0.44001564 0.39432555 1.133
0.44200218 0.39432555 1.133
0.44359684 0.39397749 1.1320001
0.44558161 0.39397749 1.1320001
0.44756639 0.39397749 1.1320001
0.44915402 0.39362946 1.131
0.44994038 0.39258537 1.128
0.45191815 0.39258537 1.128
0.45429832 0.3929334 1.1290001
0.45627782 0.3929334 1.1290001
0.45785144 0.39258537 1.128
0.46145979 0.39397749 1.1320001
0.46344456 0.39397749 1.1320001
0.46542934 0.39397749 1.1320001
0.46617538 0.3929334 1.1290001
0.46815491 0.3929334 1.1290001
0.47055084 0.39328143 1.13
0.47253209 0.39328143 1.13
0.47325361 0.39223734 1.1270001
0.4735429 0.39084518 1.123
0.47551188 0.39084518 1.123
0.47790608 0.39119321 1.1240001
0.47987682 0.39119321 1.1240001
0.48356232 0.39258537 1.128
0.48554006 0.39258537 1.128
0.48708564 0.39223734 1.1270001
0.49079746 0.39362946 1.131
0.49321616 0.39397749 1.1320001
0.49388859 0.3929334 1.1290001
0.49630728 0.39328143 1.13
0.49828857 0.39328143 1.13
0.4993844 0.39258537 1.128
0.5035845 0.39432555 1.133
0.50557101 0.39432555 1.133
0.50531769 0.39258537 1.128
0.50774515 0.3929334 1.1290001
0.50791878 0.39154124 1.125
0.51034451 0.39188927 1.126
0.51322871 0.39258537 1.128
0.51520646 0.39258537 1.128
0.51901823 0.39397749 1.1320001
0.52100301 0.39397749 1.1320001
0.52344978 0.39432555 1.133
0.52543628 0.39432555 1.133
0.52695733 0.39397749 1.1320001
0.52894211 0.39397749 1.1320001
0.53489643 0.39397749 1.1320001
0.53735548 0.39432555 1.133
0.53743786 0.3929334 1.1290001
0.54037297 0.39362946 1.131
0.54283547 0.39397749 1.1320001
0.544339 0.39362946 1.131
0.54390681 0.39188927 1.126
0.54588103 0.39188927 1.126
0.54980147 0.39328143 1.13
0.54934126 0.39154124 1.125
0.55180383 0.39188927 1.126
0.55033541 0.38945302 1.1190001
0.55279094 0.38980106 1.12
0.55624062 0.39084518 1.123
0.5582096 0.39084518 1.123
0.3366102 0.39386353 1.126
0.33828375 0.39351374 1.125
0.34344557 0.3949129 1.1290001
0.34420124 0.39351374 1.125
0.34617373 0.39351374 1.125
0.34814626 0.39351374 1.125
0.35011876 0.39351374 1.125
0.35209125 0.39351374 1.125
0.35595208 0.39561248 1.131
0.3579351 0.39561248 1.131
0.35832697 0.39386353 1.126
0.35902131 0.39246437 1.1220001
0.36098853 0.39246437 1.1220001
0.36295578 0.39246437 1.1220001
0.36524826 0.39281416 1.123
0.36590928 0.391415 1.1190001
0.3682 0.39176479 1.12
0.37016374 0.39176479 1.12
0.37212747 0.39176479 1.12
0.37409121 0.39176479 1.12
0.37840527 0.39421332 1.1270001
0.38038129 0.39421332 1.1270001
0.38433328 0.39421332 1.1270001
0.38596651 0.39386353 1.126
0.38794076 0.39386353 1.126
0.38956875 0.39351374 1.125
0.39188927 0.39386353 1.126
0.39246437 0.39246437 1.1220001
0.39443162 0.39246437 1.1220001
0.39639887 0.39246437 1.1220001
0.39836609 0.39246437 1.1220001
0.40140375 0.39351374 1.125
0.40337625 0.39351374 1.125
0.40534875 0.39351374 1.125
0.40732124 0.39351374 1.125
0.41111284 0.39526269 1.13
0.4130941 0.39526269 1.13
0.4159494 0.39421332 1.1270001
0.41755459 0.39386353 1.126
0.4199014 0.39421332 1.1270001
0.42337477 0.39561248 1.131
0.42460561 0.3949129 1.1290001
0.42658511 0.3949129 1.1290001
0.42818505 0.39456311 1.128
0.43092549 0.39526269 1.13
0.43252367 0.3949129 1.1290001
0.43411833 0.39456311 1.128
0.43570948 0.39421332 1.1270001
0.43923894 0.39561248 1.131
0.43966147 0.39421332 1.1270001
0.44163749 0.39421332 1.1270001
0.4436135 0.39421332 1.1270001
0.44558951 0.39421332 1.1270001
0.44716838 0.39386353 1.126
0.44834486 0.39316395 1.1240001
0.44991496 0.39281416 1.123
0.45228636 0.39316395 1.1240001
0.45627782 0.3949129 1.1290001
0.45744553 0.39421332 1.1270001
0.46023685 0.3949129 1.1290001
0.46221635 0.3949129 1.1290001
0.46542934 0.39596227 1.1320001
0.46617538 0.3949129 1.1290001
0.46815491 0.3949129 1.1290001
0.46846876 0.39351374 1.125
0.46793222 0.391415 1.1190001
0.46821451 0.39001584 1.115
0.47016948 0.39001584 1.115
0.47212446 0.39001584 1.115
0.47450459 0.39036563 1.1160001
0.47603437 0.39001584 1.115
0.47841802 0.39036563 1.1160001
0.48209652 0.39176479 1.12
0.48406026 0.39176479 1.12
0.48732585 0.39281416 1.123
0.48929483 0.39281416 1.123
0.49038893 0.39211458 1.1210001
0.49279362 0.39246437 1.1220001
0.49652472 0.39386353 1.126
0.49805623 0.39351374 1.125
0.50180662 0.3949129 1.1290001
0.50378615 0.3949129 1.1290001
0.50307781 0.39281416 1.123
0.50504678 0.39281416 1.123
0.50701576 0.39281416 1.123
0.50943804 0.39316395 1.1240001
0.51277375 0.39421332 1.1270001
0.51474971 0.39421332 1.1270001
0.51626724 0.39386353 1.126
0.51824152 0.39386353 1.126
0.52206379 0.39526269 1.13
0.52450877 0.39561248 1.131
0.52462977 0.39421332 1.1270001
0.52426946 0.39246437 1.1220001
0.52717471 0.39316395 1.1240001
0.53149933 0.3949129 1.1290001
0.53347886 0.3949129 1.1290001
0.53545833 0.3949129 1.1290001
0.53600979 0.39386353 1.126
0.53798401 0.39386353 1.126
0.54187644 0.39526269 1.13
0.54193252 0.39386353 1.126
0.54245764 0.39281416 1.123
0.54442668 0.39281416 1.123
0.54688221 0.39316395 1.1240001
0.54934126 0.39351374 1.125
0.55131376 0.39351374 1.125
0.55033541 0.391415 1.1190001
0.55229735 0.391415 1.1190001
0.5557453 0.39246437 1.1220001
0.55771255 0.39246437 1.1220001
0.33571336 0.39478317 1.123
0.33738166 0.39443162 1.1220001
0.34025624 0.39548624 1.125
0.34222874 0.39548624 1.125
0.3417536 0.39267391 1.1170001
0.34371206 0.39267391 1.1170001
0.34567055 0.39267391 1.1170001
0.34762901 0.39267391 1.1170001
0.3495875 0.39267391 1.1170001
0.35311958 0.39443162 1.1220001
0.35413739 0.39337698 1.1190001
0.35578114 0.39302546 1.118
0.35678142 0.39197081 1.115
0.3587364 0.39197081 1.115
0.36166182 0.39302546 1.118
0.36297154 0.39232236 1.1160001
0.36427429 0.39161927 1.1140001
0.36655626 0.39197081 1.115
0.3685112 0.39197081 1.115
0.37046617 0.39197081 1.115
0.37342319 0.39302546 1.118
0.37538341 0.39302546 1.118
0.37903121 0.39478317 1.123
0.38201803 0.39583778 1.126
0.3829692 0.39478317 1.123
0.38459542 0.39443162 1.1220001
0.38759625 0.39548624 1.125
0.38956875 0.39548624 1.125
0.39014909 0.39408007 1.1210001
0.39246437 0.39443162 1.1220001
0.39267391 0.39267391 1.1170001
0.39463237 0.39267391 1.1170001
0.39659086 0.39267391 1.1170001
0.39854932 0.39267391 1.1170001
0.40194201 0.39408007 1.1210001
0.40390751 0.39408007 1.1210001
0.40659711 0.39478317 1.123
0.40856612 0.39478317 1.123
0.41163182 0.39583778 1.126
0.41397339 0.39618933 1.1270001
0.4159494 0.39618933 1.1270001
0.4164421 0.39478317 1.123
0.41878366 0.39513472 1.1240001
0.4207544 0.39513472 1.1240001
0.42385343 0.39618933 1.1270001
0.42545158 0.39583778 1.126
0.42704624 0.39548624 1.125
0.42978144 0.39618933 1.1270001
0.43137434 0.39583778 1.126
0.43296376 0.39548624 1.125
0.43493626 0.39548624 1.125
0.43690875 0.39548624 1.125
0.43771091 0.39443162 1.1220001
0.43771878 0.39267391 1.1170001
0.43967727 0.39267391 1.1170001
0.44282186 0.39372852 1.12
0.44399133 0.39302546 1.118
0.44355828 0.3909162 1.1120001
0.44550797 0.3909162 1.1120001
0.44946963 0.39267391 1.1170001
0.45264053 0.39372852 1.12
0.45582196 0.39478317 1.123
0.45819861 0.39513472 1.1240001
0.46016935 0.39513472 1.1240001
0.46419588 0.39689243 1.1290001
0.46617538 0.39689243 1.1290001
0.46483758 0.39408007 1.1210001
0.46388817 0.39161927 1.1140001
0.46584138 0.39161927 1.1140001
0.46821451 0.39197081 1.115
0.46974781 0.39161927 1.1140001
0.47212446 0.39197081 1.115
0.47280386 0.3909162 1.1120001
0.47432664 0.39056465 1.1110001
0.47841802 0.39232236 1.1160001
0.48037475 0.39232236 1.1160001
0.48233148 0.39232236 1.1160001
0.48602399 0.39372852 1.12
0.48624492 0.39232236 1.1160001
0.48688927 0.39126772 1.113
0.4884015 0.3909162 1.1120001
0.49564278 0.39513472 1.1240001
0.49805623 0.39548624 1.125
0.50002873 0.39548624 1.125
0.50333995 0.39654088 1.128
0.50352579 0.39513472 1.1240001
0.50504678 0.39478317 1.123
0.50746727 0.39513472 1.1240001
0.50989127 0.39548624 1.125
0.51186377 0.39548624 1.125
0.51200926 0.39408007 1.1210001
0.51351625 0.39372852 1.12
0.51640052 0.39443162 1.1220001
0.51698172 0.39337698 1.1190001
0.51894373 0.39337698 1.1190001
0.5218367 0.39408007 1.1210001
0.52426946 0.39443162 1.1220001
0.52623671 0.39443162 1.1220001
0.52820396 0.39443162 1.1220001
0.53206128 0.39583778 1.126
0.53261268 0.39478317 1.123
0.53458166 0.39478317 1.123
0.53607291 0.39443162 1.1220001
0.53804016 0.39443162 1.1220001
0.5395261 0.39408007 1.1210001
0.53955942 0.39267391 1.1170001
0.54200268 0.39302546 1.118
0.544936 0.39372852 1.12
0.54738802 0.39408007 1.1210001
0.55131376 0.39548624 1.125
0.55377805 0.39583778 1.126
0.55328447 0.39408007 1.1210001
0.5557453 0.39443162 1.1220001
0.55771255 0.39443162 1.1220001
0.33362076 0.39427906 1.1160001
0.33527678 0.39392579 1.115
0.33723176 0.39392579 1.115
0.33888251 0.39357248 1.1140001
0.34052977 0.39321917 1.113
0.34248123 0.39321917 1.113
0.34474215 0.39357248 1.1140001
0.34669536 0.39357248 1.1140001
0.34864858 0.39357248 1.1140001
0.3509165 0.39392579 1.115
0.35318795 0.39427906 1.1160001
0.35514468 0.39427906 1.1160001
0.35678142 0.39392579 1.115
0.35841465 0.39357248 1.1140001
0.36069134 0.39392579 1.115
0.36297154 0.39427906 1.1160001
0.36427429 0.39357248 1.1140001
0.36655626 0.39392579 1.115
0.3685112 0.39392579 1.115
0.37046617 0.39392579 1.115
0.37242115 0.39392579 1.115
0.37437612 0.39392579 1.115
0.37734362 0.39498568 1.118
0.38100022 0.39675215 1.123
0.38331023 0.39710546 1.1240001
0.38528097 0.39710546 1.1240001
0.38656265 0.39639887 1.1220001
0.38956875 0.39745876 1.125
0.39014909 0.39604557 1.1210001
0.39246437 0.39639887 1.1220001
0.39302546 0.39498568 1.118
0.39498568 0.39498568 1.118
0.39694589 0.39498568 1.118
0.39890611 0.39498568 1.118
0.40050781 0.39463237 1.1170001
0.40282658 0.39498568 1.118
0.40514886 0.39533898 1.1190001
0.40711084 0.39533898 1.1190001
0.40907282 0.39533898 1.1190001
0.41140214 0.39569226 1.12
0.4129968 0.39533898 1.1190001
0.41495878 0.39533898 1.1190001
0.41729334 0.39569226 1.12
0.41925707 0.39569226 1.12
0.4208447 0.39533898 1.1190001
0.42431808 0.39675215 1.123
0.42628706 0.39675215 1.123
0.42863739 0.39710546 1.1240001
0.43022504 0.39675215 1.123
0.43219402 0.39675215 1.123
0.43416303 0.39675215 1.123
0.43574366 0.39639887 1.1220001
0.43615043 0.39498568 1.118
0.43771878 0.39463237 1.1170001
0.43928364 0.39427906 1.1160001
0.44124037 0.39427906 1.1160001
0.44319707 0.39427906 1.1160001
0.44236162 0.39180601 1.1090001
0.44470671 0.39215928 1.11
0.44786006 0.39321917 1.113
0.44940737 0.3928659 1.1120001
0.45298067 0.39427906 1.1160001
0.45616034 0.39533898 1.1190001
0.45812231 0.39533898 1.1190001
0.46255124 0.39745876 1.125
0.46287212 0.39604557 1.1210001
0.46152028 0.39321917 1.113
0.46347174 0.39321917 1.113
0.4641687 0.39215928 1.11
0.46611491 0.39215928 1.11
0.46806109 0.39215928 1.11
0.47043073 0.39251259 1.1110001
0.47237867 0.39251259 1.1110001
0.47713196 0.39321917 1.113
0.48037475 0.39427906 1.1160001
0.48233148 0.39427906 1.1160001
0.48428819 0.39427906 1.1160001
0.48668063 0.39463237 1.1170001
0.48776418 0.39392579 1.115
0.48884073 0.39321917 1.113
0.49079219 0.39321917 1.113
0.49495724 0.39498568 1.118
0.50002873 0.39745876 1.125
0.50200123 0.39745876 1.125
0.50038993 0.39463237 1.1170001
0.50189871 0.39427906 1.1160001
0.50791878 0.39745876 1.125
0.50853151 0.39639887 1.1220001
0.51049876 0.39639887 1.1220001
0.50926882 0.39392579 1.115
0.5098483 0.3928659 1.1120001
0.51317877 0.39392579 1.115
0.51513374 0.39392579 1.115
0.51708865 0.39392579 1.115
0.51857811 0.39357248 1.1140001
0.52053136 0.39357248 1.1140001
0.52248454 0.39357248 1.1140001
0.52490854 0.39392579 1.115
0.52686352 0.39392579 1.115
0.52929276 0.39427906 1.1160001
0.52886933 0.39251259 1.1110001
0.53081727 0.39251259 1.1110001
0.53612196 0.39498568 1.118
0.53760093 0.39463237 1.1170001
0.53955942 0.39463237 1.1170001
0.54151785 0.39463237 1.1170001
0.54298979 0.39427906 1.1160001
0.54592311 0.39498568 1.118
0.54935354 0.39604557 1.1210001
0.551319 0.39604557 1.1210001
0.55328447 0.39604557 1.1210001
0.5557453 0.39639887 1.1220001
0.55771255 0.39639887 1.1220001
0.33332181 0.39588076 1.115
0.33497608 0.39552569 1.1140001
0.33692929 0.39552569 1.1140001
0.33888251 0.39552569 1.1140001
0.34052977 0.39517066 1.113
0.34217352 0.39481559 1.1120001
0.34319484 0.39375046 1.1090001
0.34513929 0.39375046 1.1090001
0.34896156 0.39588076 1.115
0.3509165 0.39588076 1.115
0.35318795 0.39623579 1.1160001
0.35418999 0.39517066 1.113
0.35614145 0.39517066 1.113
0.35905811 0.39623579 1.1160001
0.36101484 0.39623579 1.1160001
0.36264631 0.39588076 1.115
0.36427429 0.39552569 1.1140001
0.36655626 0.39588076 1.115
0.3685112 0.39588076 1.115
0.37046617 0.39588076 1.115
0.37242115 0.39588076 1.115
0.37437612 0.39588076 1.115
0.37633109 0.39588076 1.115
0.37964314 0.39730096 1.1190001
0.38194612 0.39765599 1.12
0.38288152 0.39659086 1.1170001
0.38415095 0.39588076 1.115
0.38610592 0.39588076 1.115
0.38771284 0.39552569 1.1140001
0.39001584 0.39588076 1.115
0.39197081 0.39588076 1.115
0.39498568 0.39694589 1.118
0.39588076 0.39588076 1.115
0.3978357 0.39588076 1.115
0.39943212 0.39552569 1.1140001
0.40174565 0.39588076 1.115
0.4047868 0.39694589 1.118
0.40674704 0.39694589 1.118
0.40761054 0.39588076 1.115
0.41030017 0.39659086 1.1170001
0.41188955 0.39623579 1.1160001
0.41384628 0.39623579 1.1160001
0.41617557 0.39659086 1.1170001
0.41813406 0.39659086 1.1170001
0.4208447 0.39730096 1.1190001
0.42242885 0.39694589 1.118
0.42325029 0.39588076 1.115
0.42558661 0.39623579 1.1160001
0.42754331 0.39623579 1.1160001
0.42911518 0.39588076 1.115
0.43261659 0.39730096 1.1190001
0.43419021 0.39694589 1.118
0.43615043 0.39694589 1.118
0.43654317 0.39552569 1.1140001
0.43810278 0.39517066 1.113
0.43965885 0.39481559 1.1120001
0.44160855 0.39481559 1.1120001
0.4427605 0.39410549 1.11
0.44786006 0.39517066 1.113
0.44981152 0.39517066 1.113
0.45176297 0.39517066 1.113
0.4549374 0.39623579 1.1160001
0.45730352 0.39659086 1.1170001
0.45967314 0.39694589 1.118
0.45956883 0.39517066 1.113
0.46027631 0.39410549 1.11
0.46222249 0.39410549 1.11
0.4641687 0.39410549 1.11
0.47043073 0.39446056 1.1110001
0.48688927 0.39517066 1.113
0.49079219 0.39517066 1.113
0.49318635 0.39552569 1.1140001
0.50002873 0.39943126 1.125
0.50200123 0.39943126 1.125
0.50038993 0.39659086 1.1170001
0.50234842 0.39659086 1.1170001
0.50791878 0.39943126 1.125
0.50898474 0.39872116 1.123
0.5059489 0.39481559 1.1120001
0.50744182 0.39446056 1.1110001
0.50893128 0.39410549 1.11
0.51133776 0.39446056 1.1110001
0.51374769 0.39481559 1.1120001
0.51569742 0.39481559 1.1120001
0.51625061 0.39375046 1.1090001
0.51866227 0.39410549 1.11
0.52060848 0.39410549 1.11
0.52443779 0.39552569 1.1140001
0.52639097 0.39552569 1.1140001
0.52929276 0.39623579 1.1160001
0.52886933 0.39446056 1.1110001
0.53081727 0.39446056 1.1110001
0.53468341 0.39588076 1.115
0.53615707 0.39552569 1.1140001
0.53617811 0.39410549 1.11
0.54543304 0.39517066 1.113
0.54984355 0.39694589 1.118
0.55180383 0.39694589 1.118
0.33723176 0.3978357 1.115
0.33918673 0.3978357 1.115
0.33961189 0.3960517 1.11
0.34094268 0.39533809 1.108
0.34288538 0.39533809 1.108
0.34545049 0.3960517 1.11
0.34770966 0.3964085 1.1110001
0.34965762 0.3964085 1.1110001
0.35192207 0.39676529 1.1120001
0.35418999 0.39712211 1.113
0.35614145 0.39712211 1.113
0.35777116 0.39676529 1.1120001
0.35939738 0.3964085 1.1110001
0.36102009 0.3960517 1.11
0.3629663 0.3960517 1.11
0.36655626 0.3978357 1.115
0.3671892 0.3964085 1.1110001
0.36913717 0.3964085 1.1110001
0.37108511 0.3964085 1.1110001
0.37303305 0.3964085 1.1110001
0.37633109 0.3978357 1.115
0.37828603 0.3978357 1.115
0.38092306 0.39854932 1.1170001
0.38116765 0.39676529 1.1120001
0.38277283 0.3964085 1.1110001
0.38610592 0.3978357 1.115
0.38806087 0.3978357 1.115
0.39036563 0.39819252 1.1160001
0.39232236 0.39819252 1.1160001
0.39427906 0.39819252 1.1160001
0.39623579 0.39819252 1.1160001
0.39819252 0.39819252 1.1160001
0.40014923 0.39819252 1.1160001
0.40246627 0.39854932 1.1170001
0.40442473 0.39854932 1.1170001
0.40565559 0.3978357 1.115
0.40761054 0.3978357 1.115
0.40809622 0.3964085 1.1110001
0.41041327 0.39676529 1.1120001
0.41273379 0.39712211 1.113
0.41617557 0.39854932 1.1170001
0.41775972 0.39819252 1.1160001
0.41896427 0.39747891 1.1140001
0.42129532 0.3978357 1.115
0.42325029 0.3978357 1.115
0.42558661 0.39819252 1.1160001
0.4271602 0.3978357 1.115
0.42873034 0.39747891 1.1140001
0.43068352 0.39747891 1.1140001
0.43224838 0.39712211 1.113
0.43419984 0.39712211 1.113
0.4361513 0.39712211 1.113
0.43770915 0.39676529 1.1120001
0.43965885 0.39676529 1.1120001
0.44200569 0.39712211 1.113
0.4427605 0.3960517 1.11
0.49318635 0.39747891 1.1140001
0.49513957 0.39747891 1.1140001
0.49664655 0.39712211 1.113
0.50412893 0.39533809 1.108
0.50561488 0.39498129 1.107
0.50755578 0.39498129 1.107
0.50995702 0.39533809 1.108
0.51189971 0.39533809 1.108
0.51616114 0.39712211 1.113
0.51625061 0.39569488 1.1090001
0.51912957 0.3964085 1.1110001
0.52107751 0.3964085 1.1110001
0.5253793 0.39819252 1.1160001
0.52733606 0.39819252 1.1160001
0.52881849 0.3978357 1.115
0.52886933 0.3964085 1.1110001
0.53081727 0.3964085 1.1110001
0.53228569 0.3960517 1.11
0.33961189 0.39799789 1.11
0.34094268 0.39728078 1.108
0.34319484 0.39763933 1.1090001
0.34513929 0.39763933 1.1090001
0.3473967 0.39799789 1.11
0.34934291 0.39799789 1.11
0.35128909 0.39799789 1.11
0.35355353 0.39835647 1.1110001
0.35518149 0.39799789 1.11
0.3571277 0.39799789 1.11
0.3587504 0.39763933 1.1090001
0.36102009 0.39799789 1.11
0.3629663 0.39799789 1.11
0.36524126 0.39835647 1.1110001
0.3671892 0.39835647 1.1110001
0.36913717 0.39835647 1.1110001
0.37108511 0.39835647 1.1110001
0.37303305 0.39835647 1.1110001
0.37498102 0.39835647 1.1110001
0.37692896 0.39835647 1.1110001
0.38092306 0.40050781 1.1170001
0.38151044 0.39907357 1.113
0.38277283 0.39835647 1.1110001
0.38472077 0.39835647 1.1110001
0.38666874 0.39835647 1.1110001
0.38896647 0.39871502 1.1120001
0.3909162 0.39871502 1.1120001
0.3928659 0.39871502 1.1120001
0.39481559 0.39871502 1.1120001
0.39676529 0.39871502 1.1120001
0.39871502 0.39871502 1.1120001
0.40066472 0.39871502 1.1120001
0.40297648 0.39907357 1.113
0.40492794 0.39907357 1.113
0.4068794 0.39907357 1.113
0.40809622 0.39835647 1.1110001
0.41041327 0.39871502 1.1120001
0.41236296 0.39871502 1.1120001
0.41543043 0.39979067 1.115
0.41738537 0.39979067 1.115
0.41934034 0.39979067 1.115
0.42167315 0.40014923 1.1160001
0.5084728 0.39763933 1.1090001
0.51041722 0.39763933 1.1090001
0.51236171 0.39763933 1.1090001
0.51616114 0.39907357 1.113
0.51625061 0.39763933 1.1090001
0.51959682 0.39871502 1.1120001
0.52107751 0.39835647 1.1110001
0.52490854 0.39979067 1.115
0.52733606 0.40014923 1.1160001
0.52692139 0.39835647 1.1110001
0.52886933 0.39835647 1.1110001
0.53177285 0.39907357 1.113
0.34319484 0.39958379 1.1090001
0.34545049 0.3999441 1.11
0.34770966 0.40030441 1.1110001
0.34934291 0.3999441 1.11
0.35616249 0.39886317 1.107
0.35810342 0.39886317 1.107
0.3616583 0.39850286 1.1060001
0.36392626 0.39886317 1.107
0.3658672 0.39886317 1.107
0.36780813 0.39886317 1.107
0.36941504 0.39850286 1.1060001
0.37135425 0.39850286 1.1060001
0.37363094 0.39886317 1.107
0.37658969 0.3999441 1.11
0.37955898 0.40102503 1.113
0.37979653 0.39922348 1.108
0.38139471 0.39886317 1.107
0.38472077 0.40030441 1.1110001
0.38632071 0.3999441 1.11
0.38861668 0.40030441 1.1110001
0.3909162 0.40066472 1.1120001
0.39251259 0.40030441 1.1110001
0.39481559 0.40066472 1.1120001
0.39676529 0.40066472 1.1120001
0.39871502 0.40066472 1.1120001
0.39886317 0.39886317 1.107
0.40116617 0.39922348 1.108
0.37169001 0.4008041 1.107
0.37363094 0.4008041 1.107
0.37751284 0.4008041 1.107
0.38333565 0.4008041 1.107
0.38527659 0.4008041 1.107
0.38861668 0.40225235 1.1110001
0.38915846 0.4008041 1.107
