# .PCD v0.7 - Point Cloud Data file format
VERSION 0.7
FIELDS x y z
SIZE 4 4 4
TYPE F F F
COUNT 1 1 1
WIDTH 1596
HEIGHT 1
VIEWPOINT 0 0 0 1 0 0 0
POINTS 1596
DATA ascii
0.15075599 0.26544151 1.0550001
0.15260574 0.26544151 1.0550001
0.15430911 0.26518992 1.054
0.15630528 0.26544151 1.0550001
0.15815505 0.26544151 1.0550001
0.16030814 0.26594472 1.057
0.16216141 0.26594472 1.057
0.16401468 0.26594472 1.057
0.16571105 0.26569313 1.056
0.16803859 0.26644793 1.059
0.10112 0.2731185 1.0780001
0.10301009 0.2731185 1.0780001
0.10490018 0.2731185 1.0780001
0.10679027 0.2731185 1.0780001
0.1082771 0.27210507 1.074
0.10995504 0.27159834 1.072
0.11162597 0.27109164 1.0700001
0.11339596 0.27083826 1.069
0.11516244 0.27058491 1.0680001
0.11670625 0.26982486 1.0650001
0.11857355 0.26982486 1.0650001
0.12044085 0.26982486 1.0650001
0.12230815 0.26982486 1.0650001
0.12370906 0.26881143 1.0610001
0.12509595 0.26779801 1.057
0.12694922 0.26779801 1.057
0.12855878 0.26729128 1.0550001
0.13003772 0.2665312 1.052
0.13175686 0.26627785 1.051
0.1334725 0.2660245 1.0500001
0.13505577 0.26551777 1.0480001
0.13689326 0.26551777 1.0480001
0.13873075 0.26551777 1.0480001
0.14070237 0.26577115 1.049
0.1426775 0.2660245 1.0500001
0.14451849 0.2660245 1.0500001
0.1463595 0.2660245 1.0500001
0.1482005 0.2660245 1.0500001
0.15047018 0.26678458 1.0530001
0.15231645 0.26678458 1.0530001
0.1541627 0.26678458 1.0530001
0.15600897 0.26678458 1.0530001
0.15785523 0.26678458 1.0530001
0.16030814 0.26779801 1.057
0.16216141 0.26779801 1.057
0.16385952 0.26754463 1.056
0.1661818 0.26830471 1.059
0.16803859 0.26830471 1.059
0.1014014 0.27577391 1.0810001
0.10329676 0.27577391 1.0810001
0.10519211 0.27577391 1.0810001
0.10708746 0.27577391 1.0810001
0.1082771 0.27398813 1.074
0.10985247 0.2732228 1.0710001
0.11152164 0.27271259 1.069
0.11339596 0.27271259 1.069
0.11516244 0.27245748 1.0680001
0.11670625 0.27169216 1.0650001
0.11857355 0.27169216 1.0650001
0.12044085 0.27169216 1.0650001
0.12184878 0.2706717 1.0610001
0.12370906 0.2706717 1.0610001
0.12509595 0.26965126 1.057
0.12694922 0.26965126 1.057
0.12855878 0.26914105 1.0550001
0.13003772 0.26837572 1.052
0.13163149 0.26786551 1.0500001
0.13334538 0.2676104 1.049
0.13505577 0.26735529 1.0480001
0.13689326 0.26735529 1.0480001
0.13873075 0.26735529 1.0480001
0.14070237 0.2676104 1.049
0.1426775 0.26786551 1.0500001
0.14451849 0.26786551 1.0500001
0.1463595 0.26786551 1.0500001
0.14805935 0.2676104 1.049
0.15004151 0.26786551 1.0500001
0.1518825 0.26786551 1.0500001
0.1541627 0.26863083 1.0530001
0.15600897 0.26863083 1.0530001
0.15800513 0.26888594 1.054
0.1597015 0.26863083 1.0530001
0.16216141 0.26965126 1.057
0.16401468 0.26965126 1.057
0.16633873 0.27041659 1.0600001
0.16803859 0.27016148 1.059
0.1014014 0.27766925 1.0810001
0.10329676 0.27766925 1.0810001
0.10519211 0.27766925 1.0810001
0.10708746 0.27766925 1.0810001
0.10878118 0.27715555 1.079
0.10985247 0.27510062 1.0710001
0.11152164 0.27458692 1.069
0.11328988 0.27433005 1.0680001
0.11483895 0.27355945 1.0650001
0.11681584 0.27381632 1.0660001
0.11868489 0.27381632 1.0660001
0.12010158 0.27278885 1.062
0.12196362 0.27278885 1.062
0.12370906 0.27253199 1.0610001
0.12509595 0.27150455 1.057
0.12694922 0.27150455 1.057
0.12831508 0.27047709 1.0530001
0.13016133 0.27047709 1.0530001
0.13175686 0.26996335 1.051
0.13321826 0.26919279 1.0480001
0.13492689 0.26893592 1.0470001
0.13676263 0.26893592 1.0470001
0.13859837 0.26893592 1.0470001
0.14056824 0.26919279 1.0480001
0.14240573 0.26919279 1.0480001
0.14424323 0.26919279 1.0480001
0.14608072 0.26919279 1.0480001
0.14791821 0.26919279 1.0480001
0.1498986 0.26944962 1.049
0.15173785 0.26944962 1.049
0.1540163 0.27022022 1.052
0.15600897 0.27047709 1.0530001
0.15785523 0.27047709 1.0530001
0.1597015 0.27047709 1.0530001
0.162008 0.27124768 1.056
0.16401468 0.27150455 1.057
0.16633873 0.27227512 1.0600001
0.16787991 0.27176142 1.0580001
0.1014014 0.27956462 1.0810001
0.10329676 0.27956462 1.0810001
0.10519211 0.27956462 1.0810001
0.10708746 0.27956462 1.0810001
0.10837792 0.2780129 1.075
0.10995504 0.27723706 1.072
0.11141732 0.27620259 1.0680001
0.11307772 0.27568537 1.0660001
0.11494678 0.27568537 1.0660001
0.11681584 0.27568537 1.0660001
0.11823954 0.2746509 1.062
0.12021467 0.27490953 1.0630001
0.12196362 0.2746509 1.062
0.12370906 0.27439228 1.0610001
0.12521429 0.27361643 1.0580001
0.12706932 0.27361643 1.0580001
0.12843692 0.27258196 1.054
0.13016133 0.27232334 1.0530001
0.13175686 0.27180612 1.051
0.13321826 0.27103028 1.0480001
0.13492689 0.27077165 1.0470001
0.13676263 0.27077165 1.0470001
0.13846599 0.27051303 1.046
0.14043412 0.27077165 1.0470001
0.14226985 0.27077165 1.0470001
0.14396796 0.27051303 1.046
0.14594133 0.27077165 1.0470001
0.14777707 0.27077165 1.0470001
0.14961281 0.27077165 1.0470001
0.15144855 0.27077165 1.0470001
0.1532843 0.27077165 1.0470001
0.15586081 0.27206475 1.052
0.15770532 0.27206475 1.052
0.15954983 0.27206475 1.052
0.162008 0.27309918 1.056
0.16385952 0.27309918 1.056
0.1661818 0.27387506 1.059
0.16787991 0.27361643 1.0580001
0.10112 0.28067887 1.0780001
0.10301009 0.28067887 1.0780001
0.10519211 0.28145996 1.0810001
0.10718653 0.28172034 1.082
0.10837792 0.27989775 1.075
0.10964733 0.27833554 1.069
0.11120867 0.27755442 1.0660001
0.11307772 0.27755442 1.0660001
0.11494678 0.27755442 1.0660001
0.1163775 0.27651295 1.062
0.11823954 0.27651295 1.062
0.12021467 0.2767733 1.0630001
0.12196362 0.27651295 1.062
0.12382566 0.27651295 1.062
0.12556934 0.27625257 1.0610001
0.12742963 0.27625257 1.0610001
0.12831508 0.27416959 1.0530001
0.13016133 0.27416959 1.0530001
0.13138077 0.27286777 1.0480001
0.13321826 0.27286777 1.0480001
0.13479802 0.27234703 1.046
0.13663201 0.27234703 1.046
0.13833362 0.27208665 1.0450001
0.14029998 0.27234703 1.046
0.14226985 0.27260739 1.0470001
0.14396796 0.27234703 1.046
0.14580193 0.27234703 1.046
0.14763592 0.27234703 1.046
0.14946991 0.27234703 1.046
0.1513039 0.27234703 1.046
0.15313789 0.27234703 1.046
0.15586081 0.27390924 1.052
0.15770532 0.27390924 1.052
0.15954983 0.27390924 1.052
0.16139433 0.27390924 1.052
0.16385952 0.27495071 1.056
0.1661818 0.27573183 1.059
0.16787991 0.27547145 1.0580001
0.10112 0.28256896 1.0780001
0.10301009 0.28256896 1.0780001
0.10519211 0.28335533 1.0810001
0.10718653 0.28361744 1.082
0.10837792 0.28178257 1.075
0.10964733 0.28020984 1.069
0.11120867 0.27942348 1.0660001
0.11265342 0.27837497 1.062
0.11451546 0.27837497 1.062
0.1163775 0.27837497 1.062
0.11823954 0.27837497 1.062
0.11976231 0.27758861 1.059
0.12161909 0.27758861 1.059
0.12347587 0.27758861 1.059
0.12509595 0.27706435 1.057
0.12694922 0.27706435 1.057
0.12831508 0.27601588 1.0530001
0.13003772 0.27575374 1.052
0.13138077 0.27470526 1.0480001
0.13309115 0.27444312 1.0470001
0.13466915 0.27391887 1.0450001
0.13650139 0.27391887 1.0450001
0.13833362 0.27391887 1.0450001
0.14029998 0.27418101 1.046
0.14213397 0.27418101 1.046
0.14396796 0.27418101 1.046
0.14580193 0.27418101 1.046
0.14763592 0.27418101 1.046
0.14946991 0.27418101 1.046
0.1513039 0.27418101 1.046
0.15372349 0.27522948 1.0500001
0.15586081 0.27575374 1.052
0.15770532 0.27575374 1.052
0.15954983 0.27575374 1.052
0.16139433 0.27575374 1.052
0.16370435 0.2765401 1.0550001
0.16602488 0.27732649 1.0580001
0.16787991 0.27732649 1.0580001
0.10112 0.28445905 1.0780001
0.10301009 0.28445905 1.0780001
0.10519211 0.28525066 1.0810001
0.10688934 0.28472292 1.079
0.1082771 0.28340355 1.074
0.10964733 0.28208417 1.069
0.11110435 0.28102866 1.0650001
0.11254735 0.27997315 1.0610001
0.11440763 0.27997315 1.0610001
0.1163775 0.28023702 1.062
0.11790553 0.27944538 1.059
0.11976231 0.27944538 1.059
0.12161909 0.27944538 1.059
0.12347587 0.27944538 1.059
0.12521429 0.27918151 1.0580001
0.12694922 0.27891764 1.057
0.12831508 0.27786213 1.0530001
0.1299141 0.27733436 1.051
0.13163149 0.27707049 1.0500001
0.13296403 0.27601498 1.046
0.13479802 0.27601498 1.046
0.13663201 0.27601498 1.046
0.13846599 0.27601498 1.046
0.14029998 0.27601498 1.046
0.14226985 0.27627885 1.0470001
0.14410558 0.27627885 1.0470001
0.14594133 0.27627885 1.0470001
0.14777707 0.27627885 1.0470001
0.14946991 0.27601498 1.046
0.1513039 0.27601498 1.046
0.15372349 0.27707049 1.0500001
0.15586081 0.27759826 1.052
0.15770532 0.27759826 1.052
0.15954983 0.27759826 1.052
0.16139433 0.27759826 1.052
0.16370435 0.27838987 1.0550001
0.16602488 0.27918151 1.0580001
0.16787991 0.27918151 1.0580001
0.10329676 0.28714603 1.0810001
0.10519211 0.28714603 1.0810001
0.10679027 0.28634915 1.0780001
0.1082771 0.28528661 1.074
0.10964733 0.28395846 1.069
0.11110435 0.28289595 1.0650001
0.11254735 0.28183344 1.0610001
0.11440763 0.28183344 1.0610001
0.11626792 0.28183344 1.0610001
0.11779419 0.28103653 1.0580001
0.11976231 0.28130215 1.059
0.12161909 0.28130215 1.059
0.12335927 0.28103653 1.0580001
0.12521429 0.28103653 1.0580001
0.12694922 0.2807709 1.057
0.12831508 0.27970839 1.0530001
0.13003772 0.27944276 1.052
0.13175686 0.27917713 1.051
0.13334538 0.27864587 1.049
0.13518463 0.27864587 1.049
0.13702388 0.27864587 1.049
0.13846599 0.27784899 1.046
0.14043412 0.27811462 1.0470001
0.14226985 0.27811462 1.0470001
0.14424323 0.27838024 1.0480001
0.14608072 0.27838024 1.0480001
0.14777707 0.27811462 1.0470001
0.14946991 0.27784899 1.046
0.1513039 0.27784899 1.046
0.15313789 0.27784899 1.046
0.15512003 0.27811462 1.0470001
0.15755542 0.27917713 1.051
0.15954983 0.27944276 1.052
0.16139433 0.27944276 1.052
0.16323884 0.27944276 1.052
0.16586797 0.2807709 1.057
0.16787991 0.28103653 1.0580001
0.10339231 0.28930876 1.082
0.10519211 0.28904137 1.0810001
0.10659215 0.28770447 1.0760001
0.10807546 0.28663492 1.072
0.10964733 0.28583279 1.069
0.11131299 0.28529802 1.067
0.11286557 0.28449586 1.064
0.11440763 0.2836937 1.0610001
0.11626792 0.2836937 1.0610001
0.1181282 0.2836937 1.0610001
0.11964922 0.28289157 1.0580001
0.12150425 0.28289157 1.0580001
0.12335927 0.28289157 1.0580001
0.12509595 0.28262419 1.057
0.12670901 0.28208941 1.0550001
0.12855878 0.28208941 1.0550001
0.1299141 0.2810199 1.051
0.13150613 0.28048512 1.049
0.13321826 0.28021774 1.0480001
0.13518463 0.28048512 1.049
0.1371545 0.28075251 1.0500001
0.1389955 0.28075251 1.0500001
0.14043412 0.27995035 1.0470001
0.14254162 0.28048512 1.049
0.14479378 0.28128725 1.052
0.14663827 0.28128725 1.052
0.14791821 0.28021774 1.0480001
0.14961281 0.27995035 1.0470001
0.15144855 0.27995035 1.0470001
0.1532843 0.27995035 1.0470001
0.15526819 0.28021774 1.0480001
0.15725559 0.28048512 1.049
0.15909484 0.28048512 1.049
0.16139433 0.28128725 1.052
0.16323884 0.28128725 1.052
0.16586797 0.28262419 1.057
0.16772124 0.28262419 1.057
0.10339231 0.29120588 1.082
0.10519211 0.29093674 1.0810001
0.10669121 0.28986019 1.077
0.10807546 0.28851449 1.072
0.10964733 0.28770709 1.069
0.11131299 0.28716883 1.067
0.11297165 0.28663054 1.0650001
0.11440763 0.28555399 1.0610001
0.11626792 0.28555399 1.0610001
0.1181282 0.28555399 1.0610001
0.11998849 0.28555399 1.0610001
0.12150425 0.28474659 1.0580001
0.12324268 0.28447744 1.057
0.1249776 0.28420833 1.056
0.12670901 0.28393918 1.0550001
0.12855878 0.28393918 1.0550001
0.13040856 0.28393918 1.0550001
0.13163149 0.28259349 1.0500001
0.13334538 0.28232437 1.049
0.1353135 0.28259349 1.0500001
0.13728513 0.28286263 1.051
0.1389955 0.28259349 1.0500001
0.14097063 0.28286263 1.051
0.14294927 0.28313178 1.052
0.14493141 0.28340092 1.0530001
0.1463595 0.28259349 1.0500001
0.14805935 0.28232437 1.049
0.1497557 0.28205523 1.0480001
0.15159319 0.28205523 1.0480001
0.1532843 0.28178608 1.0470001
0.15482372 0.28124782 1.0450001
0.15680586 0.28151694 1.046
0.15909484 0.28232437 1.049
0.1610875 0.28259349 1.0500001
0.16292849 0.28259349 1.0500001
0.16602488 0.28474659 1.0580001
0.16787991 0.28474659 1.0580001
0.10339231 0.29310298 1.082
0.10499749 0.2922903 1.079
0.10669121 0.29174852 1.077
0.10807546 0.29039407 1.072
0.10964733 0.28958142 1.069
0.11131299 0.28903964 1.067
0.11297165 0.28849784 1.0650001
0.11483895 0.28849784 1.0650001
0.11626792 0.28741428 1.0610001
0.1181282 0.28741428 1.0610001
0.11998849 0.28741428 1.0610001
0.12150425 0.28660163 1.0580001
0.12324268 0.28633073 1.057
0.12509595 0.28633073 1.057
0.12682912 0.28605983 1.056
0.12868065 0.28605983 1.056
0.13016133 0.28524718 1.0530001
0.13175686 0.2847054 1.051
0.1334725 0.2844345 1.0500001
0.1353135 0.2844345 1.0500001
0.13728513 0.2847054 1.051
0.13912788 0.2847054 1.051
0.14097063 0.2847054 1.051
0.14294927 0.28497627 1.052
0.14451849 0.2844345 1.0500001
0.1463595 0.2844345 1.0500001
0.14805935 0.28416359 1.049
0.1498986 0.28416359 1.049
0.15173785 0.28416359 1.049
0.15357709 0.28416359 1.049
0.15512003 0.28362182 1.0470001
0.15695576 0.28362182 1.0470001
0.15879151 0.28362182 1.0470001
0.1610875 0.2844345 1.0500001
0.16292849 0.2844345 1.0500001
0.16555412 0.28578895 1.0550001
0.16787991 0.28660163 1.0580001
0.10490018 0.29390952 1.0780001
0.10659215 0.29336423 1.0760001
0.10807546 0.29227364 1.072
0.10964733 0.29145572 1.069
0.11120867 0.29063779 1.0660001
0.1131838 0.29091042 1.067
0.11473112 0.2900925 1.064
0.11670625 0.29036516 1.0650001
0.1181282 0.28927457 1.0610001
0.11998849 0.28927457 1.0610001
0.1213894 0.28818399 1.057
0.12312608 0.28791136 1.056
0.1249776 0.28791136 1.056
0.12682912 0.28791136 1.056
0.12868065 0.28791136 1.056
0.13016133 0.28709343 1.0530001
0.13188222 0.2868208 1.052
0.13359961 0.28654814 1.051
0.13505577 0.28573021 1.0480001
0.13689326 0.28573021 1.0480001
0.13873075 0.28573021 1.0480001
0.14056824 0.28573021 1.0480001
0.14254162 0.28600284 1.049
0.14438087 0.28600284 1.049
0.1462201 0.28600284 1.049
0.14805935 0.28600284 1.049
0.1498986 0.28600284 1.049
0.15173785 0.28600284 1.049
0.1538699 0.28654814 1.051
0.15512003 0.28545758 1.0470001
0.15695576 0.28545758 1.0470001
0.15879151 0.28545758 1.0470001
0.1610875 0.28627551 1.0500001
0.16277333 0.28600284 1.049
0.16508335 0.2868208 1.052
0.16740388 0.28763872 1.0550001
0.10291453 0.29552519 1.077
0.10470556 0.2952508 1.0760001
0.10609683 0.29387882 1.0710001
0.10807546 0.29415321 1.072
0.10964733 0.29333004 1.069
0.11152164 0.29333004 1.069
0.11307772 0.29250684 1.0660001
0.11462329 0.29168364 1.0630001
0.11659667 0.29195806 1.064
0.1181282 0.29113486 1.0610001
0.11998849 0.29113486 1.0610001
0.12127456 0.28976288 1.056
0.12312608 0.28976288 1.056
0.1249776 0.28976288 1.056
0.12682912 0.28976288 1.056
0.12868065 0.28976288 1.056
0.13016133 0.28893968 1.0530001
0.13200758 0.28893968 1.0530001
0.13321826 0.2875677 1.0480001
0.13505577 0.2875677 1.0480001
0.13702388 0.28784209 1.049
0.13886312 0.28784209 1.049
0.14070237 0.28784209 1.049
0.14254162 0.28784209 1.049
0.14451849 0.28811648 1.0500001
0.1463595 0.28811648 1.0500001
0.1482005 0.28811648 1.0500001
0.15004151 0.28811648 1.0500001
0.1518825 0.28811648 1.0500001
0.1538699 0.2883909 1.051
0.15526819 0.2875677 1.0480001
0.15710568 0.2875677 1.0480001
0.15894318 0.2875677 1.0480001
0.1610875 0.28811648 1.0500001
0.16292849 0.28811648 1.0500001
0.16524027 0.28893968 1.0530001
0.16724521 0.28921407 1.054
0.10301009 0.29768971 1.0780001
0.10441363 0.29630893 1.0730001
0.10619589 0.29603279 1.072
0.10807546 0.29603279 1.072
0.10964733 0.29520434 1.069
0.11152164 0.29520434 1.069
0.11307772 0.2943759 1.0660001
0.11462329 0.29354745 1.0630001
0.11648709 0.29354745 1.0630001
0.11801687 0.29271901 1.0600001
0.1198754 0.29271901 1.0600001
0.12127456 0.29161438 1.056
0.12312608 0.29161438 1.056
0.12462255 0.29078594 1.0530001
0.12646881 0.29078594 1.0530001
0.12831508 0.29078594 1.0530001
0.13016133 0.29078594 1.0530001
0.13200758 0.29078594 1.0530001
0.13334538 0.28968135 1.049
0.13518463 0.28968135 1.049
0.13702388 0.28968135 1.049
0.13886312 0.28968135 1.049
0.14070237 0.28968135 1.049
0.14254162 0.28968135 1.049
0.14451849 0.28995749 1.0500001
0.1463595 0.28995749 1.0500001
0.14805935 0.28968135 1.049
0.15004151 0.28995749 1.0500001
0.1518825 0.28995749 1.0500001
0.1538699 0.29023364 1.051
0.15541634 0.28968135 1.049
0.15725559 0.28968135 1.049
0.15894318 0.2894052 1.0480001
0.1610875 0.28995749 1.0500001
0.16277333 0.28968135 1.049
0.16492642 0.29023364 1.051
0.16708653 0.29078594 1.0530001
0.10301009 0.2995798 1.0780001
0.10441363 0.29819027 1.0730001
0.10619589 0.29791236 1.072
0.10807546 0.29791236 1.072
0.10964733 0.29707867 1.069
0.11152164 0.29707867 1.069
0.11307772 0.29624495 1.0660001
0.11462329 0.29541123 1.0630001
0.11648709 0.29541123 1.0630001
0.11790553 0.29429963 1.059
0.11976231 0.29429963 1.059
0.12127456 0.29346591 1.056
0.12300948 0.29318801 1.0550001
0.12462255 0.29263222 1.0530001
0.12646881 0.29263222 1.0530001
0.12831508 0.29263222 1.0530001
0.13016133 0.29263222 1.0530001
0.13163149 0.2917985 1.0500001
0.1334725 0.2917985 1.0500001
0.1353135 0.2917985 1.0500001
0.13689326 0.29124269 1.0480001
0.13873075 0.29124269 1.0480001
0.14056824 0.29124269 1.0480001
0.14254162 0.2915206 1.049
0.14438087 0.2915206 1.049
0.1462201 0.2915206 1.049
0.14805935 0.2915206 1.049
0.1498986 0.2915206 1.049
0.15173785 0.2915206 1.049
0.15372349 0.2917985 1.0500001
0.15526819 0.29124269 1.0480001
0.15710568 0.29124269 1.0480001
0.15939817 0.29207641 1.051
0.16093408 0.2915206 1.049
0.16261816 0.29124269 1.0480001
0.1647695 0.2917985 1.0500001
0.16708653 0.29263222 1.0530001
0.10451094 0.30035126 1.074
0.10619589 0.29979193 1.072
0.10807546 0.29979193 1.072
0.10964733 0.29895297 1.069
0.11152164 0.29895297 1.069
0.11307772 0.298114 1.0660001
0.11451546 0.29699537 1.062
0.1163775 0.29699537 1.062
0.11779419 0.29587674 1.0580001
0.11964922 0.29587674 1.0580001
0.12104487 0.29475811 1.054
0.1224265 0.29363951 1.0500001
0.12438585 0.29391915 1.051
0.1263487 0.29419881 1.052
0.12819321 0.29419881 1.052
0.13016133 0.29447848 1.0530001
0.13163149 0.29363951 1.0500001
0.1334725 0.29363951 1.0500001
0.1353135 0.29363951 1.0500001
0.13702388 0.29335985 1.049
0.13873075 0.29308018 1.0480001
0.14056824 0.29308018 1.0480001
0.14254162 0.29335985 1.049
0.14438087 0.29335985 1.049
0.1462201 0.29335985 1.049
0.14805935 0.29335985 1.049
0.1498986 0.29335985 1.049
0.15173785 0.29335985 1.049
0.15372349 0.29363951 1.0500001
0.15571265 0.29391915 1.051
0.15755542 0.29391915 1.051
0.15909484 0.29335985 1.049
0.16078067 0.29308018 1.0480001
0.16261816 0.29308018 1.0480001
0.1647695 0.29363951 1.0500001
0.16708653 0.29447848 1.0530001
0.10431632 0.3016715 1.072
0.10599776 0.30110869 1.0700001
0.10787383 0.30110869 1.0700001
0.10964733 0.30082729 1.069
0.11120867 0.29998305 1.0660001
0.11307772 0.29998305 1.0660001
0.11451546 0.29885742 1.062
0.11582958 0.29745036 1.057
0.11768286 0.29745036 1.057
0.11919686 0.29660612 1.054
0.12093003 0.29632473 1.0530001
0.1224265 0.29548049 1.0500001
0.1242675 0.29548049 1.0500001
0.1261085 0.29548049 1.0500001
0.12819321 0.29604331 1.052
0.12966689 0.2951991 1.049
0.13163149 0.29548049 1.0500001
0.1334725 0.29548049 1.0500001
0.1353135 0.29548049 1.0500001
0.1371545 0.29548049 1.0500001
0.13859837 0.29463628 1.0470001
0.14043412 0.29463628 1.0470001
0.14213397 0.29435486 1.046
0.14396796 0.29435486 1.046
0.14580193 0.29435486 1.046
0.14763592 0.29435486 1.046
0.14946991 0.29435486 1.046
0.1518825 0.29548049 1.0500001
0.15372349 0.29548049 1.0500001
0.15571265 0.29576191 1.051
0.15755542 0.29576191 1.051
0.15909484 0.2951991 1.049
0.16124092 0.29576191 1.051
0.16292849 0.29548049 1.0500001
0.1647695 0.29548049 1.0500001
0.16708653 0.29632473 1.0530001
0.10431632 0.30355108 1.072
0.10619589 0.30355108 1.072
0.10797465 0.30326793 1.0710001
0.10933962 0.30185211 1.0660001
0.11120867 0.30185211 1.0660001
0.11275949 0.30100262 1.0630001
0.11451546 0.30071947 1.062
0.11582958 0.29930365 1.057
0.11757152 0.29902047 1.056
0.11908377 0.29817098 1.0530001
0.12104487 0.29845417 1.054
0.1224265 0.2973215 1.0500001
0.12438585 0.29760465 1.051
0.1262286 0.29760465 1.051
0.12831508 0.29817098 1.0530001
0.1297905 0.2973215 1.0500001
0.13163149 0.2973215 1.0500001
0.1334725 0.2973215 1.0500001
0.1353135 0.2973215 1.0500001
0.1371545 0.2973215 1.0500001
0.13859837 0.29647201 1.0470001
0.14043412 0.29647201 1.0470001
0.14213397 0.29618883 1.046
0.14396796 0.29618883 1.046
0.14580193 0.29618883 1.046
0.14777707 0.29647201 1.0470001
0.14946991 0.29618883 1.046
0.15173785 0.29703835 1.049
0.15357709 0.29703835 1.049
0.15541634 0.29703835 1.049
0.1574055 0.2973215 1.0500001
0.15894318 0.29675516 1.0480001
0.1610875 0.2973215 1.0500001
0.16292849 0.2973215 1.0500001
0.1647695 0.2973215 1.0500001
0.16708653 0.29817098 1.0530001
0.10619589 0.30543065 1.072
0.10777301 0.30457592 1.069
0.10954476 0.30429101 1.0680001
0.11152164 0.30457592 1.069
0.11286557 0.30315134 1.064
0.11462329 0.30286643 1.0630001
0.11593916 0.30144182 1.0580001
0.11768286 0.30115691 1.057
0.11919686 0.30030218 1.054
0.1205855 0.29916251 1.0500001
0.1224265 0.29916251 1.0500001
0.12438585 0.29944742 1.051
0.1263487 0.29973233 1.052
0.12831508 0.30001724 1.0530001
0.13028494 0.30030218 1.054
0.13175686 0.29944742 1.051
0.13359961 0.29944742 1.051
0.13544238 0.29944742 1.051
0.13728513 0.29944742 1.051
0.13859837 0.29830775 1.0470001
0.14056824 0.29859266 1.0480001
0.14226985 0.29830775 1.0470001
0.14396796 0.29802284 1.046
0.14594133 0.29830775 1.0470001
0.14777707 0.29830775 1.0470001
0.1497557 0.29859266 1.0480001
0.15202715 0.29944742 1.051
0.15372349 0.29916251 1.0500001
0.15541634 0.29887757 1.049
0.15725559 0.29887757 1.049
0.15939817 0.29944742 1.051
0.1610875 0.29916251 1.0500001
0.16292849 0.29916251 1.0500001
0.1647695 0.29916251 1.0500001
0.16708653 0.30001724 1.0530001
0.10619589 0.30731022 1.072
0.10777301 0.30645022 1.069
0.10954476 0.30616355 1.0680001
0.11141732 0.30616355 1.0680001
0.11286557 0.30501688 1.064
0.11408414 0.30329686 1.0580001
0.11593916 0.30329686 1.0580001
0.11734884 0.30215019 1.054
0.11908377 0.30186352 1.0530001
0.1205855 0.30100349 1.0500001
0.1224265 0.30100349 1.0500001
0.12462255 0.30186352 1.0530001
0.12658891 0.30215019 1.054
0.12831508 0.30186352 1.0530001
0.13028494 0.30215019 1.054
0.13175686 0.30129015 1.051
0.13359961 0.30129015 1.051
0.13544238 0.30129015 1.051
0.13728513 0.30129015 1.051
0.13859837 0.30014348 1.0470001
0.14056824 0.30043015 1.0480001
0.14254162 0.30071682 1.049
0.14438087 0.30071682 1.049
0.14608072 0.30043015 1.0480001
0.14791821 0.30043015 1.0480001
0.1497557 0.30043015 1.0480001
0.15202715 0.30129015 1.051
0.15372349 0.30100349 1.0500001
0.15541634 0.30071682 1.049
0.15725559 0.30071682 1.049
0.15879151 0.30014348 1.0470001
0.1610875 0.30100349 1.0500001
0.16292849 0.30100349 1.0500001
0.1647695 0.30100349 1.0500001
0.16708653 0.30186352 1.0530001
0.10787383 0.30861297 1.0700001
0.10964733 0.30832455 1.069
0.11152164 0.30832455 1.069
0.11286557 0.30688241 1.064
0.11419197 0.30544031 1.059
0.11593916 0.30515188 1.0580001
0.11723751 0.30370978 1.0530001
0.11908377 0.30370978 1.0530001
0.1205855 0.30284449 1.0500001
0.1224265 0.30284449 1.0500001
0.12462255 0.30370978 1.0530001
0.12658891 0.3039982 1.054
0.12831508 0.30370978 1.0530001
0.13016133 0.30370978 1.0530001
0.13213295 0.3039982 1.054
0.13359961 0.30313292 1.051
0.13544238 0.30313292 1.051
0.1371545 0.30284449 1.0500001
0.1389955 0.30284449 1.0500001
0.14056824 0.30226764 1.0480001
0.14240573 0.30226764 1.0480001
0.14424323 0.30226764 1.0480001
0.14608072 0.30226764 1.0480001
0.14791821 0.30226764 1.0480001
0.1497557 0.30226764 1.0480001
0.1518825 0.30284449 1.0500001
0.15357709 0.30255607 1.049
0.15541634 0.30255607 1.049
0.15725559 0.30255607 1.049
0.15879151 0.30197921 1.0470001
0.1610875 0.30284449 1.0500001
0.16292849 0.30284449 1.0500001
0.1647695 0.30284449 1.0500001
0.16756256 0.30457503 1.056
0.10787383 0.31048903 1.0700001
0.10954476 0.30990869 1.0680001
0.11141732 0.30990869 1.0680001
0.11275949 0.30845779 1.0630001
0.11462329 0.30845779 1.0630001
0.11593916 0.30700693 1.0580001
0.11723751 0.30555603 1.0530001
0.11908377 0.30555603 1.0530001
0.1205855 0.3046855 1.0500001
0.1224265 0.3046855 1.0500001
0.12462255 0.30555603 1.0530001
0.12658891 0.30584621 1.054
0.12831508 0.30555603 1.0530001
0.13028494 0.30584621 1.054
0.13175686 0.30497569 1.051
0.13359961 0.30497569 1.051
0.13544238 0.30497569 1.051
0.13728513 0.30497569 1.051
0.1389955 0.3046855 1.0500001
0.14056824 0.30410513 1.0480001
0.14240573 0.30410513 1.0480001
0.14424323 0.30410513 1.0480001
0.14608072 0.30410513 1.0480001
0.14763592 0.30352479 1.046
0.14946991 0.30352479 1.046
0.15173785 0.30439532 1.049
0.15357709 0.30439532 1.049
0.15541634 0.30439532 1.049
0.15710568 0.30410513 1.0480001
0.15894318 0.30410513 1.0480001
0.16062725 0.30381498 1.0470001
0.16292849 0.3046855 1.0500001
0.1647695 0.3046855 1.0500001
0.16756256 0.30642655 1.056
0.10787383 0.31236508 1.0700001
0.10923705 0.31090546 1.0650001
0.11110435 0.31090546 1.0650001
0.11286557 0.31061351 1.064
0.11419197 0.30915385 1.059
0.11604875 0.30915385 1.059
0.11746018 0.30798614 1.0550001
0.11908377 0.30740228 1.0530001
0.1205855 0.30652651 1.0500001
0.1224265 0.30652651 1.0500001
0.12462255 0.30740228 1.0530001
0.12658891 0.30769423 1.054
0.12843692 0.30769423 1.054
0.13028494 0.30769423 1.054
0.13175686 0.30681843 1.051
0.13359961 0.30681843 1.051
0.13544238 0.30681843 1.051
0.1371545 0.30652651 1.0500001
0.13886312 0.30623457 1.049
0.14043412 0.30565071 1.0470001
0.14240573 0.30594262 1.0480001
0.14424323 0.30594262 1.0480001
0.14608072 0.30594262 1.0480001
0.14763592 0.30535877 1.046
0.14946991 0.30535877 1.046
0.15173785 0.30623457 1.049
0.15357709 0.30623457 1.049
0.15541634 0.30623457 1.049
0.15710568 0.30594262 1.0480001
0.15894318 0.30594262 1.0480001
0.16062725 0.30565071 1.0470001
0.16292849 0.30652651 1.0500001
0.1647695 0.30652651 1.0500001
0.16724521 0.30769423 1.054
0.10787383 0.31424117 1.0700001
0.10923705 0.31277275 1.0650001
0.11110435 0.31277275 1.0650001
0.11286557 0.31247908 1.064
0.1142998 0.31130433 1.0600001
0.11604875 0.31101066 1.059
0.11746018 0.30983591 1.0550001
0.11919686 0.30954224 1.054
0.12070034 0.30866119 1.051
0.1225431 0.30866119 1.051
0.12462255 0.30924854 1.0530001
0.12646881 0.30924854 1.0530001
0.12831508 0.30924854 1.0530001
0.1299141 0.30866119 1.051
0.13175686 0.30866119 1.051
0.13359961 0.30866119 1.051
0.13544238 0.30866119 1.051
0.13702388 0.30807382 1.049
0.13886312 0.30807382 1.049
0.14083649 0.30836749 1.0500001
0.14226985 0.30748644 1.0470001
0.14424323 0.30778012 1.0480001
0.14608072 0.30778012 1.0480001
0.14763592 0.30719277 1.046
0.14946991 0.30719277 1.046
0.15173785 0.30807382 1.049
0.15357709 0.30807382 1.049
0.15526819 0.30778012 1.0480001
0.15710568 0.30778012 1.0480001
0.15894318 0.30778012 1.0480001
0.16062725 0.30748644 1.0470001
0.16308367 0.30866119 1.051
0.16492642 0.30866119 1.051
0.16724521 0.30954224 1.054
0.10787383 0.31611723 1.0700001
0.10923705 0.31464005 1.0650001
0.11110435 0.31464005 1.0650001
0.11297165 0.31464005 1.0650001
0.11440763 0.31345829 1.0610001
0.11615833 0.31316286 1.0600001
0.11757152 0.31198111 1.056
0.11930995 0.31168568 1.0550001
0.12070034 0.31050393 1.051
0.12265969 0.31079936 1.052
0.12462255 0.31109482 1.0530001
0.12646881 0.31109482 1.0530001
0.12831508 0.31109482 1.0530001
0.12966689 0.30991307 1.049
0.13163149 0.3102085 1.0500001
0.1334725 0.3102085 1.0500001
0.13518463 0.30991307 1.049
0.13689326 0.30961764 1.0480001
0.13873075 0.30961764 1.0480001
0.14029998 0.30902675 1.046
0.14213397 0.30902675 1.046
0.14396796 0.30902675 1.046
0.14580193 0.30902675 1.046
0.14763592 0.30902675 1.046
0.14946991 0.30902675 1.046
0.15173785 0.30991307 1.049
0.15343069 0.30961764 1.0480001
0.15512003 0.30932218 1.0470001
0.15710568 0.30961764 1.0480001
0.15879151 0.30932218 1.0470001
0.1610875 0.3102085 1.0500001
0.16308367 0.31050393 1.051
0.16492642 0.31050393 1.051
0.16676918 0.31050393 1.051
0.10787383 0.31799328 1.0700001
0.10923705 0.31650734 1.0650001
0.11110435 0.31650734 1.0650001
0.11297165 0.31650734 1.0650001
0.11440763 0.31531858 1.0610001
0.11626792 0.31531858 1.0610001
0.11757152 0.31383264 1.056
0.11942304 0.31383264 1.056
0.12070034 0.3123467 1.051
0.12265969 0.31264389 1.052
0.1245042 0.31264389 1.052
0.12646881 0.31294107 1.0530001
0.12782764 0.31175232 1.049
0.12966689 0.31175232 1.049
0.13150613 0.31175232 1.049
0.13334538 0.31175232 1.049
0.13518463 0.31175232 1.049
0.13650139 0.31056353 1.0450001
0.13833362 0.31056353 1.0450001
0.14016585 0.31056353 1.0450001
0.14199808 0.31056353 1.0450001
0.14383031 0.31056353 1.0450001
0.14580193 0.31086072 1.046
0.14763592 0.31086072 1.046
0.14946991 0.31086072 1.046
0.15159319 0.31145513 1.0480001
0.15343069 0.31145513 1.0480001
0.15512003 0.31115794 1.0470001
0.15710568 0.31145513 1.0480001
0.15894318 0.31145513 1.0480001
0.16124092 0.3123467 1.051
0.16308367 0.3123467 1.051
0.16492642 0.3123467 1.051
0.16676918 0.3123467 1.051
0.10787383 0.31986937 1.0700001
0.10923705 0.31837463 1.0650001
0.11110435 0.31837463 1.0650001
0.11286557 0.31807572 1.064
0.11451546 0.31747782 1.062
0.11593916 0.31628203 1.0580001
0.11757152 0.31568417 1.056
0.11908377 0.31478733 1.0530001
0.12081519 0.31448838 1.052
0.12265969 0.31448838 1.052
0.1245042 0.31448838 1.052
0.1261085 0.31389049 1.0500001
0.12794951 0.31389049 1.0500001
0.1297905 0.31389049 1.0500001
0.13163149 0.31389049 1.0500001
0.1334725 0.31389049 1.0500001
0.13479802 0.31269473 1.046
0.13650139 0.31239578 1.0450001
0.13846599 0.31269473 1.046
0.14029998 0.31269473 1.046
0.14213397 0.31269473 1.046
0.14396796 0.31269473 1.046
0.14580193 0.31269473 1.046
0.14763592 0.31269473 1.046
0.14946991 0.31269473 1.046
0.15159319 0.31329262 1.0480001
0.15343069 0.31329262 1.0480001
0.15526819 0.31329262 1.0480001
0.15710568 0.31329262 1.0480001
0.15894318 0.31329262 1.0480001
0.16078067 0.31329262 1.0480001
0.16261816 0.31329262 1.0480001
0.16445565 0.31329262 1.0480001
0.16676918 0.31418943 1.051
0.10787383 0.32174543 1.0700001
0.10923705 0.32024196 1.0650001
0.11110435 0.32024196 1.0650001
0.11244126 0.31873846 1.0600001
0.11451546 0.31933987 1.062
0.11593916 0.31813708 1.0580001
0.11723751 0.31663358 1.0530001
0.11908377 0.31663358 1.0530001
0.12081519 0.31633288 1.052
0.12265969 0.31633288 1.052
0.1242675 0.3157315 1.0500001
0.1261085 0.3157315 1.0500001
0.12794951 0.3157315 1.0500001
0.1297905 0.3157315 1.0500001
0.1312554 0.31482941 1.0470001
0.13309115 0.31482941 1.0470001
0.13492689 0.31482941 1.0470001
0.13663201 0.3145287 1.046
0.13846599 0.3145287 1.046
0.14043412 0.31482941 1.0470001
0.14226985 0.31482941 1.0470001
0.14410558 0.31482941 1.0470001
0.14594133 0.31482941 1.0470001
0.14763592 0.3145287 1.046
0.14946991 0.3145287 1.046
0.15159319 0.31513011 1.0480001
0.15357709 0.31543079 1.049
0.1555645 0.3157315 1.0500001
0.1574055 0.3157315 1.0500001
0.1592465 0.3157315 1.0500001
0.16093408 0.31543079 1.049
0.16277333 0.31543079 1.049
0.16445565 0.31513011 1.0480001
0.16676918 0.3160322 1.051
0.10777301 0.32331905 1.069
0.10933962 0.32241169 1.0660001
0.11120867 0.32241169 1.0660001
0.11265342 0.32120189 1.062
0.11440763 0.32089946 1.0610001
0.11593916 0.3199921 1.0580001
0.11746018 0.31908473 1.0550001
0.11919686 0.3187823 1.054
0.12104487 0.3187823 1.054
0.12289289 0.3187823 1.054
0.12438585 0.31787494 1.051
0.1261085 0.3175725 1.0500001
0.12794951 0.3175725 1.0500001
0.1297905 0.3175725 1.0500001
0.1312554 0.31666514 1.0470001
0.13309115 0.31666514 1.0470001
0.13492689 0.31666514 1.0470001
0.13663201 0.31636271 1.046
0.13846599 0.31636271 1.046
0.14029998 0.31636271 1.046
0.14226985 0.31666514 1.0470001
0.14410558 0.31666514 1.0470001
0.14594133 0.31666514 1.0470001
0.14777707 0.31666514 1.0470001
0.14946991 0.31636271 1.046
0.15173785 0.31727004 1.049
0.15372349 0.3175725 1.0500001
0.1555645 0.3175725 1.0500001
0.1574055 0.3175725 1.0500001
0.1592465 0.3175725 1.0500001
0.16154775 0.31847984 1.0530001
0.16323884 0.3181774 1.052
0.16492642 0.31787494 1.051
0.16676918 0.31787494 1.051
0.10649309 0.32701859 1.075
0.10807546 0.32610598 1.072
0.10933962 0.32428074 1.0660001
0.11120867 0.32428074 1.0660001
0.1131838 0.32458496 1.067
0.11462329 0.32336813 1.0630001
0.11604875 0.32215133 1.059
0.11757152 0.32123873 1.056
0.11930995 0.3209345 1.0550001
0.12104487 0.32063031 1.054
0.12289289 0.32063031 1.054
0.12438585 0.31971771 1.051
0.1261085 0.31941348 1.0500001
0.12794951 0.31941348 1.0500001
0.1297905 0.31941348 1.0500001
0.1312554 0.31850088 1.0470001
0.13321826 0.3188051 1.0480001
0.13492689 0.31850088 1.0470001
0.13676263 0.31850088 1.0470001
0.13806887 0.31728408 1.0430001
0.13989758 0.31728408 1.0430001
0.14159043 0.31697989 1.0420001
0.14355505 0.31728408 1.0430001
0.14608072 0.3188051 1.0480001
0.14791821 0.3188051 1.0480001
0.14961281 0.31850088 1.0470001
0.1518825 0.31941348 1.0500001
0.15372349 0.31941348 1.0500001
0.1555645 0.31941348 1.0500001
0.15755542 0.31971771 1.051
0.1592465 0.31941348 1.0500001
0.16170117 0.32063031 1.054
0.16323884 0.3200219 1.052
0.16492642 0.31971771 1.051
0.16676918 0.31971771 1.051
0.10649309 0.32890341 1.075
0.10797465 0.32767957 1.0710001
0.10964733 0.32706767 1.069
0.11120867 0.32614979 1.0660001
0.1131838 0.32645577 1.067
0.11462329 0.32523194 1.0630001
0.11604875 0.32400811 1.059
0.11757152 0.32309023 1.056
0.11919686 0.32247832 1.054
0.12104487 0.32247832 1.054
0.12289289 0.32247832 1.054
0.12438585 0.32156044 1.051
0.1261085 0.32125449 1.0500001
0.12794951 0.32125449 1.0500001
0.1297905 0.32125449 1.0500001
0.1312554 0.32033664 1.0470001
0.13309115 0.32033664 1.0470001
0.13492689 0.32033664 1.0470001
0.13676263 0.32033664 1.0470001
0.13806887 0.31911281 1.0430001
0.14003173 0.31941876 1.044
0.14159043 0.31880686 1.0420001
0.14355505 0.31911281 1.0430001
0.14608072 0.32064259 1.0480001
0.14791821 0.32064259 1.0480001
0.1497557 0.32064259 1.0480001
0.1518825 0.32125449 1.0500001
0.15372349 0.32125449 1.0500001
0.1555645 0.32125449 1.0500001
0.1574055 0.32125449 1.0500001
0.1592465 0.32125449 1.0500001
0.16170117 0.32247832 1.054
0.16323884 0.32186642 1.052
0.16492642 0.32156044 1.051
0.16676918 0.32156044 1.051
0.10649309 0.33078825 1.075
0.10807546 0.32986513 1.072
0.10954476 0.32863429 1.0680001
0.11120867 0.32801884 1.0660001
0.1131838 0.32832655 1.067
0.11462329 0.32709572 1.0630001
0.11593916 0.32555717 1.0580001
0.11746018 0.32463405 1.0550001
0.11919686 0.32432634 1.054
0.12104487 0.32432634 1.054
0.12289289 0.32432634 1.054
0.12438585 0.32340321 1.051
0.1261085 0.3230955 1.0500001
0.12794951 0.3230955 1.0500001
0.1297905 0.3230955 1.0500001
0.13138077 0.32248008 1.0480001
0.13309115 0.32217237 1.0470001
0.13492689 0.32217237 1.0470001
0.13676263 0.32217237 1.0470001
0.13859837 0.32217237 1.0470001
0.14070237 0.32278779 1.049
0.14172632 0.32094154 1.0430001
0.14355505 0.32094154 1.0430001
0.14608072 0.32248008 1.0480001
0.14791821 0.32248008 1.0480001
0.1497557 0.32248008 1.0480001
0.1518825 0.3230955 1.0500001
0.15372349 0.3230955 1.0500001
0.1555645 0.3230955 1.0500001
0.1574055 0.3230955 1.0500001
0.1592465 0.3230955 1.0500001
0.16093408 0.32278779 1.049
0.16323884 0.32371092 1.052
0.16492642 0.32340321 1.051
0.16676918 0.32340321 1.051
0.10649309 0.33267307 1.075
0.10807546 0.3317447 1.072
0.10954476 0.33050683 1.0680001
0.11120867 0.3298879 1.0660001
0.1131838 0.33019736 1.067
0.11451546 0.32865006 1.062
0.11593916 0.32741222 1.0580001
0.11746018 0.32648382 1.0550001
0.11930995 0.32648382 1.0550001
0.12104487 0.32617435 1.054
0.12289289 0.32617435 1.054
0.1247409 0.32617435 1.054
0.1261085 0.32493651 1.0500001
0.12807135 0.32524595 1.051
0.1299141 0.32524595 1.051
0.13138077 0.32431757 1.0480001
0.13321826 0.32431757 1.0480001
0.13492689 0.32400811 1.0470001
0.13676263 0.32400811 1.0470001
0.13859837 0.32400811 1.0470001
0.14070237 0.32462704 1.049
0.14240573 0.32431757 1.0480001
0.14424323 0.32431757 1.0480001
0.1462201 0.32462704 1.049
0.14805935 0.32462704 1.049
0.1498986 0.32462704 1.049
0.15202715 0.32524595 1.051
0.15372349 0.32493651 1.0500001
0.1555645 0.32493651 1.0500001
0.15725559 0.32462704 1.049
0.15909484 0.32462704 1.049
0.16078067 0.32431757 1.0480001
0.16308367 0.32524595 1.051
0.16492642 0.32524595 1.051
0.16676918 0.32524595 1.051
0.10639402 0.3342467 1.074
0.10797465 0.33331305 1.0710001
0.10954476 0.3323794 1.0680001
0.11120867 0.33175698 1.0660001
0.11297165 0.33144575 1.0650001
0.11440763 0.33020088 1.0610001
0.11582958 0.32895601 1.057
0.11734884 0.32802236 1.054
0.11919686 0.32802236 1.054
0.12104487 0.32802236 1.054
0.12289289 0.32802236 1.054
0.1247409 0.32802236 1.054
0.1261085 0.32677749 1.0500001
0.12807135 0.32708871 1.051
0.1299141 0.32708871 1.051
0.13175686 0.32708871 1.051
0.13359961 0.32708871 1.051
0.1353135 0.32677749 1.0500001
0.13676263 0.32584384 1.0470001
0.13859837 0.32584384 1.0470001
0.14070237 0.32646629 1.049
0.14240573 0.32615507 1.0480001
0.14424323 0.32615507 1.0480001
0.1462201 0.32646629 1.049
0.14805935 0.32646629 1.049
0.1498986 0.32646629 1.049
0.15159319 0.32615507 1.0480001
0.15372349 0.32677749 1.0500001
0.1555645 0.32677749 1.0500001
0.15725559 0.32646629 1.049
0.15909484 0.32646629 1.049
0.16078067 0.32615507 1.0480001
0.16308367 0.32708871 1.051
0.16492642 0.32708871 1.051
0.16676918 0.32708871 1.051
0.10639402 0.33612978 1.074
0.10787383 0.33487791 1.0700001
0.10954476 0.33425197 1.0680001
0.11152164 0.33456492 1.069
0.11286557 0.33300006 1.064
0.11473112 0.33300006 1.064
0.11582958 0.3308093 1.057
0.11757152 0.33049631 1.056
0.11953613 0.3308093 1.057
0.12093003 0.32955742 1.0530001
0.12277629 0.32955742 1.0530001
0.12462255 0.32955742 1.0530001
0.1263487 0.32924443 1.052
0.12843692 0.32987037 1.054
0.1299141 0.32893148 1.051
0.13163149 0.3286185 1.0500001
0.1334725 0.3286185 1.0500001
0.1353135 0.3286185 1.0500001
0.13676263 0.32767957 1.0470001
0.13859837 0.32767957 1.0470001
0.14056824 0.32799256 1.0480001
0.14254162 0.32830554 1.049
0.14438087 0.32830554 1.049
0.1462201 0.32830554 1.049
0.14805935 0.32830554 1.049
0.1498986 0.32830554 1.049
0.15159319 0.32799256 1.0480001
0.15372349 0.3286185 1.0500001
0.1555645 0.3286185 1.0500001
0.15725559 0.32830554 1.049
0.15909484 0.32830554 1.049
0.16078067 0.32799256 1.0480001
0.16308367 0.32893148 1.051
0.16492642 0.32893148 1.051
0.16676918 0.32893148 1.051
0.10787383 0.33675396 1.0700001
0.10954476 0.33612451 1.0680001
0.11131299 0.3358098 1.067
0.11286557 0.33486563 1.064
0.11473112 0.33486563 1.064
0.11593916 0.33297729 1.0580001
0.11746018 0.33203313 1.0550001
0.11942304 0.33234784 1.056
0.12115972 0.33203313 1.0550001
0.1225431 0.33077422 1.051
0.12438585 0.33077422 1.051
0.1262286 0.33077422 1.051
0.12831508 0.33140367 1.0530001
0.1297905 0.33045951 1.0500001
0.13150613 0.33014476 1.049
0.1334725 0.33045951 1.0500001
0.13544238 0.33077422 1.051
0.13676263 0.32951534 1.0470001
0.13859837 0.32951534 1.0470001
0.14056824 0.32983005 1.0480001
0.14240573 0.32983005 1.0480001
0.14424323 0.32983005 1.0480001
0.14608072 0.32983005 1.0480001
0.14777707 0.32951534 1.0470001
0.14961281 0.32951534 1.0470001
0.15144855 0.32951534 1.0470001
0.15357709 0.33014476 1.049
0.15541634 0.33014476 1.049
0.15725559 0.33014476 1.049
0.15894318 0.32983005 1.0480001
0.16078067 0.32983005 1.0480001
0.16308367 0.33077422 1.051
0.16492642 0.33077422 1.051
0.16676918 0.33077422 1.051
0.10807546 0.33926299 1.072
0.10964733 0.33831355 1.069
0.11141732 0.33799708 1.0680001
0.11275949 0.33641469 1.0630001
0.11462329 0.33641469 1.0630001
0.11582958 0.33451584 1.057
0.11768286 0.33451584 1.057
0.11919686 0.3335664 1.054
0.12093003 0.33324993 1.0530001
0.12277629 0.33324993 1.0530001
0.1242675 0.33230048 1.0500001
0.1261085 0.33230048 1.0500001
0.12807135 0.33261698 1.051
0.1297905 0.33230048 1.0500001
0.13138077 0.33166754 1.0480001
0.1334725 0.33230048 1.0500001
0.1353135 0.33230048 1.0500001
0.13676263 0.33135107 1.0470001
0.13846599 0.3310346 1.046
0.14043412 0.33135107 1.0470001
0.14240573 0.33166754 1.0480001
0.14424323 0.33166754 1.0480001
0.14608072 0.33166754 1.0480001
0.14721249 0.33008516 1.0430001
0.14904122 0.33008516 1.0430001
0.15144855 0.33135107 1.0470001
0.15299149 0.3307181 1.0450001
0.15482372 0.3307181 1.0450001
0.15665595 0.3307181 1.0450001
0.15848818 0.3307181 1.0450001
0.16078067 0.33166754 1.0480001
0.16261816 0.33166754 1.0480001
0.16492642 0.33261698 1.051
0.16676918 0.33261698 1.051
0.10878118 0.34337017 1.079
0.10964733 0.34018788 1.069
0.11141732 0.33986965 1.0680001
0.11307772 0.33923319 1.0660001
0.11462329 0.3382785 1.0630001
0.11572 0.33605087 1.056
0.11757152 0.33605087 1.056
0.11942304 0.33605087 1.056
0.12127456 0.33605087 1.056
0.12277629 0.33509618 1.0530001
0.1242675 0.33414149 1.0500001
0.1261085 0.33414149 1.0500001
0.12794951 0.33414149 1.0500001
0.1297905 0.33414149 1.0500001
0.13138077 0.33350503 1.0480001
0.13334538 0.33382326 1.049
0.13544238 0.33445972 1.051
0.13689326 0.33350503 1.0480001
0.13859837 0.33318681 1.0470001
0.14056824 0.33350503 1.0480001
0.14240573 0.33350503 1.0480001
0.14369267 0.33223212 1.044
0.14552316 0.33223212 1.044
0.14735363 0.33223212 1.044
0.14889832 0.33159566 1.0420001
0.15072531 0.33159566 1.0420001
0.15240587 0.33127743 1.041
0.15482372 0.33255035 1.0450001
0.15665595 0.33255035 1.0450001
0.15848818 0.33255035 1.0450001
0.16062725 0.33318681 1.0470001
0.16261816 0.33350503 1.0480001
0.16492642 0.33445972 1.051
0.16692786 0.33477795 1.052
0.10985247 0.34270215 1.0710001
0.11141732 0.34174219 1.0680001
0.1131838 0.3414222 1.067
0.11451546 0.33982229 1.062
0.11582958 0.33822238 1.057
0.11734884 0.33726242 1.054
0.11908377 0.33694243 1.0530001
0.12093003 0.33694243 1.0530001
0.12277629 0.33694243 1.0530001
0.1242675 0.3359825 1.0500001
0.1261085 0.3359825 1.0500001
0.12758394 0.33502254 1.0470001
0.12941967 0.33502254 1.0470001
0.13100468 0.33438259 1.0450001
0.13296403 0.33470255 1.046
0.13492689 0.33502254 1.0470001
0.13624014 0.33374262 1.0430001
0.13793649 0.33342263 1.0420001
0.13989758 0.33374262 1.0430001
0.14159043 0.33342263 1.0420001
0.14355505 0.33374262 1.0430001
0.14538378 0.33374262 1.0430001
0.14721249 0.33374262 1.0430001
0.14889832 0.33342263 1.0420001
0.15072531 0.33342263 1.0420001
0.15240587 0.33310264 1.041
0.15482372 0.33438259 1.0450001
0.15665595 0.33438259 1.0450001
0.15848818 0.33438259 1.0450001
0.16078067 0.33534253 1.0480001
0.16261816 0.33534253 1.0480001
0.16492642 0.33630249 1.051
0.16692786 0.33662248 1.052
0.10985247 0.34457996 1.0710001
0.11141732 0.34361476 1.0680001
0.11328988 0.34361476 1.0680001
0.11451546 0.34168434 1.062
0.11604875 0.34071913 1.059
0.11746018 0.33943218 1.0550001
0.11919686 0.33911043 1.054
0.1205855 0.33782351 1.0500001
0.1224265 0.33782351 1.0500001
0.1242675 0.33782351 1.0500001
0.12574819 0.3368583 1.0470001
0.12770578 0.33718002 1.0480001
0.12954327 0.33718002 1.0480001
0.13113004 0.33653656 1.046
0.13309115 0.3368583 1.0470001
0.13492689 0.3368583 1.0470001
0.13610952 0.3352496 1.0420001
0.13793649 0.3352496 1.0420001
0.13976346 0.3352496 1.0420001
0.14159043 0.3352496 1.0420001
0.14300449 0.33428439 1.039
0.1448262 0.33428439 1.039
0.14664792 0.33428439 1.039
0.14832674 0.33396265 1.0380001
0.15014669 0.33396265 1.0380001
0.15240587 0.33492786 1.041
0.15482372 0.33621481 1.0450001
0.15665595 0.33621481 1.0450001
0.15848818 0.33621481 1.0450001
0.16078067 0.33718002 1.0480001
0.16277333 0.33750176 1.049
0.16508335 0.33846697 1.052
0.16708653 0.33878872 1.0530001
0.11120867 0.34484035 1.0660001
0.11297165 0.34451684 1.0650001
0.1142998 0.34289941 1.0600001
0.11572 0.34160542 1.056
0.11712617 0.34031147 1.052
0.11897068 0.34031147 1.052
0.1205855 0.33966449 1.0500001
0.1224265 0.33966449 1.0500001
0.1242675 0.33966449 1.0500001
0.12586829 0.33901751 1.0480001
0.12782764 0.33934101 1.049
0.12966689 0.33934101 1.049
0.1312554 0.33869404 1.0470001
0.13321826 0.33901751 1.0480001
0.13441141 0.33740008 1.0430001
0.13624014 0.33740008 1.0430001
0.13793649 0.33707657 1.0420001
0.13976346 0.33707657 1.0420001
0.14145455 0.3367531 1.041
0.14286686 0.33578262 1.0380001
0.14468682 0.33578262 1.0380001
0.14664792 0.33610612 1.039
0.14832674 0.33578262 1.0380001
0.15014669 0.33578262 1.0380001
0.15240587 0.3367531 1.041
0.15482372 0.33804706 1.0450001
0.15665595 0.33804706 1.0450001
0.15848818 0.33804706 1.0450001
0.16078067 0.33901751 1.0480001
0.16277333 0.33934101 1.049
0.16524027 0.34063497 1.0530001
0.16708653 0.34063497 1.0530001
0.10944219 0.34703463 1.067
0.11131299 0.34703463 1.067
0.1131838 0.34703463 1.067
0.1142998 0.34475794 1.0600001
0.11593916 0.34410745 1.0580001
0.11723751 0.34248123 1.0530001
0.11908377 0.34248123 1.0530001
0.12081519 0.34215599 1.052
0.12265969 0.34215599 1.052
0.1245042 0.34215599 1.052
0.12598839 0.34118026 1.049
0.12794951 0.3415055 1.0500001
0.1299141 0.34183073 1.051
0.13150613 0.34118026 1.049
0.13334538 0.34118026 1.049
0.13454027 0.33955404 1.044
0.13624014 0.33922881 1.0430001
0.13806887 0.33922881 1.0430001
0.13989758 0.33922881 1.0430001
0.14172632 0.33922881 1.0430001
0.14300449 0.33792782 1.039
0.1448262 0.33792782 1.039
0.1469302 0.33857831 1.041
0.14846964 0.33792782 1.039
0.15014669 0.33760259 1.0380001
0.15255228 0.33890355 1.0420001
0.15482372 0.33987927 1.0450001
0.15665595 0.33987927 1.0450001
0.15848818 0.33987927 1.0450001
0.16093408 0.34118026 1.049
0.16292849 0.3415055 1.0500001
0.1653972 0.34280646 1.054
0.16676918 0.34183073 1.051
0.10944219 0.34890544 1.067
0.11131299 0.34890544 1.067
0.1131838 0.34890544 1.067
0.11440763 0.34694347 1.0610001
0.11604875 0.34628946 1.059
0.11746018 0.34498149 1.0550001
0.11930995 0.34498149 1.0550001
0.12104487 0.34465447 1.054
0.12289289 0.34465447 1.054
0.12462255 0.34432748 1.0530001
0.1261085 0.34334651 1.0500001
0.12807135 0.3436735 1.051
0.13003772 0.34400049 1.052
0.13163149 0.34334651 1.0500001
0.13258268 0.34105751 1.0430001
0.13415366 0.34040353 1.041
0.13584827 0.34007654 1.0400001
0.13753936 0.33974954 1.039
0.13989758 0.34105751 1.0430001
0.14172632 0.34105751 1.0430001
0.14300449 0.33974954 1.039
0.1448262 0.33974954 1.039
0.14678906 0.34007654 1.0400001
0.14861253 0.34007654 1.0400001
0.15086995 0.34105751 1.0430001
0.15255228 0.34073052 1.0420001
0.15437925 0.34073052 1.0420001
0.15695576 0.3423655 1.0470001
0.15879151 0.3423655 1.0470001
0.16124092 0.3436735 1.051
0.16308367 0.3436735 1.051
0.1653972 0.34465447 1.054
0.16692786 0.34400049 1.052
0.1097499 0.3517625 1.0700001
0.11131299 0.35077626 1.067
0.11275949 0.34946126 1.0630001
0.11451546 0.34913251 1.062
0.11626792 0.34880376 1.0610001
0.11768286 0.34748876 1.057
0.11953613 0.34748876 1.057
0.12104487 0.34650248 1.054
0.12289289 0.34650248 1.054
0.1247409 0.34650248 1.054
0.1263487 0.34584498 1.052
0.12831508 0.34617373 1.0530001
0.1297905 0.34518749 1.0500001
0.13163149 0.34518749 1.0500001
0.1327098 0.34321499 1.044
0.13441141 0.34288624 1.0430001
0.13610952 0.34255749 1.0420001
0.13793649 0.34255749 1.0420001
0.13962933 0.34222874 1.041
0.14118278 0.34157124 1.039
0.14300449 0.34157124 1.039
0.1449656 0.34189999 1.0400001
0.14707135 0.34255749 1.0420001
0.14889832 0.34255749 1.0420001
0.15058064 0.34222874 1.041
0.15284508 0.34321499 1.044
0.15467556 0.34321499 1.044
0.15710568 0.34452999 1.0480001
0.15894318 0.34452999 1.0480001
0.16139433 0.34584498 1.052
0.16308367 0.34551623 1.051
0.16586797 0.34748876 1.057
0.16708653 0.34617373 1.0530001
0.10954476 0.35297754 1.0680001
0.11131299 0.35264707 1.067
0.11265342 0.35099453 1.062
0.11462329 0.35132504 1.0630001
0.11626792 0.35066402 1.0610001
0.11779419 0.34967253 1.0580001
0.11964922 0.34967253 1.0580001
0.1213894 0.34934202 1.057
0.12312608 0.34901151 1.056
0.12485925 0.348681 1.0550001
0.12646881 0.34802002 1.0530001
0.12831508 0.34802002 1.0530001
0.12892523 0.34471497 1.0430001
0.13075395 0.34471497 1.0430001
0.13258268 0.34471497 1.0430001
0.13415366 0.34405395 1.041
0.13584827 0.34372348 1.0400001
0.13793649 0.34438446 1.0420001
0.13976346 0.34438446 1.0420001
0.14131866 0.34372348 1.0400001
0.14300449 0.34339297 1.039
0.14510499 0.34405395 1.041
0.14707135 0.34438446 1.0420001
0.14889832 0.34438446 1.0420001
0.15058064 0.34405395 1.041
0.15284508 0.34504548 1.044
0.15526819 0.34636748 1.0480001
0.15710568 0.34636748 1.0480001
0.15939817 0.347359 1.051
0.16139433 0.34768951 1.052
0.16308367 0.347359 1.051
0.16586797 0.34934202 1.057
