# .PCD v0.7 - Point Cloud Data file format
VERSION 0.7
FIELDS x y z
SIZE 4 4 4
TYPE F F F
COUNT 1 1 1
WIDTH 1443
HEIGHT 1
VIEWPOINT 0 0 0 1 0 0 0
POINTS 1443
DATA ascii
0.041693017 0.1649328 0.13557354
0.03840141 0.17538477 0.13483305
0.037119891 0.18449959 0.13488849
0.037413243 0.19468519 0.13524738
0.038618993 0.20486689 0.13468163
0.039599985 0.21130426 0.13162899
0.041611411 0.21514766 0.13507614
0.057493646 0.24175677 0.13469262
0.062583424 0.24644828 0.13503926
0.090916634 0.25962725 0.13550727
0.088214807 0.25973511 0.13250183
0.094796441 0.26155248 0.13537365
0.10492576 0.26307371 0.13468221
0.039177477 0.17718987 0.14410876
0.038106963 0.18541744 0.14535949
0.038405165 0.194364 0.14537436
0.040215302 0.19672748 0.14832599
0.039754212 0.20358104 0.14497614
0.040562488 0.20604734 0.14427309
0.042248208 0.21526083 0.14520018
0.046030954 0.22494377 0.14475906
0.05854138 0.24093364 0.1442571
0.043939851 0.16513963 0.1552908
0.042188056 0.17436859 0.15519318
0.038440496 0.18595709 0.15470746
0.040159557 0.18484065 0.15857379
0.039344162 0.19308291 0.15441401
0.04074787 0.19696972 0.15561481
0.040197387 0.20450266 0.15463881
0.041118216 0.20566791 0.15532897
0.04807803 0.22435164 0.15387112
0.050756108 0.22835141 0.157589
0.060006451 0.23980094 0.15616913
0.059598155 0.2406096 0.15282212
0.061463702 0.24514481 0.15517668
0.043312125 0.17456992 0.16277084
0.039567858 0.18450569 0.1626672
0.041097526 0.18557782 0.16639264
0.040159535 0.19176276 0.16127957
0.04177478 0.19497995 0.16507961
0.043596093 0.20489544 0.16484532
0.04618039 0.21497682 0.16493602
0.048443291 0.22327369 0.16472404
0.051741391 0.22777832 0.16545892
0.059145067 0.24282888 0.16547862
0.060939863 0.24673341 0.16382182
0.045476153 0.17513527 0.17500548
0.043383643 0.18522841 0.17507242
0.043379657 0.19541636 0.17446049
0.045118876 0.20499635 0.17506166
0.047524948 0.21470928 0.1745965
0.049621094 0.22203697 0.17166519
0.058327895 0.23397736 0.17517117
0.058878161 0.2444717 0.17480372
0.060828406 0.24850017 0.1750668
0.045907333 0.17738461 0.18289888
0.045578618 0.18518525 0.18511653
0.047075156 0.20538172 0.1847569
0.04905488 0.21326746 0.18353328
0.051727518 0.21707791 0.18580131
0.060388923 0.22954559 0.18815613
0.059257835 0.23564553 0.18380931
0.060340241 0.23364067 0.18707147
0.0586823 0.24439929 0.18330504
0.060729172 0.24224503 0.18730557
0.077409044 0.24435569 0.18737645
0.083431467 0.24863794 0.18849443
0.088367753 0.25163081 0.18828459
0.048986129 0.17784353 0.19325443
0.048740033 0.18483512 0.19349776
0.050811607 0.18526445 0.19849412
0.048467737 0.19434439 0.19298753
0.052876946 0.19515425 0.19720389
0.048725028 0.20586704 0.19219616
0.052646577 0.20389096 0.1969339
0.049651295 0.2109981 0.19120723
0.06578619 0.23362947 0.19288957
0.071331449 0.23726657 0.1935049
0.077596933 0.24244706 0.1917502
0.084478498 0.24650553 0.1928436
0.089303575 0.25152218 0.19034277
0.092850581 0.25129789 0.19241579
0.054551084 0.19590929 0.20074089
0.055545226 0.20010759 0.20075186
0.15896793 0.26511607 0.028553829
0.13444287 0.27433163 0.026570499
0.14211345 0.27336839 0.028199581
0.072787419 0.25923899 0.034689516
0.091530435 0.26967907 0.039396856
0.15904626 0.26543394 0.034709729
0.16277517 0.26472431 0.035421271
0.088744193 0.27039748 0.035936087
0.092864178 0.27122506 0.03715793
0.11640807 0.27678457 0.037576731
0.12755604 0.27377701 0.035526846
0.13376349 0.27413866 0.033059474
0.1423849 0.27346393 0.032605503
0.16818167 0.25952658 0.044788513
0.17785685 0.25551662 0.048567466
0.1656495 0.26225218 0.043832775
0.17057228 0.26012295 0.040769652
0.11506099 0.27501121 0.044794559
0.12431009 0.27531391 0.044967204
0.14778833 0.27093855 0.048708871
0.15207592 0.27066967 0.047618926
0.1811831 0.25258052 0.055343196
0.16573018 0.26289582 0.055637643
0.17073593 0.2603927 0.05531057
0.11495419 0.27437043 0.054820098
0.12509169 0.27525303 0.0548824
0.13512035 0.27464405 0.055225205
0.14470534 0.27217945 0.054741699
0.15138504 0.27143213 0.053119898
0.18449625 0.24659228 0.062750481
0.067889921 0.25426093 0.065502547
0.17539531 0.25559136 0.065533586
0.18181871 0.25104049 0.065087959
0.16562894 0.26230544 0.0659234
0.17151724 0.26055247 0.064283423
0.10507496 0.2732479 0.065084763
0.11513291 0.27523375 0.065069191
0.12494931 0.2748068 0.065013342
0.13495295 0.27490556 0.065268353
0.1441644 0.27255446 0.065696128
0.063029103 0.24852499 0.077043638
0.066490658 0.25259089 0.073559843
0.071756326 0.25757968 0.074685916
0.1685565 0.25940424 0.075803436
0.17527293 0.25560862 0.074876972
0.18087117 0.25200361 0.075569578
0.076715998 0.26233011 0.075073808
0.15591148 0.26761571 0.076558635
0.16393261 0.26352739 0.074942052
0.17024015 0.2603412 0.072934434
0.10505053 0.27359456 0.07495968
0.11502047 0.27441761 0.074716523
0.12497168 0.2744258 0.074776262
0.1350158 0.27389473 0.074840799
0.14500396 0.27226031 0.075035512
0.15243055 0.27042806 0.075522423
0.062839217 0.24798535 0.085558333
0.18302625 0.24863271 0.086894669
0.072240882 0.25829166 0.085029602
0.17567058 0.25463712 0.085321479
0.18169634 0.25156844 0.085024357
0.077455632 0.26221514 0.08477477
0.1483178 0.26956308 0.085683301
0.15510684 0.26737624 0.084932752
0.16511956 0.26380092 0.085037142
0.17133637 0.26084366 0.08493185
0.11489261 0.27485359 0.084778726
0.12502293 0.27436671 0.084870614
0.13502453 0.27353147 0.085148461
0.14395995 0.27178481 0.084805667
0.1508214 0.27011272 0.088415518
0.058416527 0.24256809 0.094929636
0.062531747 0.24691854 0.094935045
0.17933595 0.24934423 0.099408574
0.16959356 0.25980431 0.096982658
0.17567137 0.25480196 0.095162511
0.18101937 0.25084603 0.092441052
0.077350058 0.26158851 0.094738506
0.093416475 0.26933327 0.09677916
0.14803039 0.26983517 0.095715217
0.15499941 0.26776725 0.095007502
0.16468273 0.26350233 0.094984427
0.17070089 0.26059514 0.095041275
0.10505483 0.27348918 0.095020667
0.11510547 0.27467665 0.095028736
0.12510312 0.27460241 0.095253751
0.13501672 0.27298605 0.095045246
0.14338017 0.27092716 0.094856843
0.15016757 0.270284 0.094246827
0.05891576 0.23973769 0.10951389
0.059186932 0.24086784 0.1058275
0.062763527 0.24522594 0.1040197
0.067606926 0.25302604 0.10569334
0.073567666 0.25699589 0.1051985
0.16961703 0.25984004 0.10388945
0.17431666 0.25458217 0.10533078
0.093242183 0.26860353 0.10536872
0.14800079 0.26953027 0.10464067
0.15512204 0.26664659 0.10496562
0.16490026 0.26280931 0.10494611
0.17044947 0.25999457 0.10301303
0.11502279 0.27351221 0.10497546
0.12486062 0.27351865 0.10492629
0.13485003 0.27271336 0.10476521
0.14273641 0.2711803 0.10508541
0.057960935 0.23873888 0.11659445
0.059639517 0.24062139 0.1184423
0.059021778 0.24028964 0.11364885
0.063530609 0.24417159 0.11570407
0.16934018 0.25886691 0.11667005
0.17384449 0.2540186 0.11484317
0.079237945 0.26069817 0.11503572
0.14619787 0.26938164 0.1159931
0.15497589 0.26652193 0.11504753
0.16452287 0.26246968 0.11467433
0.11496788 0.27301329 0.11515011
0.12496235 0.27346364 0.11502954
0.13445082 0.27174419 0.11462931
0.14321266 0.27078521 0.11429596
0.057351079 0.23818292 0.123275
0.060261793 0.2397379 0.12686893
0.059220619 0.24074024 0.12213536
0.064723551 0.24507923 0.12524918
0.069417305 0.25076333 0.12421048
0.080244444 0.25937751 0.12759656
0.16764456 0.25916976 0.12646368
0.17351715 0.25326842 0.12456854
0.10280487 0.26895276 0.12641114
0.13884319 0.26977602 0.12343699
0.14557083 0.26892671 0.1243966
0.15494396 0.26641876 0.12494116
0.16352613 0.26276386 0.12460225
0.10633033 0.27132696 0.12416063
0.11488237 0.27287582 0.12515302
0.12514909 0.27294216 0.12501991
0.13465911 0.2716794 0.12488644
0.14181031 0.27072984 0.12790452
0.060232621 0.23856483 0.13309683
0.061190486 0.23882312 0.13327542
0.066411257 0.2460783 0.1344448
0.070337459 0.2497649 0.13652754
0.16626337 0.25797448 0.1354627
0.17200917 0.25293982 0.13422602
0.14602998 0.26809102 0.13504429
0.15507255 0.26555231 0.13504931
0.16176808 0.26163131 0.13370366
0.11501466 0.27263239 0.13509503
0.1250008 0.27241147 0.1349836
0.13471115 0.27164504 0.13479875
0.14140257 0.27050632 0.13468687
0.1812862 0.23962371 0.14387393
0.067337245 0.24524713 0.14521067
0.18075724 0.24229401 0.14121521
0.16662835 0.25774083 0.14506774
0.17064008 0.2531054 0.14356507
0.10418595 0.2691789 0.14614946
0.12961644 0.26997697 0.14961058
0.13739765 0.26932958 0.14693815
0.14521931 0.26757666 0.14543489
0.15495276 0.26402578 0.14501707
0.1613991 0.26155725 0.14506388
0.10683816 0.27056426 0.14317359
0.11506375 0.27179018 0.14492424
0.12521778 0.27215201 0.1453751
0.13395949 0.27084759 0.14394321
0.1410424 0.27057999 0.14196421
0.17966835 0.23965353 0.15812221
0.15916955 0.26018375 0.15618198
0.16503479 0.25622356 0.15521553
0.105335 0.26805118 0.15510648
0.11254952 0.26885328 0.15530746
0.12717909 0.26945513 0.15491316
0.13507693 0.2680096 0.15520468
0.14487636 0.2670978 0.15497994
0.15473495 0.262703 0.15496983
0.16165452 0.26036999 0.15085542
0.094281636 0.27058521 0.15722997
0.12382213 0.27061179 0.15385738
0.067181624 0.23931932 0.16818504
0.17861052 0.23870306 0.1620443
0.15804148 0.25899667 0.16695257
0.16490911 0.25430617 0.16482835
0.10556737 0.26866725 0.16463009
0.11462818 0.2680575 0.16521509
0.12523168 0.26852685 0.16596876
0.13499954 0.26749733 0.16504309
0.14505492 0.26554286 0.16492817
0.15418577 0.26173878 0.16424556
0.094992146 0.27154484 0.1651682
0.1008679 0.27054393 0.16574995
0.068243206 0.23958087 0.1708535
0.1751065 0.2389369 0.17799637
0.069387525 0.24002022 0.17026517
0.17144673 0.24431607 0.17602095
0.14916988 0.25955582 0.17894556
0.15564094 0.25736529 0.1754951
0.16292064 0.25265014 0.17456564
0.1058853 0.26764297 0.17488442
0.11495852 0.26742172 0.17513075
0.12492856 0.26711822 0.17512052
0.13495114 0.26530841 0.1748933
0.14491923 0.26344785 0.17487337
0.15137234 0.26112026 0.17258705
0.095100448 0.27259368 0.17499045
0.10114557 0.27087218 0.17615707
0.16987675 0.23961747 0.18514591
0.078060843 0.24772613 0.1866454
0.081114545 0.24914689 0.18856433
0.16550668 0.24688631 0.18537515
0.17126773 0.24102664 0.18223281
0.07887432 0.25081187 0.1844994
0.14697681 0.25848478 0.18608454
0.15503386 0.25443864 0.18500684
0.16155754 0.25119439 0.18259233
0.11499945 0.26469389 0.18499641
0.12509993 0.26465729 0.18489084
0.13487269 0.26356748 0.18510696
0.14350304 0.26173961 0.18339778
0.17148063 0.23662537 0.19261904
0.078104377 0.24426402 0.19145127
0.082838848 0.24807788 0.19203998
0.15764628 0.24864672 0.19726796
0.087699234 0.25198084 0.19172932
0.11593464 0.25875866 0.19447204
0.12437361 0.25834373 0.19611079
0.14486142 0.25619629 0.1947521
0.15414217 0.25218004 0.19418
0.11476672 0.26231483 0.19188751
0.12495007 0.26074374 0.19172803
0.13477226 0.26092228 0.1923504
0.15612379 0.2456331 0.20085311
0.1622183 0.24142683 0.20071948
0.17727993 0.25776559 0.008710444
0.15675253 0.26856199 0.008158599
0.16449997 0.26588604 0.0082633039
0.17313017 0.2620267 0.0088856136
0.14508392 0.27180961 0.0080160024
0.1524006 0.27033561 0.007620113
0.17575549 0.25772053 0.011503836
0.15877587 0.26796579 0.010865143
0.16268115 0.26763734 0.010935682
0.17257357 0.2621488 0.010407597
0.15584575 0.26925537 0.024096677
0.16049168 0.26822996 0.023916421
0.13678302 0.27288631 0.026321307
0.14480884 0.27089837 0.025136676
0.15360561 0.27058539 0.025341833
0.16251962 0.27187988 0.02839802
0.19826081 0.23830038 0.034836195
0.15902323 0.26944488 0.036486618
0.16292475 0.26818353 0.036244087
0.11908806 0.2744315 0.034907378
0.12453328 0.27437755 0.036132727
0.13627204 0.27303493 0.036295447
0.14533469 0.27225491 0.035017572
0.15487418 0.2714473 0.03477823
0.16095541 0.27023205 0.031019911
0.20457704 0.2287652 0.049613215
0.19907449 0.23945101 0.049224529
0.20245519 0.23734036 0.048226178
0.18865971 0.24939448 0.048401278
0.1866969 0.25160491 0.048996072
0.15765572 0.26953828 0.046166986
0.16331948 0.26796386 0.04597906
0.1169093 0.27359849 0.04638784
0.12405193 0.27358547 0.04437615
0.13515453 0.27331322 0.044647302
0.14543688 0.27300185 0.04488346
0.15393849 0.27086523 0.044280473
0.2046926 0.22872923 0.054671876
0.19961956 0.23970512 0.053908728
0.2024923 0.23450813 0.054061707
0.18799672 0.24897385 0.055366769
0.19482195 0.24488755 0.054923993
0.20014325 0.24012186 0.05534821
0.18494064 0.25359488 0.056426458
0.15774781 0.26872906 0.054411016
0.16496749 0.26591125 0.05490442
0.1735062 0.26274252 0.056100868
0.11449359 0.27269447 0.054728672
0.12558962 0.27412146 0.05521689
0.13481118 0.27392313 0.054790393
0.14506224 0.2724196 0.054921884
0.15311402 0.271137 0.055032771
0.20533134 0.22705843 0.066192783
0.19928727 0.23453625 0.067153603
0.20200701 0.23222212 0.065092027
0.18856299 0.24920583 0.063984372
0.19418174 0.24573188 0.065000512
0.17884323 0.25909862 0.065288082
0.18407349 0.25532877 0.065057375
0.14921616 0.26966238 0.067662403
0.15566872 0.26933652 0.065244205
0.16494693 0.2662006 0.065126248
0.17423105 0.26183909 0.064549841
0.1070784 0.27110896 0.065111279
0.11494882 0.2728543 0.065216087
0.12477964 0.27420714 0.064721145
0.1349142 0.27365062 0.065328188
0.1450897 0.27230069 0.065165967
0.15257441 0.27052915 0.062254164
0.20445092 0.22723222 0.075143479
0.19797951 0.23774001 0.075650603
0.20205843 0.23303112 0.074706241
0.18935536 0.24972501 0.077296972
0.19370921 0.24478114 0.07479658
0.20051992 0.24342594 0.071971163
0.17829436 0.25907058 0.075964652
0.18502373 0.25469983 0.074966073
0.19056496 0.25021145 0.073305458
0.097055152 0.26518637 0.075052418
0.11035988 0.26993328 0.0799862
0.14912046 0.26979643 0.072760724
0.15756717 0.26932991 0.075356424
0.16480191 0.26568547 0.07497602
0.17357716 0.26216429 0.07433071
0.10851731 0.27077922 0.0748007
0.11476649 0.27140346 0.074837752
0.12499163 0.27291587 0.074954398
0.13488324 0.27285752 0.074852131
0.14505893 0.27205688 0.07509876
0.15439279 0.27051422 0.075080238
0.20318489 0.22766495 0.08691702
0.19847494 0.23658787 0.084491432
0.20164774 0.2319656 0.084833644
0.18857753 0.24876769 0.085506342
0.19381751 0.24475187 0.085235298
0.17736498 0.25873208 0.085115083
0.18439527 0.25462133 0.084803462
0.095467575 0.26469371 0.085050642
0.11150032 0.26922068 0.083913162
0.14872089 0.26954255 0.085938223
0.15435794 0.26920328 0.08459238
0.1648432 0.26618987 0.084959589
0.17254363 0.26171777 0.084805481
0.1170395 0.2716732 0.08425913
0.12453051 0.2718668 0.0848452
0.13491119 0.27302828 0.08493679
0.14427577 0.27117103 0.084723502
0.15641116 0.27035147 0.084669366
0.19134295 0.11977333 0.09981852
0.2051971 0.21686628 0.093972169
0.20324561 0.22546548 0.095104955
0.19854206 0.23701948 0.095502064
0.20108478 0.23241387 0.094440639
0.18820046 0.24814287 0.094486371
0.19370851 0.2439561 0.094958454
0.1780329 0.25884771 0.094516814
0.18362947 0.25467935 0.094993249
0.097132348 0.26540953 0.096287481
0.10520373 0.26834264 0.09515138
0.11167967 0.2692574 0.096100666
0.14805092 0.26928759 0.094107144
0.15518998 0.26836079 0.095247835
0.16512516 0.26626581 0.094939403
0.17317362 0.26178744 0.095173247
0.10804237 0.27034205 0.096251845
0.11667952 0.2719925 0.09408924
0.12499701 0.27275005 0.095042355
0.13526647 0.27300426 0.094661064
0.14429849 0.27142182 0.095039219
0.15052606 0.27030805 0.096953847
0.18602058 0.11636271 0.10489335
0.19255938 0.11878989 0.10699927
0.19729069 0.12220403 0.10460047
0.20111082 0.12136312 0.10519717
0.20511895 0.21605831 0.10640267
0.20274962 0.22567707 0.10436408
0.1974611 0.23553209 0.10507435
0.20058794 0.23121023 0.10540179
0.18862738 0.24846987 0.10549751
0.19280908 0.24384972 0.10483028
0.17803696 0.25911555 0.10630576
0.18430269 0.25434884 0.10497511
0.095389992 0.26446727 0.10518474
0.1121641 0.26943645 0.10482508
0.14696287 0.26936561 0.10419071
0.15523669 0.26799086 0.1048364
0.16485427 0.26406002 0.10506617
0.17386441 0.2612623 0.10431502
0.11707495 0.27133149 0.10490684
0.12497315 0.27270046 0.10510884
0.13491152 0.27223781 0.10489219
0.1440635 0.27064186 0.10527207
0.15094942 0.27035213 0.10803466
0.18768482 0.11665662 0.11418457
0.19512841 0.11868834 0.11561349
0.21139655 0.11192667 0.11838274
0.19806483 0.12112011 0.11104635
0.20133252 0.12077291 0.11078589
0.20400356 0.2162672 0.11492315
0.19971272 0.22839534 0.11636413
0.20184824 0.22493127 0.11475114
0.1971215 0.23541728 0.1148398
0.20049635 0.23050004 0.11039859
0.18829048 0.24694018 0.11498912
0.19220975 0.24256675 0.11484514
0.17666037 0.25822541 0.11535836
0.1839537 0.2543231 0.11492954
0.098359659 0.26411012 0.11535273
0.1049569 0.26671603 0.11492132
0.11270699 0.26955432 0.11520827
0.13853982 0.26955262 0.11482218
0.14563714 0.2694611 0.11615485
0.1553103 0.26811242 0.11482877
0.16504018 0.26379725 0.11522644
0.172177 0.26068807 0.11454029
0.11737904 0.27087393 0.11420386
0.1252178 0.27154407 0.11507107
0.13465632 0.27101782 0.11484835
0.14511998 0.27048647 0.112904
0.15140148 0.27022424 0.11258826
0.18770674 0.11724917 0.12535575
0.19512996 0.11843051 0.12526934
0.20408328 0.21751122 0.12301017
0.19933954 0.22872734 0.12554199
0.20128539 0.22466159 0.12500963
0.19619101 0.23510224 0.12494837
0.187637 0.24707134 0.12523645
0.19169855 0.24203004 0.12431445
0.16958541 0.25985292 0.12907051
0.17571487 0.25790408 0.12512991
0.18339659 0.25304729 0.12490501
0.097315788 0.26254657 0.12295607
0.10561859 0.26616049 0.12538821
0.11454426 0.26826945 0.12469922
0.12605965 0.26940671 0.12651171
0.13324966 0.26935187 0.12624161
0.1461017 0.26918739 0.12399179
0.15509389 0.26760563 0.1247693
0.16479185 0.2630409 0.12487804
0.17093337 0.26038897 0.123629
0.11954124 0.26985136 0.12556206
0.12370776 0.27047864 0.12297607
0.13631186 0.27068707 0.12422182
0.14307898 0.27065933 0.12694053
0.1882935 0.11746177 0.1327983
0.19481276 0.1184864 0.13462205
0.19824931 0.12056054 0.13901962
0.20129237 0.12062496 0.13816293
0.20130146 0.21649852 0.13623399
0.19872716 0.226827 0.13553773
0.20077215 0.22304504 0.13401508
0.1947992 0.23504114 0.13509454
0.18731461 0.24683353 0.13539919
0.19126849 0.2415607 0.13496327
0.17600827 0.25758767 0.13476922
0.18230784 0.25318465 0.13445979
0.096073352 0.26396382 0.1352835
0.10629072 0.26558015 0.13483997
0.1159468 0.26814371 0.13509244
0.12372435 0.26904866 0.1338094
0.13597313 0.2697635 0.13464375
0.14599086 0.26953179 0.13554417
0.1549069 0.26628485 0.13493402
0.16497651 0.26296562 0.13490924
0.17167073 0.26059282 0.13696663
0.12763771 0.27063078 0.13645658
0.13484514 0.27073151 0.1358268
0.14329591 0.27031901 0.13295567
0.19602397 0.11912233 0.14423692
0.2102406 0.11150035 0.14869979
0.18843995 0.12113594 0.14827457
0.19411258 0.12047389 0.14695689
0.19971138 0.21905607 0.14814936
0.20001096 0.21954013 0.14616001
0.19834177 0.22568879 0.14534885
0.20078373 0.22326382 0.14219666
0.18989533 0.23986021 0.14949363
0.19386224 0.23546669 0.14511146
0.1861288 0.24554378 0.14524134
0.19049147 0.24080653 0.14344856
0.16888066 0.25938386 0.14711002
0.17540142 0.25595927 0.14507696
0.18157613 0.25163919 0.14364177
0.10565014 0.26746717 0.14454749
0.11464366 0.2669113 0.14491259
0.12440816 0.26856938 0.14531335
0.13566138 0.2689549 0.14559643
0.14523038 0.26804522 0.14500596
0.15493117 0.2658762 0.14513607
0.16428156 0.26230699 0.14507133
0.17081006 0.26039356 0.14143433
0.12862054 0.27054185 0.14350088
0.13281594 0.27046502 0.14218804
0.14520404 0.27008244 0.14023915
0.21018985 0.11010257 0.15084626
0.21044551 0.10934842 0.15201293
0.19925331 0.11921237 0.15580171
0.21017297 0.11119691 0.15350945
0.18765803 0.12223477 0.15453033
0.19484001 0.12191204 0.15470918
0.19670455 0.22454539 0.15469849
0.1889417 0.2387422 0.15547885
0.19250086 0.23414195 0.15466903
0.17939791 0.24822554 0.15676771
0.18435912 0.24469191 0.15495658
0.16836734 0.25929284 0.15544887
0.17441392 0.25440806 0.15482426
0.18040781 0.25092486 0.15380107
0.096686251 0.2675173 0.15856701
0.10509198 0.26734614 0.15482637
0.11465158 0.26590687 0.15506037
0.12529401 0.26772898 0.1547748
0.13463277 0.26775262 0.15460876
0.14501591 0.26670307 0.15499163
0.15506853 0.26421854 0.15495057
0.16367093 0.26137501 0.15483443
0.20432453 0.11721787 0.16443083
0.18805657 0.12747195 0.16567235
0.19195224 0.12646553 0.16475099
0.19433899 0.22613694 0.16524051
0.18794064 0.23769273 0.1656898
0.19135708 0.23258652 0.16390324
0.1786858 0.24868156 0.16804749
0.18308003 0.24394681 0.16469605
0.15992685 0.25959158 0.16763525
0.16601279 0.25809503 0.16540797
0.17439707 0.2525827 0.1644852
0.18002632 0.25042272 0.16374537
0.097183205 0.26877579 0.1640887
0.10572259 0.26844293 0.16422117
0.1148918 0.26645625 0.16521238
0.12483689 0.26588359 0.1649047
0.1353333 0.26671374 0.16518016
0.14496195 0.26437819 0.1648161
0.15506603 0.26199797 0.16488245
0.16159286 0.2604503 0.16241044
0.097532347 0.2706106 0.16752683
0.10336599 0.27030128 0.16783758
0.18723735 0.12931398 0.17125341
0.19502483 0.12815721 0.17639454
0.20363282 0.12178741 0.17730671
0.18579935 0.13260365 0.17577614
0.1927242 0.13186376 0.17678145
0.19444689 0.2169162 0.17538251
0.18848257 0.22843848 0.17681804
0.19224083 0.22512637 0.17461209
0.18598071 0.23550758 0.17475958
0.19049054 0.23140126 0.17014474
0.1764062 0.24708331 0.17559972
0.18190877 0.24261233 0.17410694
0.15796721 0.25917095 0.17612034
0.16507453 0.25578618 0.17529383
0.17178625 0.25177804 0.17358658
0.10860566 0.26940331 0.17364135
0.11478018 0.26661655 0.17498434
0.12473448 0.26462132 0.17523921
0.13503292 0.26457709 0.17488055
0.14500459 0.26296645 0.17489675
0.15372182 0.26145381 0.17479555
0.098146588 0.27213785 0.17542213
0.10475579 0.27132246 0.17562558
0.20410402 0.1198323 0.1827542
0.19831535 0.12717839 0.1844918
0.20277837 0.12336944 0.18344794
0.18796913 0.13691017 0.18334
0.19373545 0.13427544 0.1855827
0.19233532 0.21522343 0.1847735
0.18858045 0.22639629 0.1851825
0.19077478 0.22229257 0.18318573
0.18439338 0.23576099 0.18492541
0.1696582 0.24944441 0.18559825
0.17501076 0.24513452 0.18504311
0.18059342 0.24061312 0.18352054
0.12524018 0.26002479 0.18922769
0.13196713 0.25984615 0.18999058
0.14594898 0.25944477 0.18831663
0.15535851 0.2570641 0.18534507
0.16501863 0.25291935 0.18465346
0.17070714 0.2501725 0.18546174
0.10942745 0.26955631 0.18391961
0.11558332 0.26661277 0.18449511
0.12453128 0.26245573 0.1852504
0.13521992 0.2619226 0.18489508
0.1447932 0.26149055 0.18395372
0.15140411 0.2608597 0.18262237
0.10561286 0.27201203 0.18372999
0.11057338 0.27100661 0.18442108
0.18829201 0.21715577 0.19625184
0.19076471 0.21364425 0.193876
0.18638949 0.22568911 0.19488563
0.17892131 0.23799466 0.19736369
0.18253112 0.23424467 0.19433224
0.16746005 0.24769749 0.19615647
0.17467825 0.2429703 0.19474038
0.11912122 0.25725159 0.19246317
0.12482928 0.25894392 0.193611
0.1348186 0.25816938 0.19411026
0.14518723 0.25702932 0.19427936
0.15500543 0.25406364 0.19388753
0.16345368 0.25105312 0.19348052
0.1284072 0.25951335 0.19203526
0.1349517 0.26027572 0.19128872
0.14219585 0.26046422 0.19103779
0.18402006 0.22508106 0.20226988
0.16661151 0.23948951 0.20300838
0.1763669 0.23497899 0.20221028
0.18146949 0.23146202 0.20162657
0.16597779 0.24409021 0.20163864
0.17164704 0.24129334 0.20081544
0.14908037 0.26983514 0.0074378313
0.15728699 0.26883289 0.0078858016
0.16460529 0.26608109 0.0081094643
0.17301999 0.26188821 0.0082429461
0.14462385 0.27178097 0.0081753079
0.15265952 0.27038231 0.0076063089
0.1758492 0.25772682 0.011779933
0.15993878 0.26908004 0.010856395
0.16288619 0.26841405 0.011447631
0.17388879 0.26273176 0.010924011
0.14459613 0.2697846 0.023659438
0.15799506 0.26905987 0.025108002
0.1604642 0.26950032 0.027858675
0.13806915 0.27340743 0.027249217
0.14440061 0.27128702 0.025574194
0.1535189 0.2709958 0.025118295
0.17787266 0.25979578 0.036744695
0.18103676 0.25897154 0.037529964
0.15855017 0.26929 0.034616549
0.16037224 0.26855037 0.035122119
0.17746224 0.26127839 0.037702166
0.18151911 0.2612586 0.036177915
0.11835428 0.27411273 0.034328047
0.12439755 0.27457094 0.036021136
0.13395773 0.27382925 0.037850365
0.14593205 0.27280688 0.035733886
0.15424582 0.27189746 0.034930255
0.20008141 0.23988408 0.049125426
0.20293522 0.23637204 0.048023112
0.18751821 0.24934681 0.048818216
0.19418794 0.24490947 0.048362032
0.17862812 0.2600227 0.040348656
0.18744943 0.25086641 0.048762225
0.19020092 0.25020903 0.047798377
0.15706158 0.26960546 0.046756249
0.16528074 0.26753744 0.046551902
0.11514837 0.27282983 0.047747299
0.12425949 0.27422789 0.044582799
0.14563777 0.27292341 0.045040399
0.15361068 0.27108392 0.044506948
0.20449837 0.22919399 0.054563552
0.19957504 0.23950781 0.052916892
0.20278274 0.23558217 0.053423394
0.18896888 0.24940032 0.053742006
0.19472942 0.24475084 0.054999828
0.20047462 0.24026504 0.056433145
0.18739198 0.25097466 0.055078257
0.15776838 0.26898468 0.053959664
0.16471277 0.26610658 0.054915939
0.17372406 0.26285931 0.055870969
0.11599409 0.27320617 0.054946121
0.12511547 0.27347079 0.055309456
0.13531636 0.27348888 0.055088904
0.14510329 0.27260426 0.054949522
0.15340963 0.27115223 0.055396255
0.20493004 0.22601457 0.065114751
0.1980572 0.23746797 0.067925237
0.20162474 0.23561195 0.066527106
0.18912564 0.24938476 0.064949766
0.19478904 0.24521135 0.064935811
0.2015516 0.24170893 0.061043359
0.17925769 0.25936845 0.067877039
0.18491282 0.25500017 0.0650708
0.14739431 0.26981461 0.065032072
0.15745865 0.26960194 0.066407576
0.16486634 0.26670343 0.06503427
0.17453773 0.2619366 0.065005213
0.18096459 0.2608673 0.062032018
0.10797021 0.27188072 0.066685073
0.11560734 0.27353394 0.065129004
0.12514552 0.27379358 0.065084726
0.13521792 0.27377591 0.065373279
0.145256 0.27262822 0.065402091
0.15420668 0.27057403 0.063834056
0.20477949 0.22746244 0.075148322
0.19822316 0.23696627 0.075127922
0.20178187 0.23277164 0.074732922
0.1886218 0.24868788 0.076079316
0.19412464 0.24486326 0.074893951
0.17827681 0.25905415 0.076007016
0.18441471 0.25493345 0.074903667
0.09707132 0.26658106 0.074971452
0.14906301 0.26968592 0.072311401
0.15722521 0.2695154 0.074609704
0.16470179 0.26595733 0.075087346
0.17362683 0.26215976 0.07446979
0.10796203 0.27155089 0.074276283
0.11461283 0.27242577 0.07478115
0.12505455 0.27341253 0.074962407
0.13491373 0.27303484 0.075046808
0.14500989 0.27228421 0.075046808
0.15390618 0.27050188 0.075282723
0.20428555 0.22678994 0.086093225
0.19885615 0.23750982 0.08532273
0.201625 0.23339997 0.085823067
0.18864813 0.24893837 0.08496847
0.19403759 0.24442489 0.085165426
0.1784367 0.25890875 0.084646672
0.18424524 0.25430137 0.085021622
0.09534324 0.2641401 0.084644556
0.10583279 0.26906607 0.085719973
0.14941035 0.26965582 0.086208671
0.15538014 0.2692695 0.085181646
0.16427721 0.2668052 0.084985785
0.17374264 0.26223218 0.085305952
0.10834869 0.27030572 0.081323281
0.11561047 0.27157921 0.084840789
0.12468337 0.27265617 0.084921025
0.13484143 0.27281117 0.084787108
0.14485584 0.27156556 0.084656648
0.15334305 0.27031961 0.082121238
0.19539644 0.12363193 0.094758131
0.20212664 0.12139633 0.094333068
0.20352858 0.22604924 0.094868183
0.1984552 0.23732866 0.095469788
0.2013118 0.23325682 0.094345957
0.18851419 0.24851261 0.09437567
0.19357322 0.24372815 0.09476345
0.17864282 0.25925323 0.093950205
0.18418583 0.25497881 0.095231183
0.096628547 0.26531309 0.095869914
0.10503664 0.26859316 0.095157862
0.11164872 0.26945677 0.096022025
0.14928307 0.2697438 0.093074709
0.15528207 0.26858908 0.095352337
0.16522025 0.26607347 0.095223285
0.17402624 0.26209196 0.095259942
0.10852532 0.27018604 0.096269853
0.11582522 0.27122965 0.094453201
0.12469216 0.27209884 0.094984233
0.13518541 0.27288559 0.094958231
0.14480937 0.27154699 0.095199145
0.15285352 0.27015743 0.094207346
0.18658571 0.11805859 0.10430088
0.1925965 0.11955129 0.10880897
0.18933579 0.12094334 0.10446314
0.19556081 0.12204356 0.10462369
0.2011859 0.12193373 0.10534893
0.20235349 0.22632951 0.10467543
0.1975413 0.23577954 0.10504775
0.20068252 0.23131153 0.10464047
0.1891669 0.24890791 0.10505415
0.1929698 0.2445249 0.10492152
0.17840834 0.25938523 0.1068703
0.18446852 0.25482276 0.10505157
0.095779851 0.26435441 0.10505543
0.10498808 0.26701361 0.10473427
0.1119413 0.26937577 0.10456818
0.1466179 0.26993638 0.10458646
0.15524545 0.26809889 0.10500544
0.16490586 0.2646127 0.10527012
0.17422162 0.26139638 0.10461149
0.11653809 0.27111444 0.1050754
0.12494183 0.27288002 0.10511608
0.13492633 0.27210861 0.10492276
0.14439093 0.27064618 0.10488068
0.15069628 0.27031019 0.10664914
0.18824205 0.11802491 0.11450347
0.19413406 0.11836089 0.11565039
0.21343148 0.11161286 0.11965838
0.19755685 0.12079474 0.11222985
0.20039898 0.12111749 0.11198138
0.2043408 0.21813421 0.11488707
0.19940832 0.22884083 0.11645299
0.20175233 0.22511944 0.11439882
0.19708814 0.23562546 0.11511902
0.20002607 0.23190314 0.1108738
0.18845877 0.24739109 0.11501847
0.19236431 0.24278986 0.11489052
0.1771457 0.25834498 0.11536781
0.18395002 0.25444561 0.11496988
0.09804368 0.26375684 0.11575852
0.1030491 0.26564232 0.11510282
0.11257702 0.26914299 0.11508586
0.13625199 0.26943356 0.11785254
0.14551899 0.26945975 0.11632755
0.15500447 0.26805696 0.1150474
0.16484663 0.26393071 0.11522016
0.1727829 0.26113039 0.11511496
0.10912534 0.27029964 0.11707133
0.11621314 0.27093354 0.11486453
0.12519774 0.27123612 0.11506334
0.13431937 0.27102149 0.11391208
0.144582 0.27032205 0.11409906
0.15140651 0.27023014 0.11295256
0.187582 0.11786575 0.12510529
0.19556102 0.11830905 0.12512653
0.21269713 0.11393852 0.1219119
0.18735464 0.12050584 0.12243752
0.20349747 0.21756852 0.12014885
0.19904724 0.22855893 0.12505938
0.20150134 0.2255092 0.12539659
0.19625136 0.23472744 0.1248998
0.18786182 0.24743336 0.12561636
0.1919841 0.24262734 0.12509558
0.16987051 0.25995788 0.12953681
0.17580628 0.25816032 0.12529334
0.18335396 0.25339904 0.12472692
0.098426946 0.26297468 0.12133114
0.10550394 0.26670253 0.12505741
0.1147292 0.26903996 0.12495328
0.12571189 0.26953799 0.12731507
0.13359465 0.26960894 0.12466983
0.14549479 0.26906389 0.12527309
0.15520258 0.26739061 0.12478718
0.16514273 0.26318625 0.12488808
0.1713037 0.26055807 0.12316438
0.12457704 0.27066803 0.12400433
0.13620907 0.27022463 0.12439576
0.14112487 0.27043641 0.12482864
0.18777777 0.11630128 0.13317174
0.19446506 0.11770882 0.13495018
0.19970334 0.12050143 0.1390574
0.20127502 0.12050744 0.13875054
0.19971065 0.21494731 0.13908476
0.20127386 0.21522844 0.13638976
0.19870132 0.22776924 0.13561751
0.20104007 0.2234154 0.13405865
0.19521661 0.2352275 0.13501267
0.18753092 0.24707167 0.13515687
0.19146663 0.24196619 0.13493818
0.17604211 0.25756079 0.13493532
0.18256459 0.25328231 0.13462873
0.10529665 0.2664735 0.13475314
0.11562801 0.26836315 0.13515387
0.12452087 0.26940694 0.13435271
0.13498959 0.26935211 0.13658889
0.14584707 0.26941547 0.13532673
0.15468808 0.2663233 0.13505727
0.16503254 0.2636402 0.13486317
0.17159544 0.26067609 0.13596319
0.1263382 0.27035666 0.1356674
0.13535149 0.27071452 0.13351783
0.14258316 0.27024397 0.13491219
0.19018099 0.11907001 0.14058365
0.1949726 0.11887142 0.14459819
0.21086819 0.11141602 0.14832017
0.18853658 0.12097398 0.1494125
0.19413805 0.12063821 0.1474414
0.20077199 0.12021721 0.14028277
0.1998163 0.20874918 0.14574361
0.19977002 0.21196289 0.1429445
0.20099428 0.21410711 0.14170422
0.19851367 0.22612745 0.14506468
0.20048499 0.222335 0.14470463
0.18922411 0.23973137 0.1475797
0.19387786 0.23559202 0.14513634
0.18633503 0.24585779 0.14529321
0.1904311 0.24013725 0.14107648
0.16905913 0.25944921 0.14732505
0.17543714 0.25604397 0.14511034
0.1816442 0.25164211 0.14363264
0.1053452 0.26777828 0.14488187
0.11457609 0.26727709 0.14501093
0.12540406 0.26906627 0.14504099
0.13476105 0.2688677 0.14509626
0.14523038 0.2684181 0.14511506
0.15478063 0.26559991 0.14470494
0.16479753 0.26252535 0.14509855
0.17110464 0.26053554 0.14127646
0.12701036 0.27030006 0.14540488
0.13368492 0.27055788 0.14383771
0.14544718 0.27000415 0.14062156
0.20990683 0.10988088 0.15285742
0.21128531 0.10827821 0.15294211
0.19689035 0.11962356 0.15448768
0.2104048 0.11142951 0.15538271
0.18753667 0.12203231 0.1554357
0.19413052 0.12129093 0.15466337
0.19973812 0.21816321 0.15125507
0.20021284 0.21949631 0.15122376
0.19694105 0.22504537 0.15493365
0.18873565 0.23880865 0.15599453
0.19299062 0.23431712 0.15472735
0.17964876 0.24894245 0.15569037
0.18456089 0.24512589 0.15481514
0.16885985 0.25876567 0.15583976
0.17469387 0.25483659 0.15494622
0.18059681 0.25123349 0.15489306
0.098194368 0.26787236 0.15955719
0.10594603 0.26847473 0.15451765
0.11436829 0.26594907 0.15496348
0.12560128 0.26775861 0.15486294
0.13507231 0.26798815 0.15472655
0.145147 0.267039 0.15507306
0.15498129 0.26459834 0.15474689
0.16375732 0.26152524 0.15517363
0.10445277 0.27021036 0.15861225
0.20524082 0.11761928 0.16181983
0.18747444 0.12738813 0.16603577
0.19233654 0.12584974 0.16595931
0.201906 0.11969922 0.16168439
0.19444598 0.22527151 0.16492698
0.18822204 0.23705578 0.16564478
0.19145916 0.23253912 0.16410813
0.17914043 0.24945192 0.16823208
0.18306792 0.24413902 0.1648625
0.15960062 0.25985989 0.16695115
0.16609357 0.25798306 0.16557416
0.17466284 0.25261411 0.1649107
0.18025634 0.25099152 0.16250463
0.098018259 0.26858482 0.16404639
0.10543039 0.26902625 0.16468103
0.1151415 0.26668441 0.16525631
0.12484091 0.26596281 0.16498795
0.13530084 0.26703921 0.16514373
0.14500804 0.26461875 0.16484971
0.15514137 0.26214167 0.16514285
0.16178526 0.26057133 0.16276477
0.098485552 0.27019566 0.16887408
0.10452022 0.27042109 0.16777018
0.18770847 0.12896933 0.17150849
0.19428807 0.1272049 0.17526841
0.20160799 0.12444697 0.17890701
0.18613487 0.13256676 0.17594959
0.19212799 0.13132061 0.17770654
0.19574445 0.21679319 0.17497395
0.1892563 0.22874513 0.17627251
0.19227134 0.22519217 0.17457348
0.18659097 0.23542267 0.17532985
0.17645673 0.24678352 0.17547914
0.18236828 0.24248356 0.17422217
0.15766634 0.25902012 0.17604552
0.16514938 0.25613114 0.17517549
0.17214173 0.25213566 0.17370889
0.098253846 0.26978892 0.17018381
0.10821174 0.26929775 0.17382923
0.11508215 0.26713303 0.17510633
0.12494952 0.26490998 0.17526521
0.13504839 0.26450804 0.17522901
0.14499234 0.26303658 0.17489344
0.15352421 0.26149312 0.17471066
0.097948223 0.27241555 0.17529313
0.10451699 0.27157071 0.17559348
0.19775309 0.12721121 0.18453442
0.20180009 0.12357485 0.18386385
0.1876013 0.13697456 0.18364678
0.19343185 0.13362743 0.18607816
0.18785369 0.14044021 0.18853311
0.1923054 0.21581401 0.18505101
0.18826517 0.22646141 0.18558767
0.1909934 0.22265349 0.18374032
0.18452868 0.23555307 0.18497847
0.16946033 0.2495092 0.18503065
0.17524353 0.24561246 0.18511648
0.18083587 0.24095118 0.18413866
0.12508826 0.26024842 0.18993948
0.13044646 0.25975594 0.18900029
0.14570165 0.25966966 0.18945821
0.155845 0.25730598 0.18552506
0.16499998 0.25309539 0.18474291
0.17084372 0.25020275 0.18401454
0.10898801 0.26944804 0.18610595
0.11522074 0.26684415 0.18455982
0.12445523 0.26220903 0.18521516
0.13524021 0.26205683 0.18488412
0.14475843 0.2614145 0.18494807
0.10568526 0.27187869 0.18385191
0.11070489 0.27105114 0.18509349
0.18954578 0.13924044 0.19104734
0.19484502 0.13533381 0.19502027
0.18857938 0.21698987 0.19625221
0.19044946 0.21338359 0.19369079
0.18620253 0.22564523 0.19490755
0.17899488 0.23784254 0.19656509
0.18240276 0.23414689 0.19419828
0.15690401 0.24962564 0.19856298
0.16743597 0.24785925 0.19648057
0.17448597 0.24375653 0.19465591
0.12004934 0.2598069 0.19246668
0.12571418 0.2580803 0.19357049
0.13317981 0.25902662 0.19312227
0.14529729 0.25695634 0.19458282
0.1548456 0.25394183 0.19440272
0.16366306 0.25118837 0.1938673
0.12435283 0.26084557 0.19162337
0.13531573 0.26037976 0.19117743
0.14356652 0.26034334 0.19143932
0.17928864 0.22871913 0.2044559
0.1839489 0.225311 0.20239045
0.17664178 0.2346095 0.20246634
0.18170056 0.2316858 0.20145766
0.16589797 0.24468072 0.20132443
0.17306757 0.24183783 0.20101412
0.17643481 0.25773427 0.0080371024
0.16554186 0.26517951 0.008188447
0.17235614 0.26186585 0.0077351839
0.17623556 0.25776401 0.013700597
0.15708967 0.26721987 0.010585471
0.16625595 0.26492825 0.010472298
0.1717672 0.26219517 0.010526247
0.21503553 0.20968586 0.02871293
0.2127073 0.21052317 0.028512856
0.1560854 0.26840508 0.02737543
0.14465189 0.27180946 0.02907929
0.15203609 0.27081633 0.028715605
0.21512789 0.2083807 0.032623328
0.20833826 0.22513825 0.035893675
0.17798497 0.25884491 0.035772588
0.14310285 0.26865828 0.035235833
0.15617757 0.2683306 0.035006791
0.16477981 0.26562616 0.035112858
0.14444466 0.27130026 0.032219499
0.15142018 0.27078149 0.032565996
0.21567136 0.19677319 0.04191222
0.20971599 0.21935797 0.041332722
0.21355951 0.21652704 0.045604099
0.20778146 0.22685273 0.04533986
0.21099542 0.22220439 0.046641938
0.20586598 0.23290253 0.046479736
0.15711735 0.26839706 0.045934655
0.1629393 0.26596749 0.045047678
0.14336953 0.27079767 0.048462097
0.15331954 0.27048123 0.047389753
0.21430817 0.18574791 0.056960192
0.21309398 0.19215566 0.055793181
0.21480656 0.20573109 0.054430697
0.2133448 0.21911356 0.05582843
0.20905724 0.22650088 0.055286556
0.21093029 0.22213317 0.054740895
0.206145 0.23419777 0.055214375
0.19623728 0.245912 0.055662811
0.20202364 0.24165723 0.058528472
0.18484314 0.25498456 0.057182226
0.14742166 0.26962969 0.055920649
0.15547207 0.26839587 0.054913245
0.16514555 0.2648007 0.055204023
0.17251064 0.26154175 0.054286804
0.14470114 0.27060795 0.054670602
0.15062435 0.27037293 0.051369164
0.20951691 0.18351468 0.067615472
0.21266182 0.18432672 0.064529806
0.21420065 0.1951891 0.064948745
0.21480131 0.20486175 0.065847583
0.21265979 0.2172129 0.065869235
0.20850039 0.22611667 0.064900473
0.21075831 0.22187565 0.065524802
0.20474751 0.23549569 0.065022133
0.19581027 0.24493538 0.064898342
0.20089725 0.2404823 0.06413345
0.17788695 0.25859851 0.065178454
0.18510552 0.25469309 0.065158293
0.19151495 0.25136295 0.065073483
0.13732767 0.26993078 0.065997809
0.14736015 0.26927701 0.064748995
0.15506151 0.26811472 0.064946666
0.16469976 0.26509741 0.0647076
0.17297114 0.2614629 0.06583406
0.14346044 0.27056411 0.065134667
0.20854172 0.18236512 0.070835173
0.21412691 0.18687603 0.076642901
0.21436602 0.19540209 0.075119473
0.21399438 0.20531411 0.07498657
0.20964992 0.21407166 0.076482899
0.21194704 0.21412165 0.074400276
0.2087646 0.22709487 0.075375423
0.2100607 0.22216481 0.074147202
0.20482554 0.23521206 0.075173385
0.19584636 0.24565037 0.075139262
0.20097174 0.2411384 0.074811779
0.17793012 0.25862631 0.075162798
0.18516827 0.25576496 0.074854515
0.1915133 0.25193176 0.075251818
0.12587793 0.26957658 0.077613831
0.14597695 0.26902929 0.075988278
0.15515968 0.26763937 0.074813552
0.16499884 0.26450992 0.074615158
0.17314205 0.26151749 0.075557925
0.1267166 0.27163145 0.079362385
0.13477723 0.27075827 0.079254024
0.14349736 0.27030644 0.072568193
0.21287233 0.18569514 0.084707305
0.21334733 0.19511436 0.084718361
0.21300547 0.2049177 0.084890172
0.20938583 0.2190145 0.087805085
0.21202672 0.21479088 0.085125372
0.20785451 0.22600456 0.085741013
0.2112664 0.22256987 0.082492344
0.19952908 0.23927259 0.087630384
0.20340054 0.23494935 0.084698476
0.19562247 0.24490714 0.084865436
0.17696825 0.25844732 0.085090742
0.18519796 0.25499073 0.085444793
0.19154112 0.25172529 0.084511071
0.13477053 0.26869041 0.083164513
0.14512886 0.26888624 0.08492142
0.15497571 0.26726127 0.085247003
0.16475658 0.26448095 0.085041597
0.17270762 0.26182336 0.084820494
0.12753235 0.27083671 0.082118325
0.133965 0.27041882 0.083045639
0.14318509 0.27028215 0.088682264
0.20934625 0.17878246 0.094196446
0.21072136 0.17866413 0.096713029
0.20993561 0.18111965 0.093946308
0.21149798 0.18577446 0.095194727
0.21216318 0.19498518 0.094595164
0.21328272 0.20544669 0.095008709
0.20928894 0.21882607 0.094803683
0.21161032 0.21447821 0.095003866
0.20749991 0.22515053 0.094802625
0.2099901 0.2200969 0.095239647
0.19903934 0.23894796 0.09453965
0.20330843 0.23432103 0.094962344
0.1894435 0.24949299 0.094678707
0.19482158 0.24529991 0.095030457
0.1774492 0.25875986 0.094681874
0.1851206 0.25448051 0.095045231
0.19038174 0.25024089 0.098047286
0.13707639 0.26946181 0.097497657
0.14479621 0.26888421 0.095162719
0.15525413 0.26719081 0.095056497
0.16491449 0.26394629 0.095335551
0.1726741 0.26153263 0.095252007
0.13866068 0.27037692 0.09384764
0.14175487 0.27047658 0.091653965
0.20891243 0.17892037 0.10695621
0.21101068 0.17863435 0.1039317
0.20993525 0.18168956 0.10741849
0.21182118 0.1859415 0.10497967
0.20999441 0.19538105 0.10953102
0.21227567 0.19486967 0.10503963
0.21249713 0.20513666 0.10519208
0.20946431 0.21618056 0.10428151
0.21090278 0.21309271 0.10509743
0.20787086 0.22524567 0.10508006
0.19963901 0.23934862 0.10473512
0.20385659 0.23486599 0.10516942
0.18897067 0.24914438 0.10809068
0.1947697 0.24463773 0.10518064
0.17739797 0.25832975 0.10577947
0.18485944 0.25348514 0.10497316
0.19062477 0.25046435 0.10059384
0.1347717 0.26772967 0.1046101
0.14527018 0.26795796 0.10490084
0.15506519 0.26598191 0.10508723
0.1650504 0.26331738 0.10534912
0.17268929 0.260939 0.10438997
0.12497283 0.2701605 0.10811377
0.1330637 0.27024651 0.10109688
0.20857276 0.17703314 0.11596036
0.20949769 0.17404841 0.11661324
0.20929396 0.1857561 0.11527347
0.21091327 0.18594743 0.11476856
0.2096449 0.19120452 0.11663757
0.21117066 0.19521408 0.11508312
0.2120451 0.20549954 0.11512008
0.2088107 0.2156752 0.1154336
0.21065952 0.21181126 0.114287
0.20699102 0.22522959 0.11496146
0.19873254 0.23887967 0.11634678
0.18906011 0.24923621 0.11518007
0.19362819 0.24413823 0.11510833
0.17564818 0.25748393 0.1153671
0.1841889 0.2525 0.11498871
0.13683148 0.26892322 0.1135749
0.1451702 0.2678417 0.11489737
0.15509261 0.26587731 0.11495293
0.16536614 0.26261288 0.11493206
0.17073977 0.26033813 0.11372384
0.20803989 0.17676252 0.124617
0.20889567 0.18495429 0.126405
0.21039154 0.18637101 0.12247197
0.20912355 0.1925216 0.12666355
0.21141478 0.19643357 0.12489322
0.2097028 0.20628621 0.12851152
0.21138582 0.20492272 0.12476975
0.20814823 0.21530442 0.12475046
0.21058786 0.21041782 0.12232143
0.20577933 0.22545113 0.12498651
0.19833037 0.23760688 0.12523758
0.18956754 0.24944419 0.1243073
0.19294737 0.24444997 0.12513302
0.16969158 0.25990894 0.12303689
0.17532937 0.25729778 0.12527211
0.18485819 0.25252658 0.12523945
0.19008012 0.2507278 0.12748724
0.12716505 0.26636323 0.1280755
0.13454953 0.26679018 0.12566257
0.14551157 0.26646909 0.12552764
0.15553811 0.26561549 0.1249896
0.16487274 0.26261953 0.12493786
0.17067426 0.26028123 0.12723239
0.20511882 0.16815366 0.13751803
0.20521943 0.17538552 0.13592073
0.20839517 0.18549757 0.13463992
0.21006434 0.18678267 0.13784733
0.2108359 0.19415003 0.13509811
0.21057673 0.19713067 0.13352762
0.20944138 0.20490982 0.13545604
0.21033876 0.2052761 0.13294156
0.20779975 0.21478595 0.13501897
0.20503893 0.22533782 0.13533963
0.19771747 0.23735268 0.13521977
0.18837899 0.24907541 0.1363312
0.19246525 0.24412943 0.13484301
0.16929516 0.25944284 0.1377441
0.17528355 0.257029 0.13524988
0.184237 0.25236216 0.13486937
0.19005974 0.25016305 0.13294338
0.13497671 0.26572174 0.13548547
0.14535421 0.2657496 0.13496523
0.15548788 0.26436493 0.13514587
0.16488361 0.26182482 0.1348943
0.17059231 0.26025778 0.13249798
0.20452312 0.17650604 0.1444703
0.20714876 0.1853928 0.1446442
0.21005462 0.18352251 0.14287308
0.20857222 0.19506429 0.14516655
0.20913585 0.20596568 0.1449624
0.21011975 0.2038345 0.14445896
0.2074874 0.21499737 0.14497222
0.20391741 0.22431779 0.14483006
0.19664772 0.23562874 0.14524192
0.18709898 0.24775317 0.14564969
0.19194438 0.24285446 0.14465733
0.16765074 0.25899383 0.14557493
0.17520751 0.25588161 0.14538294
0.18217844 0.25184965 0.14434192
0.13501182 0.26498386 0.14445138
0.14517687 0.26499593 0.14513859
0.15494688 0.26329705 0.14493152
0.16300249 0.26103157 0.14501661
0.20623676 0.18647887 0.15494172
0.20731443 0.19463381 0.15481417
0.20681016 0.20504396 0.15523241
0.20440528 0.21485895 0.15490671
0.19924261 0.22873208 0.15758137
0.20190309 0.22449446 0.15468967
0.19523613 0.23483847 0.15494885
0.17958358 0.24933757 0.15655521
0.18559515 0.24617785 0.15524656
0.19119917 0.24139714 0.15394406
0.16557285 0.25812075 0.1547976
0.17515728 0.2536222 0.15495436
0.18004543 0.25113562 0.15070875
0.11734796 0.26517528 0.15588035
0.1246778 0.26311329 0.15496114
0.14553645 0.26335484 0.15484817
0.15412545 0.26166728 0.15453891
0.16112062 0.26048371 0.15322596
0.20556232 0.19524525 0.16517819
0.20494515 0.20461752 0.16484442
0.20338488 0.21531947 0.16497767
0.19859688 0.22604597 0.1655993
0.20074299 0.22164845 0.16347696
0.19428013 0.23518348 0.1650233
0.17907287 0.2488388 0.16539888
0.18563893 0.24502824 0.16504918
0.1556959 0.25935152 0.165968
0.16563109 0.25747865 0.16498683
0.17449069 0.25268105 0.16453958
0.11708247 0.26515353 0.16567272
0.1240422 0.26227432 0.16514784
0.14590168 0.26173908 0.16501038
0.15336372 0.2603991 0.16347986
0.16092728 0.26011056 0.16214964
0.19511057 0.12622286 0.17900291
0.20374337 0.18807229 0.17562601
0.20348807 0.19473357 0.17486373
0.203621 0.2048963 0.17504551
0.19905844 0.21822974 0.17802669
0.20193958 0.21440952 0.17497209
0.19723588 0.22523664 0.17525047
0.18909387 0.2390839 0.17526902
0.19296572 0.23429713 0.17495908
0.17751482 0.24812841 0.17521101
0.18450178 0.24362738 0.17481147
0.14615253 0.25926605 0.17533195
0.15495525 0.25791609 0.17544283
0.16494468 0.25552094 0.17529631
0.17298296 0.25205946 0.17418206
0.1161353 0.26657861 0.17518154
0.12441166 0.26268318 0.17529581
0.1358631 0.26068208 0.17308083
0.1423416 0.26038066 0.17337976
0.19450514 0.12775767 0.18431771
0.20488948 0.12367755 0.18720251
0.19278212 0.13331728 0.18658186
0.19824584 0.17858391 0.18559259
0.19843595 0.18269949 0.18724231
0.20201217 0.18839911 0.18450285
0.20176002 0.19527298 0.18508413
0.20019887 0.2049626 0.18880087
0.20165059 0.20466135 0.18416713
0.19833548 0.21648805 0.18559277
0.20150431 0.21244387 0.18363807
0.18924338 0.22975653 0.18854268
0.19472043 0.22484668 0.18518883
0.18739864 0.23615369 0.18564974
0.16942355 0.24950664 0.18783729
0.17571253 0.24683632 0.18550903
0.18260634 0.24200599 0.18439214
0.12858585 0.25913778 0.18601865
0.14563037 0.25755036 0.18489544
0.15465091 0.25550124 0.18497607
0.16564296 0.25276163 0.18483381
0.17167091 0.25067315 0.18331809
0.11721719 0.26745892 0.18387614
0.12434625 0.26337647 0.18507241
0.14207478 0.2602993 0.18097322
0.19681054 0.13660963 0.19450864
0.19201459 0.14313589 0.19625761
0.19548653 0.1781074 0.19703071
0.19750124 0.1848136 0.19507031
0.19882475 0.19532168 0.19548438
0.20053788 0.19467193 0.19045427
0.19867133 0.20488521 0.19482495
0.20039555 0.20374134 0.19014156
0.19713515 0.21476796 0.19500977
0.18885462 0.22842416 0.19723377
0.19278328 0.22431543 0.19465077
0.17852546 0.23784941 0.19849892
0.18510564 0.2350319 0.19516775
0.16671766 0.2474833 0.19663319
0.17499264 0.24357085 0.19489239
0.12759873 0.25927678 0.19222884
0.145706 0.25380665 0.19351591
0.15507756 0.2535198 0.1924385
0.16388626 0.25132418 0.19339444
0.12365909 0.26107213 0.1910744
0.19566143 0.18647169 0.2045494
0.19618016 0.19520879 0.20456114
0.1936674 0.21485208 0.20306875
0.18756016 0.22550964 0.20307761
0.19137724 0.22182578 0.20141044
0.17769283 0.23659833 0.20188734
0.18303433 0.23216663 0.20209827
0.16331246 0.24659283 0.2006291
0.17578346 0.24055207 0.20008358
0.20161566 0.23223333 0.026894331
0.21602283 0.18425573 0.034254938
0.20887423 0.21939485 0.039193332
0.19903815 0.23381025 0.033331092
0.21035753 0.15660056 0.048359565
0.21534532 0.17890902 0.046123929
0.2141747 0.18200178 0.044742737
0.20917939 0.2177774 0.043432932
0.21127665 0.21814486 0.045437079
0.21044269 0.22091897 0.046579465
0.1991782 0.23497137 0.049482476
0.20182849 0.23246785 0.049198225
0.20879455 0.15329862 0.056169819
0.21080245 0.15601867 0.054161698
0.21285647 0.16551098 0.058389619
0.21460554 0.17428719 0.054099519
0.21502517 0.1856706 0.057060566
0.21591023 0.19396803 0.05626063
0.21444528 0.20517692 0.056251433
0.20977044 0.21892369 0.054174066
0.21222664 0.21543887 0.056731422
0.20792381 0.22523937 0.055304494
0.21023194 0.22267643 0.054668818
0.19771609 0.23689106 0.055755306
0.20277146 0.23230596 0.055508006
0.18646508 0.24718764 0.057994083
0.19349898 0.24198866 0.057694923
0.19982965 0.14006399 0.064929038
