# .PCD v0.7 - Point Cloud Data file format
VERSION 0.7
FIELDS x y z
SIZE 4 4 4
TYPE F F F
COUNT 1 1 1
WIDTH 1383
HEIGHT 1
VIEWPOINT 0 0 0 1 0 0 0
POINTS 1383
DATA ascii
-0.16303895 0.06078456 0.648
-0.1619028 0.06078456 0.648
-0.16101474 0.060878363 0.64900005
-0.16012317 0.060972165 0.65000004
-0.15947267 0.061159775 0.65200001
-0.15784383 0.060972165 0.65000004
-0.15670417 0.060972165 0.65000004
-0.15652181 0.06134738 0.65400004
-0.15537514 0.06134738 0.65400004
-0.15446429 0.061441183 0.65500003
-0.15284771 0.061253577 0.65300006
-0.15216741 0.061441183 0.65500003
-0.15171067 0.061722592 0.65800005
-0.1510146 0.061910201 0.66000003
-0.15008445 0.062004004 0.66100001
-0.14870019 0.061910201 0.66000003
-0.147543 0.061910201 0.66000003
-0.14727299 0.062285412 0.66400003
-0.1467689 0.062566824 0.66700006
-0.14559942 0.062566824 0.66700006
-0.14442995 0.062566824 0.66700006
-0.14326048 0.062566824 0.66700006
-0.14187798 0.062473021 0.66600001
-0.2047604 0.061825164 0.64700001
-0.20394072 0.061920721 0.648
-0.20280457 0.061920721 0.648
-0.2016684 0.061920721 0.648
-0.2008417 0.062016275 0.64900005
-0.19970378 0.062016275 0.64900005
-0.19856587 0.062016275 0.64900005
-0.19681956 0.061825164 0.64700001
-0.1959876 0.061920721 0.648
-0.19485144 0.061920721 0.648
-0.19371527 0.061920721 0.648
-0.19287631 0.062016275 0.64900005
-0.19085209 0.061729606 0.64600003
-0.18971944 0.061729606 0.64600003
-0.18771099 0.061442938 0.64300001
-0.18658359 0.061442938 0.64300001
-0.1854562 0.061442938 0.64300001
-0.18375547 0.061251823 0.64100003
-0.18206175 0.061060708 0.63900006
-0.18094137 0.061060708 0.63900006
-0.17982098 0.061060708 0.63900006
-0.17870061 0.061060708 0.63900006
-0.17730233 0.060965154 0.63800001
-0.1761837 0.060965154 0.63800001
-0.17533948 0.061060708 0.63900006
-0.17421909 0.061060708 0.63900006
-0.17364049 0.061251823 0.64100003
-0.17332402 0.061538491 0.64400005
-0.1716601 0.06134738 0.64200002
-0.17053446 0.06134738 0.64200002
-0.16993657 0.061538491 0.64400005
-0.1695938 0.061825164 0.64700001
-0.16845939 0.061825164 0.64700001
-0.16680776 0.061634049 0.64500004
-0.16593371 0.061729606 0.64600003
-0.16505617 0.061825164 0.64700001
-0.16442847 0.062016275 0.64900005
-0.16303895 0.061920721 0.648
-0.1619028 0.061920721 0.648
-0.16101474 0.062016275 0.64900005
-0.16012317 0.062111832 0.65000004
-0.15947267 0.062302947 0.65200001
-0.15808667 0.06220739 0.65100002
-0.15694524 0.06220739 0.65100002
-0.15628248 0.062398504 0.65300006
-0.15537514 0.062494058 0.65400004
-0.15422846 0.062494058 0.65400004
-0.15284771 0.062398504 0.65300006
-0.15216741 0.062589616 0.65500003
-0.15171067 0.062876284 0.65800005
-0.1510146 0.063067399 0.66000003
-0.15008445 0.063162953 0.66100001
-0.1489255 0.063162953 0.66100001
-0.14821365 0.063354068 0.66300005
-0.14727299 0.063449629 0.66400003
-0.14698894 0.063831851 0.66800004
-0.14581771 0.063831851 0.66800004
-0.1446465 0.063831851 0.66800004
-0.14326048 0.063736297 0.66700006
-0.14187798 0.063640736 0.66600001
-0.20507687 0.063056879 0.648
-0.20425545 0.063154191 0.64900005
-0.20311753 0.063154191 0.64900005
-0.20197962 0.063154191 0.64900005
-0.2008417 0.063154191 0.64900005
-0.19970378 0.063154191 0.64900005
-0.19856587 0.063154191 0.64900005
-0.19681956 0.062959567 0.64700001
-0.19568515 0.062959567 0.64700001
-0.19485144 0.063056879 0.648
-0.19401422 0.063154191 0.64900005
-0.19287631 0.063154191 0.64900005
-0.19144295 0.063056879 0.648
-0.18971944 0.062862262 0.64600003
-0.18858677 0.062862262 0.64600003
-0.18716395 0.06276495 0.64500004
-0.1854562 0.062570326 0.64300001
-0.1834688 0.062278401 0.64000005
-0.18206175 0.062181089 0.63900006
-0.18094137 0.062181089 0.63900006
-0.17982098 0.062181089 0.63900006
-0.17870061 0.062181089 0.63900006
-0.17758022 0.062181089 0.63900006
-0.17645985 0.062181089 0.63900006
-0.17561387 0.062278401 0.64000005
-0.17503701 0.062473021 0.64200002
-0.17445315 0.062667638 0.64400005
-0.17386228 0.062862262 0.64600003
-0.17246225 0.06276495 0.64500004
-0.17133135 0.06276495 0.64500004
-0.17020045 0.06276495 0.64500004
-0.16906954 0.06276495 0.64500004
-0.16845939 0.062959567 0.64700001
-0.16680776 0.06276495 0.64500004
-0.16593371 0.062862262 0.64600003
-0.16531128 0.063056879 0.648
-0.16417512 0.063056879 0.648
-0.16329056 0.063154191 0.64900005
-0.16215265 0.063154191 0.64900005
-0.16101474 0.063154191 0.64900005
-0.15987682 0.063154191 0.64900005
-0.1589835 0.063251503 0.65000004
-0.15808667 0.063348807 0.65100002
-0.15694524 0.063348807 0.65100002
-0.15604316 0.063446119 0.65200001
-0.15513757 0.063543431 0.65300006
-0.15399264 0.063543431 0.65300006
-0.15331584 0.063738048 0.65500003
-0.15216741 0.063738048 0.65500003
-0.15194124 0.064127289 0.65900004
-0.1510146 0.064224601 0.66000003
-0.15008445 0.064321913 0.66100001
-0.1489255 0.064321913 0.66100001
-0.1484372 0.064613841 0.66400003
-0.14816017 0.065003082 0.66800004
-0.14698894 0.065003082 0.66800004
-0.14581771 0.065003082 0.66800004
-0.1446465 0.065003082 0.66800004
-0.14326048 0.06490577 0.66700006
-0.20926909 0.064787418 0.65400004
-0.20780419 0.064688355 0.65300006
-0.20634279 0.064589292 0.65200001
-0.20457016 0.064391166 0.65000004
-0.2034305 0.064391166 0.65000004
-0.20197962 0.064292103 0.64900005
-0.2008417 0.064292103 0.64900005
-0.19970378 0.064292103 0.64900005
-0.19795397 0.064093977 0.64700001
-0.19651535 0.063994914 0.64600003
-0.1953827 0.063994914 0.64600003
-0.19485144 0.06419304 0.648
-0.19401422 0.064292103 0.64900005
-0.19287631 0.064292103 0.64900005
-0.19144295 0.06419304 0.648
-0.18971944 0.063994914 0.64600003
-0.18829484 0.063895851 0.64500004
-0.18716395 0.063895851 0.64500004
-0.18603306 0.063895851 0.64500004
-0.1834688 0.063400529 0.64000005
-0.18234667 0.063400529 0.64000005
-0.18122452 0.063400529 0.64000005
-0.18010239 0.063400529 0.64000005
-0.17898026 0.063400529 0.64000005
-0.17785813 0.063400529 0.64000005
-0.176736 0.063400529 0.64000005
-0.17616266 0.063598663 0.64200002
-0.17503701 0.063598663 0.64200002
-0.17472404 0.063895851 0.64500004
-0.17440055 0.06419304 0.648
-0.17272963 0.063994914 0.64600003
-0.17133135 0.063895851 0.64500004
-0.17020045 0.063895851 0.64500004
-0.16906954 0.063895851 0.64500004
-0.16871975 0.06419304 0.648
-0.16706637 0.063994914 0.64600003
-0.16619058 0.064093977 0.64700001
-0.16531128 0.06419304 0.648
-0.16417512 0.06419304 0.648
-0.16329056 0.064292103 0.64900005
-0.16215265 0.064292103 0.64900005
-0.16126283 0.064391166 0.65000004
-0.15987682 0.064292103 0.64900005
-0.1589835 0.064391166 0.65000004
-0.15808667 0.064490229 0.65100002
-0.15718633 0.064589292 0.65200001
-0.15628248 0.064688355 0.65300006
-0.15489998 0.064589292 0.65200001
-0.15422846 0.064787418 0.65400004
-0.15308177 0.064787418 0.65400004
-0.15239973 0.064985543 0.65600002
-0.15171067 0.065183669 0.65800005
-0.1512434 0.065480866 0.66100001
-0.15008445 0.065480866 0.66100001
-0.1489255 0.065480866 0.66100001
-0.14866075 0.065877117 0.66500002
-0.14816017 0.066174306 0.66800004
-0.14698894 0.066174306 0.66800004
-0.14581771 0.066174306 0.66800004
-0.1446465 0.066174306 0.66800004
-0.14326048 0.066075243 0.66700006
-0.20926909 0.065934099 0.65400004
-0.20812242 0.065934099 0.65400004
-0.20634279 0.065732464 0.65200001
-0.20519961 0.065732464 0.65200001
-0.20405644 0.065732464 0.65200001
-0.20229083 0.065530837 0.65000004
-0.20053224 0.065329202 0.648
-0.19908836 0.06522838 0.64700001
-0.19795397 0.06522838 0.64700001
-0.19651535 0.065127566 0.64600003
-0.1953827 0.065127566 0.64600003
-0.19425005 0.065127566 0.64600003
-0.19341634 0.06522838 0.64700001
-0.19228193 0.06522838 0.64700001
-0.19085209 0.065127566 0.64600003
-0.18971944 0.065127566 0.64600003
-0.18858677 0.065127566 0.64600003
-0.18745412 0.065127566 0.64600003
-0.18603306 0.065026753 0.64500004
-0.18461548 0.064925931 0.64400005
-0.18291649 0.064724296 0.64200002
-0.18179086 0.064724296 0.64200002
-0.18066522 0.064724296 0.64200002
-0.17870061 0.064421847 0.63900006
-0.17785813 0.064522669 0.64000005
-0.17728829 0.064724296 0.64200002
-0.17643705 0.064825118 0.64300001
-0.17530966 0.064825118 0.64300001
-0.17418227 0.064825118 0.64300001
-0.17359315 0.065026753 0.64500004
-0.17272963 0.065127566 0.64600003
-0.17159697 0.065127566 0.64600003
-0.17020045 0.065026753 0.64500004
-0.16906954 0.065026753 0.64500004
-0.16819902 0.065127566 0.64600003
-0.16706637 0.065127566 0.64600003
-0.16619058 0.06522838 0.64700001
-0.16505617 0.06522838 0.64700001
-0.16392176 0.06522838 0.64700001
-0.16329056 0.065430015 0.64900005
-0.16215265 0.065430015 0.64900005
-0.16126283 0.065530837 0.65000004
-0.16061585 0.065732464 0.65200001
-0.15922809 0.06563165 0.65100002
-0.15784383 0.065530837 0.65000004
-0.15694524 0.06563165 0.65100002
-0.15580383 0.06563165 0.65100002
-0.15537514 0.065934099 0.65400004
-0.15422846 0.065934099 0.65400004
-0.15284771 0.065833285 0.65300006
-0.15216741 0.066034913 0.65500003
-0.15194124 0.066438183 0.65900004
-0.1512434 0.066639818 0.66100001
-0.15008445 0.066639818 0.66100001
-0.1489255 0.066639818 0.66100001
-0.14866075 0.067043081 0.66500002
-0.14816017 0.06734553 0.66800004
-0.14698894 0.06734553 0.66800004
-0.14581771 0.06734553 0.66800004
-0.1446465 0.06734553 0.66800004
-0.14369005 0.067446351 0.66900003
-0.20894912 0.066978209 0.65300006
-0.20780419 0.066978209 0.65300006
-0.20634279 0.066875637 0.65200001
-0.20551434 0.066978209 0.65300006
-0.20405644 0.066875637 0.65200001
-0.20229083 0.0666705 0.65000004
-0.20053224 0.066465363 0.648
-0.19878066 0.066260219 0.64600003
-0.197648 0.066260219 0.64600003
-0.19651535 0.066260219 0.64600003
-0.1953827 0.066260219 0.64600003
-0.19455074 0.066362791 0.64700001
-0.19341634 0.066362791 0.64700001
-0.19228193 0.066362791 0.64700001
-0.19114752 0.066362791 0.64700001
-0.19001311 0.066362791 0.64700001
-0.18858677 0.066260219 0.64600003
-0.18745412 0.066260219 0.64600003
-0.18632147 0.066260219 0.64600003
-0.18490215 0.066157646 0.64500004
-0.18348633 0.066055082 0.64400005
-0.18179086 0.065849937 0.64200002
-0.18066522 0.065849937 0.64200002
-0.17953958 0.065849937 0.64200002
-0.17841394 0.065849937 0.64200002
-0.17728829 0.065849937 0.64200002
-0.17643705 0.06595251 0.64300001
-0.17530966 0.06595251 0.64300001
-0.17445315 0.066055082 0.64400005
-0.17386228 0.066260219 0.64600003
-0.17272963 0.066260219 0.64600003
-0.17159697 0.066260219 0.64600003
-0.17020045 0.066157646 0.64500004
-0.16906954 0.066157646 0.64500004
-0.16793865 0.066157646 0.64500004
-0.16680776 0.066157646 0.64500004
-0.16567685 0.066157646 0.64500004
-0.16505617 0.066362791 0.64700001
-0.16468184 0.0666705 0.65000004
-0.16354217 0.0666705 0.65000004
-0.1624025 0.0666705 0.65000004
-0.16126283 0.0666705 0.65000004
-0.16061585 0.066875637 0.65200001
-0.15947267 0.066875637 0.65200001
-0.15808667 0.066773072 0.65100002
-0.15694524 0.066773072 0.65100002
-0.15604316 0.066875637 0.65200001
-0.15537514 0.067080781 0.65400004
-0.15422846 0.067080781 0.65400004
-0.15308177 0.067080781 0.65400004
-0.15216741 0.067183353 0.65500003
-0.15171067 0.067491062 0.65800005
-0.1510146 0.067696199 0.66000003
-0.15008445 0.067798771 0.66100001
-0.1489255 0.067798771 0.66100001
-0.14866075 0.068209052 0.66500002
-0.14816017 0.068516761 0.66800004
-0.14720899 0.068619333 0.66900003
-0.14603601 0.068619333 0.66900003
-0.14507957 0.068721898 0.67000002
-0.14390483 0.068721898 0.67000002
-0.20958908 0.068331786 0.65500003
-0.20780419 0.068123139 0.65300006
-0.20634279 0.068018816 0.65200001
-0.20551434 0.068123139 0.65300006
-0.20374347 0.067914486 0.65100002
-0.20291327 0.068018816 0.65200001
-0.2008417 0.06770584 0.64900005
-0.19908836 0.067497194 0.64700001
-0.19795397 0.067497194 0.64700001
-0.19651535 0.067392871 0.64600003
-0.1953827 0.067392871 0.64600003
-0.19455074 0.067497194 0.64700001
-0.19341634 0.067497194 0.64700001
-0.19228193 0.067497194 0.64700001
-0.19114752 0.067497194 0.64700001
-0.19001311 0.067497194 0.64700001
-0.18858677 0.067392871 0.64600003
-0.18745412 0.067392871 0.64600003
-0.18632147 0.067392871 0.64600003
-0.18518881 0.067392871 0.64600003
-0.18377125 0.067288548 0.64500004
-0.18207403 0.067079902 0.64300001
-0.18094663 0.067079902 0.64300001
-0.17981924 0.067079902 0.64300001
-0.17841394 0.066975579 0.64200002
-0.17728829 0.066975579 0.64200002
-0.17643705 0.067079902 0.64300001
-0.17530966 0.067079902 0.64300001
-0.17445315 0.067184225 0.64400005
-0.17386228 0.067392871 0.64600003
-0.17272963 0.067392871 0.64600003
-0.17159697 0.067392871 0.64600003
-0.17020045 0.067288548 0.64500004
-0.16906954 0.067288548 0.64500004
-0.16793865 0.067288548 0.64500004
-0.16680776 0.067288548 0.64500004
-0.16541998 0.067184225 0.64400005
-0.16480106 0.067392871 0.64600003
-0.16417512 0.067601517 0.648
-0.16329056 0.06770584 0.64900005
-0.1624025 0.067810163 0.65000004
-0.16126283 0.067810163 0.65000004
-0.16061585 0.068018816 0.65200001
-0.15947267 0.068018816 0.65200001
-0.1583295 0.068018816 0.65200001
-0.15718633 0.068018816 0.65200001
-0.15628248 0.068123139 0.65300006
-0.15537514 0.068227462 0.65400004
-0.15399264 0.068123139 0.65300006
-0.15308177 0.068227462 0.65400004
-0.15216741 0.068331786 0.65500003
-0.15148011 0.068540432 0.65700001
-0.15055698 0.068644755 0.65800005
-0.1498574 0.068853401 0.66000003
-0.1489255 0.068957724 0.66100001
-0.14866075 0.069375016 0.66500002
-0.14816017 0.069687985 0.66800004
-0.14720899 0.069792308 0.66900003
-0.14603601 0.069792308 0.66900003
-0.1452961 0.070000954 0.671
-0.2131799 0.069904521 0.65900004
-0.21138099 0.069692373 0.65700001
-0.20958908 0.069480218 0.65500003
-0.20812242 0.069374137 0.65400004
-0.20697574 0.069374137 0.65400004
-0.20519961 0.069161989 0.65200001
-0.20405644 0.069161989 0.65200001
-0.20291327 0.069161989 0.65200001
-0.2008417 0.06884376 0.64900005
-0.19970378 0.06884376 0.64900005
-0.19795397 0.068631604 0.64700001
-0.19681956 0.068631604 0.64700001
-0.19568515 0.068631604 0.64700001
-0.19455074 0.068631604 0.64700001
-0.19341634 0.068631604 0.64700001
-0.19198474 0.068525523 0.64600003
-0.19085209 0.068525523 0.64600003
-0.18971944 0.068525523 0.64600003
-0.18858677 0.068525523 0.64600003
-0.18745412 0.068525523 0.64600003
-0.18603306 0.068419449 0.64500004
-0.18490215 0.068419449 0.64500004
-0.18377125 0.068419449 0.64500004
-0.18235719 0.068313375 0.64400005
-0.18150945 0.068419449 0.64500004
-0.17981924 0.068207294 0.64300001
-0.17841394 0.06810122 0.64200002
-0.17756444 0.068207294 0.64300001
-0.17671145 0.068313375 0.64400005
-0.1755823 0.068313375 0.64400005
-0.17418227 0.068207294 0.64300001
-0.17359315 0.068419449 0.64500004
-0.17272963 0.068525523 0.64600003
-0.17133135 0.068419449 0.64500004
-0.17020045 0.068419449 0.64500004
-0.16906954 0.068419449 0.64500004
-0.16793865 0.068419449 0.64500004
-0.16654913 0.068313375 0.64400005
-0.16541998 0.068313375 0.64400005
-0.16480106 0.068525523 0.64600003
-0.16392176 0.068631604 0.64700001
-0.16329056 0.06884376 0.64900005
-0.1624025 0.068949834 0.65000004
-0.16126283 0.068949834 0.65000004
-0.16061585 0.069161989 0.65200001
-0.15922809 0.069055907 0.65100002
-0.1583295 0.069161989 0.65200001
-0.15742742 0.069268063 0.65300006
-0.15652181 0.069374137 0.65400004
-0.15561272 0.069480218 0.65500003
-0.15446429 0.069480218 0.65500003
-0.15331584 0.069480218 0.65500003
-0.15216741 0.069480218 0.65500003
-0.15148011 0.069692373 0.65700001
-0.15055698 0.069798447 0.65800005
-0.14940329 0.069798447 0.65800005
-0.1489255 0.070116676 0.66100001
-0.14866075 0.07054098 0.66500002
-0.14816017 0.070859216 0.66800004
-0.14720899 0.07096529 0.66900003
-0.14603601 0.07096529 0.66900003
-0.14551264 0.071283519 0.67200005
-0.2131799 0.071059972 0.65900004
-0.21138099 0.070844308 0.65700001
-0.20990907 0.070736483 0.65600002
-0.20844065 0.07062865 0.65500003
-0.20634279 0.070305161 0.65200001
-0.20519961 0.070305161 0.65200001
-0.20405644 0.070305161 0.65200001
-0.20291327 0.070305161 0.65200001
-0.20115116 0.070089497 0.65000004
-0.20001149 0.070089497 0.65000004
-0.19825992 0.06987384 0.648
-0.19681956 0.069766007 0.64700001
-0.19568515 0.069766007 0.64700001
-0.19455074 0.069766007 0.64700001
-0.19341634 0.069766007 0.64700001
-0.19198474 0.069658183 0.64600003
-0.19085209 0.069658183 0.64600003
-0.18971944 0.069658183 0.64600003
-0.18858677 0.069658183 0.64600003
-0.18745412 0.069658183 0.64600003
-0.18603306 0.06955035 0.64500004
-0.18490215 0.06955035 0.64500004
-0.18377125 0.06955035 0.64500004
-0.18235719 0.069442518 0.64400005
-0.18122804 0.069442518 0.64400005
-0.18009889 0.069442518 0.64400005
-0.17869185 0.069334693 0.64300001
-0.17756444 0.069334693 0.64300001
-0.17671145 0.069442518 0.64400005
-0.17585495 0.06955035 0.64500004
-0.17445315 0.069442518 0.64400005
-0.17359315 0.06955035 0.64500004
-0.17246225 0.06955035 0.64500004
-0.17133135 0.06955035 0.64500004
-0.17020045 0.06955035 0.64500004
-0.16906954 0.06955035 0.64500004
-0.16767828 0.069442518 0.64400005
-0.16629052 0.069334693 0.64300001
-0.16541998 0.069442518 0.64400005
-0.16480106 0.069658183 0.64600003
-0.16392176 0.069766007 0.64700001
-0.16329056 0.069981672 0.64900005
-0.16215265 0.069981672 0.64900005
-0.16126283 0.070089497 0.65000004
-0.16061585 0.070305161 0.65200001
-0.15922809 0.070197329 0.65100002
-0.1583295 0.070305161 0.65200001
-0.15742742 0.070412986 0.65300006
-0.15652181 0.070520818 0.65400004
-0.15561272 0.07062865 0.65500003
-0.15446429 0.07062865 0.65500003
-0.15331584 0.07062865 0.65500003
-0.15216741 0.07062865 0.65500003
-0.15171067 0.07095214 0.65800005
-0.15078579 0.071059972 0.65900004
-0.14940329 0.07095214 0.65800005
-0.1491508 0.071383461 0.66200006
-0.1484372 0.071599118 0.66400003
-0.14816017 0.07203044 0.66800004
-0.21350341 0.072324999 0.66000003
-0.21202447 0.072215416 0.65900004
-0.20990907 0.071886666 0.65600002
-0.2090771 0.071996249 0.65700001
-0.20697574 0.0716675 0.65400004
-0.20551434 0.071557917 0.65300006
-0.20405644 0.071448334 0.65200001
-0.20322448 0.071557917 0.65300006
-0.20115116 0.071229167 0.65000004
-0.19970378 0.071119584 0.64900005
-0.19795397 0.070900418 0.64700001
-0.19681956 0.070900418 0.64700001
-0.19508025 0.070681252 0.64500004
-0.19394934 0.070681252 0.64500004
-0.19281845 0.070681252 0.64500004
-0.19109316 0.070462085 0.64300001
-0.19026121 0.070571668 0.64400005
-0.18971944 0.070790835 0.64600003
-0.18858677 0.070790835 0.64600003
-0.1877443 0.070900418 0.64700001
-0.18603306 0.070681252 0.64500004
-0.18432881 0.070462085 0.64300001
-0.18348633 0.070571668 0.64400005
-0.18235719 0.070571668 0.64400005
-0.18094663 0.070462085 0.64300001
-0.17981924 0.070462085 0.64300001
-0.17813604 0.070242919 0.64100003
-0.17701215 0.070242919 0.64100003
-0.17643705 0.070462085 0.64300001
-0.17530966 0.070462085 0.64300001
-0.17418227 0.070462085 0.64300001
-0.17359315 0.070681252 0.64500004
-0.17219487 0.070571668 0.64400005
-0.17133135 0.070681252 0.64500004
-0.17020045 0.070681252 0.64500004
-0.16906954 0.070681252 0.64500004
-0.16741791 0.070462085 0.64300001
-0.16629052 0.070462085 0.64300001
-0.16567685 0.070681252 0.64500004
-0.16505617 0.070900418 0.64700001
-0.16392176 0.070900418 0.64700001
-0.16329056 0.071119584 0.64900005
-0.16215265 0.071119584 0.64900005
-0.16126283 0.071229167 0.65000004
-0.16110854 0.0716675 0.65400004
-0.15996186 0.0716675 0.65400004
-0.1583295 0.071448334 0.65200001
-0.15742742 0.071557917 0.65300006
-0.15628248 0.071557917 0.65300006
-0.15585029 0.071886666 0.65600002
-0.15493593 0.071996249 0.65700001
-0.15378399 0.071996249 0.65700001
-0.15263204 0.071996249 0.65700001
-0.15194124 0.072215416 0.65900004
-0.1510146 0.072324999 0.66000003
-0.1498574 0.072324999 0.66000003
-0.1491508 0.072544165 0.66200006
-0.1484372 0.072763331 0.66400003
-0.14816017 0.073201664 0.66800004
-0.2133114 0.07381621 0.66300005
-0.21086901 0.073370866 0.65900004
-0.20971356 0.073370866 0.65900004
-0.20792517 0.073148191 0.65700001
-0.20645851 0.073036849 0.65600002
-0.20405644 0.072591506 0.65200001
-0.20322448 0.07270284 0.65300006
-0.2008417 0.072257496 0.64900005
-0.19970378 0.072257496 0.64900005
-0.19825992 0.072146162 0.648
-0.19681956 0.072034821 0.64700001
-0.19508025 0.071812153 0.64500004
-0.19394934 0.071812153 0.64500004
-0.19281845 0.071812153 0.64500004
-0.19079597 0.071478136 0.64200002
-0.19026121 0.071700811 0.64400005
-0.18942575 0.071812153 0.64500004
-0.18829484 0.071812153 0.64500004
-0.18687378 0.071700811 0.64400005
-0.18574463 0.071700811 0.64400005
-0.18404214 0.071478136 0.64200002
-0.18320142 0.071589477 0.64300001
-0.18207403 0.071589477 0.64300001
-0.18094663 0.071589477 0.64300001
-0.17981924 0.071589477 0.64300001
-0.17785813 0.071255468 0.64000005
-0.176736 0.071255468 0.64000005
-0.17616266 0.071478136 0.64200002
-0.17503701 0.071478136 0.64200002
-0.17391138 0.071478136 0.64200002
-0.17332402 0.071700811 0.64400005
-0.17219487 0.071700811 0.64400005
-0.17106572 0.071700811 0.64400005
-0.17020045 0.071812153 0.64500004
-0.16906954 0.071812153 0.64500004
-0.16767828 0.071700811 0.64400005
-0.16654913 0.071700811 0.64400005
-0.16567685 0.071812153 0.64500004
-0.16505617 0.072034821 0.64700001
-0.16392176 0.072034821 0.64700001
-0.16329056 0.072257496 0.64900005
-0.16215265 0.072257496 0.64900005
-0.16126283 0.07236883 0.65000004
-0.16086219 0.07270284 0.65300006
-0.15996186 0.072814181 0.65400004
-0.15881518 0.072814181 0.65400004
-0.15790959 0.072925515 0.65500003
-0.15676115 0.072925515 0.65500003
-0.15632544 0.073259525 0.65800005
-0.15517175 0.073259525 0.65800005
-0.15425213 0.073370866 0.65900004
-0.153329 0.073482201 0.66000003
-0.15240236 0.073593535 0.66100001
-0.15147223 0.073704876 0.66200006
-0.15008445 0.073593535 0.66100001
-0.14960141 0.073927544 0.66400003
-0.14866075 0.074038886 0.66500002
-0.14816017 0.074372895 0.66800004
-0.211189 0.074639402 0.66000003
-0.20844065 0.074073948 0.65500003
-0.20760868 0.07418704 0.65600002
-0.20645851 0.07418704 0.65600002
-0.20436941 0.073847771 0.65300006
-0.20353571 0.073960863 0.65400004
-0.2008417 0.073395409 0.64900005
-0.19970378 0.073395409 0.64900005
-0.19825992 0.073282316 0.648
-0.19681956 0.073169231 0.64700001
-0.19568515 0.073169231 0.64700001
-0.19394934 0.072943047 0.64500004
-0.19281845 0.072943047 0.64500004
-0.19079597 0.072603777 0.64200002
-0.19026121 0.072829962 0.64400005
-0.18971944 0.073056139 0.64600003
-0.18829484 0.072943047 0.64500004
-0.18687378 0.072829962 0.64400005
-0.18574463 0.072829962 0.64400005
-0.18404214 0.072603777 0.64200002
-0.18320142 0.072716869 0.64300001
-0.18207403 0.072716869 0.64300001
-0.18094663 0.072716869 0.64300001
-0.17981924 0.072716869 0.64300001
-0.17785813 0.0723776 0.64000005
-0.176736 0.0723776 0.64000005
-0.17616266 0.072603777 0.64200002
-0.17503701 0.072603777 0.64200002
-0.17391138 0.072603777 0.64200002
-0.17278574 0.072603777 0.64200002
-0.17192748 0.072716869 0.64300001
-0.17080009 0.072716869 0.64300001
-0.1696727 0.072716869 0.64300001
-0.16906954 0.072943047 0.64500004
-0.16767828 0.072829962 0.64400005
-0.16654913 0.072829962 0.64400005
-0.16567685 0.072943047 0.64500004
-0.16505617 0.073169231 0.64700001
-0.16392176 0.073169231 0.64700001
-0.16329056 0.073395409 0.64900005
-0.1624025 0.073508501 0.65000004
-0.16126283 0.073508501 0.65000004
-0.16086219 0.073847771 0.65300006
-0.15996186 0.073960863 0.65400004
-0.15905802 0.074073948 0.65500003
-0.15790959 0.074073948 0.65500003
-0.15700048 0.07418704 0.65600002
-0.15656303 0.07452631 0.65900004
-0.1556434 0.074639402 0.66000003
-0.15472026 0.074752487 0.66100001
-0.153329 0.074639402 0.66000003
-0.15240236 0.074752487 0.66100001
-0.15147223 0.07486558 0.66200006
-0.15008445 0.074752487 0.66100001
-0.14937611 0.074978672 0.66300005
-0.14866075 0.075204849 0.66500002
-0.14816017 0.075544119 0.66800004
-0.14720899 0.075657211 0.66900003
-0.20875888 0.075337224 0.65600002
-0.20729221 0.07522238 0.65500003
-0.20551434 0.074992694 0.65300006
-0.20405644 0.074877851 0.65200001
-0.20322448 0.074992694 0.65300006
-0.2008417 0.074533321 0.64900005
-0.19939607 0.074418478 0.648
-0.19795397 0.074303634 0.64700001
-0.19681956 0.074303634 0.64700001
-0.19568515 0.074303634 0.64700001
-0.19455074 0.074303634 0.64700001
-0.1931174 0.074188791 0.64600003
-0.19109316 0.073844261 0.64300001
-0.18996577 0.073844261 0.64300001
-0.18913206 0.073959105 0.64400005
-0.18800291 0.073959105 0.64400005
-0.18687378 0.073959105 0.64400005
-0.18574463 0.073959105 0.64400005
-0.18432881 0.073844261 0.64300001
-0.18320142 0.073844261 0.64300001
-0.18235719 0.073959105 0.64400005
-0.18094663 0.073844261 0.64300001
-0.17981924 0.073844261 0.64300001
-0.17813604 0.073614575 0.64100003
-0.176736 0.073499732 0.64000005
-0.17616266 0.073729418 0.64200002
-0.17503701 0.073729418 0.64200002
-0.17391138 0.073729418 0.64200002
-0.17278574 0.073729418 0.64200002
-0.1716601 0.073729418 0.64200002
-0.17080009 0.073844261 0.64300001
-0.1696727 0.073844261 0.64300001
-0.16880743 0.073959105 0.64400005
-0.16767828 0.073959105 0.64400005
-0.16654913 0.073959105 0.64400005
-0.16541998 0.073959105 0.64400005
-0.16480106 0.074188791 0.64600003
-0.16392176 0.074303634 0.64700001
-0.16329056 0.074533321 0.64900005
-0.16315205 0.074992694 0.65300006
-0.16200712 0.074992694 0.65300006
-0.16110854 0.075107537 0.65400004
-0.15996186 0.075107537 0.65400004
-0.15905802 0.07522238 0.65500003
-0.15790959 0.07522238 0.65500003
-0.15700048 0.075337224 0.65600002
-0.15656303 0.075681753 0.65900004
-0.15587923 0.07591144 0.66100001
-0.15472026 0.07591144 0.66100001
-0.15356131 0.07591144 0.66100001
-0.15240236 0.07591144 0.66100001
-0.15147223 0.076026283 0.66200006
-0.15008445 0.07591144 0.66100001
-0.14960141 0.07625597 0.66400003
-0.14866075 0.076370813 0.66500002
-0.14793837 0.076600499 0.66700006
-0.14720899 0.076830186 0.66900003
-0.20939533 0.076720603 0.65800005
-0.20729221 0.076370813 0.65500003
-0.20551434 0.076137625 0.65300006
-0.20436941 0.076137625 0.65300006
-0.20322448 0.076137625 0.65300006
-0.2008417 0.075671233 0.64900005
-0.19939607 0.075554639 0.648
-0.19795397 0.075438045 0.64700001
-0.19681956 0.075438045 0.64700001
-0.19568515 0.075438045 0.64700001
-0.19425005 0.075321443 0.64600003
-0.19341634 0.075438045 0.64700001
-0.19109316 0.074971654 0.64300001
-0.18967034 0.074855059 0.64200002
-0.18913206 0.075088255 0.64400005
-0.18800291 0.075088255 0.64400005
-0.18687378 0.075088255 0.64400005
-0.18574463 0.075088255 0.64400005
-0.18432881 0.074971654 0.64300001
-0.18377125 0.075204849 0.64500004
-0.18264034 0.075204849 0.64500004
-0.18122804 0.075088255 0.64400005
-0.17981924 0.074971654 0.64300001
-0.17813604 0.074738465 0.64100003
-0.17701215 0.074738465 0.64100003
-0.17671145 0.075088255 0.64400005
-0.17585495 0.075204849 0.64500004
-0.17418227 0.074971654 0.64300001
-0.17278574 0.074855059 0.64200002
-0.17192748 0.074971654 0.64300001
-0.17106572 0.075088255 0.64400005
-0.16993657 0.075088255 0.64400005
-0.16880743 0.075088255 0.64400005
-0.16767828 0.075088255 0.64400005
-0.16629052 0.074971654 0.64300001
-0.16567685 0.075204849 0.64500004
-0.16505617 0.075438045 0.64700001
-0.16417512 0.075554639 0.648
-0.16354217 0.075787835 0.65000004
-0.16315205 0.076137625 0.65300006
-0.16200712 0.076137625 0.65300006
-0.16135488 0.076370813 0.65500003
-0.16020645 0.076370813 0.65500003
-0.15905802 0.076370813 0.65500003
-0.15815067 0.076487415 0.65600002
-0.15723981 0.076604009 0.65700001
-0.15703818 0.077070393 0.66100001
-0.15587923 0.077070393 0.66100001
-0.15472026 0.077070393 0.66100001
-0.15379363 0.077186994 0.66200006
-0.15309405 0.077420183 0.66400003
-0.15215865 0.077536784 0.66500002
-0.15053856 0.077303588 0.66300005
-0.14982672 0.077536784 0.66500002
-0.1488843 0.077653378 0.66600001
-0.14816017 0.077886574 0.66800004
-0.20760868 0.077637598 0.65600002
-0.20582905 0.0774009 0.65400004
-0.20436941 0.077282548 0.65300006
-0.20322448 0.077282548 0.65300006
-0.20146063 0.07704585 0.65100002
-0.19970378 0.076809153 0.64900005
-0.19825992 0.0766908 0.648
-0.19712377 0.0766908 0.648
-0.1959876 0.0766908 0.648
-0.19425005 0.076454103 0.64600003
-0.19281845 0.076335751 0.64500004
-0.19139037 0.076217398 0.64400005
-0.18996577 0.076099053 0.64300001
-0.18913206 0.076217398 0.64400005
-0.18800291 0.076217398 0.64400005
-0.18687378 0.076217398 0.64400005
-0.18574463 0.076217398 0.64400005
-0.18461548 0.076217398 0.64400005
-0.18405616 0.076454103 0.64600003
-0.18264034 0.076335751 0.64500004
-0.18122804 0.076217398 0.64400005
-0.18009889 0.076217398 0.64400005
-0.17869185 0.076099053 0.64300001
-0.17756444 0.076099053 0.64300001
-0.17671145 0.076217398 0.64400005
-0.1761276 0.076454103 0.64600003
-0.17445315 0.076217398 0.64400005
-0.17305487 0.076099053 0.64300001
-0.17219487 0.076217398 0.64400005
-0.17106572 0.076217398 0.64400005
-0.16993657 0.076217398 0.64400005
-0.16906954 0.076335751 0.64500004
-0.16793865 0.076335751 0.64500004
-0.16654913 0.076217398 0.64400005
-0.16593371 0.076454103 0.64600003
-0.16556638 0.076809153 0.64900005
-0.16493519 0.07704585 0.65100002
-0.16429697 0.077282548 0.65300006
-0.16315205 0.077282548 0.65300006
-0.16200712 0.077282548 0.65300006
-0.16135488 0.077519253 0.65500003
-0.16045104 0.077637598 0.65600002
-0.15930085 0.077637598 0.65600002
-0.15815067 0.077637598 0.65600002
-0.15795779 0.078111 0.66000003
-0.15727575 0.078347698 0.66200006
-0.15611504 0.078347698 0.66200006
-0.15472026 0.078229353 0.66100001
-0.15379363 0.078347698 0.66200006
-0.15309405 0.078584403 0.66400003
-0.15192984 0.078584403 0.66400003
-0.15053856 0.07846605 0.66300005
-0.14982672 0.078702748 0.66500002
-0.14910784 0.078939453 0.66700006
-0.14838196 0.07917615 0.66900003
-0.20792517 0.078907892 0.65700001
-0.20582905 0.078547582 0.65400004
-0.20436941 0.078427479 0.65300006
-0.20322448 0.078427479 0.65300006
-0.20146063 0.078187272 0.65100002
-0.19878066 0.077586755 0.64600003
-0.19856587 0.077947065 0.64900005
-0.19803637 0.078187272 0.65100002
-0.19629005 0.077947065 0.64900005
-0.19515213 0.077947065 0.64900005
-0.19281845 0.077466652 0.64500004
-0.19168755 0.077466652 0.64500004
-0.19026121 0.077346548 0.64400005
-0.18883838 0.077226445 0.64300001
-0.18771099 0.077226445 0.64300001
-0.18687378 0.077346548 0.64400005
-0.18574463 0.077346548 0.64400005
-0.18461548 0.077346548 0.64400005
-0.18348633 0.077346548 0.64400005
-0.18235719 0.077346548 0.64400005
-0.18094663 0.077226445 0.64300001
-0.17981924 0.077226445 0.64300001
-0.17869185 0.077226445 0.64300001
-0.17784061 0.077346548 0.64400005
-0.17643705 0.077226445 0.64300001
-0.17640023 0.077706859 0.64700001
-0.17472404 0.077466652 0.64500004
-0.17305487 0.077226445 0.64300001
-0.17219487 0.077346548 0.64400005
-0.17106572 0.077346548 0.64400005
-0.17020045 0.077466652 0.64500004
-0.16906954 0.077466652 0.64500004
-0.16819902 0.077586755 0.64600003
-0.16680776 0.077466652 0.64500004
-0.16644745 0.077826962 0.648
-0.16556638 0.077947065 0.64900005
-0.16493519 0.078187272 0.65100002
-0.16429697 0.078427479 0.65300006
-0.16315205 0.078427479 0.65300006
-0.16250332 0.078667685 0.65500003
-0.16160123 0.078787789 0.65600002
-0.16045104 0.078787789 0.65600002
-0.15930085 0.078787789 0.65600002
-0.15887392 0.079148099 0.65900004
-0.15795779 0.079268202 0.66000003
-0.15727575 0.079508409 0.66200006
-0.15611504 0.079508409 0.66200006
-0.15472026 0.079388306 0.66100001
-0.15379363 0.079508409 0.66200006
-0.15309405 0.079748616 0.66400003
-0.15238746 0.079988822 0.66600001
-0.15076563 0.079748616 0.66400003
-0.14982672 0.079868719 0.66500002
-0.14910784 0.080108926 0.66700006
-0.14838196 0.080349132 0.66900003
-0.20729221 0.079816118 0.65500003
-0.20582905 0.079694256 0.65400004
-0.20436941 0.079572402 0.65300006
-0.20322448 0.079572402 0.65300006
-0.20146063 0.079328686 0.65100002
-0.19970378 0.079084978 0.64900005
-0.19917779 0.079328686 0.65100002
-0.19742796 0.079084978 0.64900005
-0.19629005 0.079084978 0.64900005
-0.19515213 0.079084978 0.64900005
-0.1931174 0.078719407 0.64600003
-0.19198474 0.078719407 0.64600003
-0.19026121 0.078475691 0.64400005
-0.18883838 0.078353837 0.64300001
-0.18771099 0.078353837 0.64300001
-0.18658359 0.078353837 0.64300001
-0.18574463 0.078475691 0.64400005
-0.18461548 0.078475691 0.64400005
-0.18377125 0.078597553 0.64500004
-0.18235719 0.078475691 0.64400005
-0.18094663 0.078353837 0.64300001
-0.17925993 0.078110121 0.64100003
-0.17813604 0.078110121 0.64100003
-0.17756444 0.078353837 0.64300001
-0.17643705 0.078353837 0.64300001
-0.17585495 0.078597553 0.64500004
-0.17472404 0.078597553 0.64500004
-0.17332402 0.078475691 0.64400005
-0.17219487 0.078475691 0.64400005
-0.17106572 0.078475691 0.64400005
-0.17020045 0.078597553 0.64500004
-0.16933167 0.078719407 0.64600003
-0.16871975 0.078963116 0.648
-0.16732498 0.078841262 0.64700001
-0.1667043 0.079084978 0.64900005
-0.16633172 0.079450548 0.65200001
-0.1654419 0.079572402 0.65300006
-0.16454858 0.079694256 0.65400004
-0.16365175 0.079816118 0.65500003
-0.16250332 0.079816118 0.65500003
-0.16160123 0.079937972 0.65600002
-0.16045104 0.079937972 0.65600002
-0.15930085 0.079937972 0.65600002
-0.15863283 0.080181688 0.65800005
-0.15747914 0.080181688 0.65800005
-0.15727575 0.080669113 0.66200006
-0.15611504 0.080669113 0.66200006
-0.15518841 0.080790967 0.66300005
-0.15379363 0.080669113 0.66200006
-0.15286349 0.080790967 0.66300005
-0.15170103 0.080790967 0.66300005
-0.15053856 0.080790967 0.66300005
-0.14982672 0.081034683 0.66500002
-0.1488843 0.081156537 0.66600001
-0.14816017 0.081400253 0.66800004
-0.14764908 0.081765823 0.671
-0.19711411 0.11759168 0.96500003
-0.19481462 0.11722611 0.96200007
-0.20697574 0.080840938 0.65400004
-0.20582905 0.080840938 0.65400004
-0.20436941 0.080717333 0.65300006
-0.20322448 0.080717333 0.65300006
-0.2017701 0.08059372 0.65200001
-0.20031922 0.080470107 0.65100002
-0.19917779 0.080470107 0.65100002
-0.19742796 0.08022289 0.64900005
-0.19629005 0.08022289 0.64900005
-0.19515213 0.08022289 0.64900005
-0.19341634 0.079975672 0.64700001
-0.19228193 0.079975672 0.64700001
-0.19114752 0.079975672 0.64700001
-0.18971944 0.079852059 0.64600003
-0.18771099 0.079481229 0.64300001
-0.18687378 0.079604842 0.64400005
-0.18603306 0.079728447 0.64500004
-0.18461548 0.079604842 0.64400005
-0.18377125 0.079728447 0.64500004
-0.18264034 0.079728447 0.64500004
-0.18122804 0.079604842 0.64400005
-0.17953958 0.079357617 0.64200002
-0.17813604 0.079234011 0.64100003
-0.17756444 0.079481229 0.64300001
-0.17643705 0.079481229 0.64300001
-0.1761276 0.079852059 0.64600003
-0.17472404 0.079728447 0.64500004
-0.17332402 0.079604842 0.64400005
-0.17219487 0.079604842 0.64400005
-0.17106572 0.079604842 0.64400005
-0.17020045 0.079728447 0.64500004
-0.16933167 0.079852059 0.64600003
-0.16871975 0.080099277 0.648
-0.1675836 0.080099277 0.648
-0.1667043 0.08022289 0.64900005
-0.16658683 0.080717333 0.65300006
-0.16569526 0.080840938 0.65400004
-0.16505179 0.081088163 0.65600002
-0.16365175 0.08096455 0.65500003
-0.16275141 0.081088163 0.65600002
-0.16160123 0.081088163 0.65600002
-0.16045104 0.081088163 0.65600002
-0.15905802 0.08096455 0.65500003
-0.15863283 0.081335381 0.65800005
-0.15771846 0.081458986 0.65900004
-0.1568006 0.081582598 0.66000003
-0.15611504 0.081829816 0.66200006
-0.15495434 0.081829816 0.66200006
-0.15356131 0.081706211 0.66100001
-0.15309405 0.082077041 0.66400003
-0.15170103 0.081953429 0.66300005
-0.15076563 0.082077041 0.66400003
-0.14982672 0.082200646 0.66500002
-0.14933141 0.082571477 0.66800004
-0.14816017 0.082571477 0.66800004
-0.14742903 0.082818702 0.67000002
-0.19711411 0.11928365 0.96500003
-0.19481462 0.11891282 0.96200007
-0.20665926 0.081862256 0.65300006
-0.20614378 0.082112983 0.65500003
-0.20468238 0.081987619 0.65400004
-0.20322448 0.081862256 0.65300006
-0.2017701 0.081736892 0.65200001
-0.20031922 0.081611529 0.65100002
-0.19917779 0.081611529 0.65100002
-0.19803637 0.081611529 0.65100002
-0.19629005 0.081360802 0.64900005
-0.19515213 0.081360802 0.64900005
-0.19371527 0.081235439 0.648
-0.19257912 0.081235439 0.648
-0.19114752 0.081110075 0.64700001
-0.19001311 0.081110075 0.64700001
-0.18858677 0.080984712 0.64600003
-0.18716395 0.080859348 0.64500004
-0.18603306 0.080859348 0.64500004
-0.18461548 0.080733985 0.64400005
-0.18434109 0.081110075 0.64700001
-0.18264034 0.080859348 0.64500004
-0.18150945 0.080859348 0.64500004
-0.18037856 0.080859348 0.64500004
-0.17869185 0.080608621 0.64300001
-0.17784061 0.080733985 0.64400005
-0.17643705 0.080608621 0.64300001
-0.1761276 0.080984712 0.64600003
-0.17499495 0.080984712 0.64600003
-0.17332402 0.080733985 0.64400005
-0.17246225 0.080859348 0.64500004
-0.17106572 0.080733985 0.64400005
-0.17020045 0.080859348 0.64500004
-0.16933167 0.080984712 0.64600003
-0.16871975 0.081235439 0.648
-0.1675836 0.081235439 0.648
-0.16696116 0.081486166 0.65000004
-0.16658683 0.081862256 0.65300006
-0.16569526 0.081987619 0.65400004
-0.16505179 0.082238346 0.65600002
-0.16365175 0.082112983 0.65500003
-0.16250332 0.082112983 0.65500003
-0.16160123 0.082238346 0.65600002
-0.16045104 0.082238346 0.65600002
-0.15954369 0.08236371 0.65700001
-0.15863283 0.082489073 0.65800005
-0.15747914 0.082489073 0.65800005
-0.15656303 0.082614437 0.65900004
-0.15587923 0.082865164 0.66100001
-0.15472026 0.082865164 0.66100001
-0.15356131 0.082865164 0.66100001
-0.15309405 0.083241254 0.66400003
-0.15192984 0.083241254 0.66400003
-0.15076563 0.083241254 0.66400003
-0.14982672 0.083366618 0.66500002
-0.14933141 0.083742708 0.66800004
-0.14816017 0.083742708 0.66800004
-0.14742903 0.083993435 0.67000002
-0.14603601 0.083868071 0.66900003
-0.19880608 0.12097561 0.96500003
-0.19650133 0.12059952 0.96200007
-0.19481462 0.12059952 0.96200007
-0.20665926 0.083007179 0.65300006
-0.20614378 0.083261415 0.65500003
-0.20530832 0.08338853 0.65600002
-0.20322448 0.083007179 0.65300006
-0.2017701 0.082880065 0.65200001
-0.20062692 0.082880065 0.65200001
-0.19917779 0.08275295 0.65100002
-0.19803637 0.08275295 0.65100002
-0.19719739 0.082880065 0.65200001
-0.19605422 0.082880065 0.65200001
-0.19461212 0.08275295 0.65100002
-0.19287631 0.082498714 0.64900005
-0.19144295 0.0823716 0.648
-0.19001311 0.082244486 0.64700001
-0.18887872 0.082244486 0.64700001
-0.18716395 0.081990249 0.64500004
-0.18632147 0.082117364 0.64600003
-0.18518881 0.082117364 0.64600003
-0.18434109 0.082244486 0.64700001
-0.18264034 0.081990249 0.64500004
-0.18150945 0.081990249 0.64500004
-0.18037856 0.081990249 0.64500004
-0.17841394 0.081608899 0.64200002
-0.17728829 0.081608899 0.64200002
-0.17643705 0.081736013 0.64300001
-0.17585495 0.081990249 0.64500004
-0.17526583 0.082244486 0.64700001
-0.17359315 0.081990249 0.64500004
-0.17246225 0.081990249 0.64500004
-0.17106572 0.081863135 0.64400005
-0.17020045 0.081990249 0.64500004
-0.16906954 0.081990249 0.64500004
-0.16898012 0.082498714 0.64900005
-0.16784221 0.082498714 0.64900005
-0.1674749 0.082880065 0.65200001
-0.16658683 0.083007179 0.65300006
-0.16569526 0.083134301 0.65400004
-0.16454858 0.083134301 0.65400004
-0.1634019 0.083134301 0.65400004
-0.16250332 0.083261415 0.65500003
-0.16135488 0.083261415 0.65500003
-0.16045104 0.08338853 0.65600002
-0.15954369 0.083515652 0.65700001
-0.15887392 0.08376988 0.65900004
-0.15747914 0.083642766 0.65800005
-0.1568006 0.083897002 0.66000003
-0.15587923 0.084024116 0.66100001
-0.15448619 0.083897002 0.66000003
-0.15356131 0.084024116 0.66100001
-0.15309405 0.084405467 0.66400003
-0.15215865 0.084532581 0.66500002
-0.15121974 0.084659703 0.66600001
-0.15027732 0.084786817 0.66700006
-0.14933141 0.084913932 0.66800004
-0.14838196 0.085041046 0.66900003
-0.14742903 0.085168168 0.67000002
-0.14603601 0.085041046 0.66900003
-0.1990121 0.1227947 0.96600002
-0.19670559 0.12241335 0.96300006
-0.19461212 0.12215912 0.96100003
-0.20812242 0.084280983 0.65400004
-0.20697574 0.084280983 0.65400004
-0.20614378 0.084409848 0.65500003
-0.20499535 0.084409848 0.65500003
-0.20322448 0.08415211 0.65300006
-0.20207955 0.08415211 0.65300006
-0.20093463 0.08415211 0.65300006
-0.19917779 0.083894372 0.65100002
-0.19803637 0.083894372 0.65100002
-0.19719739 0.084023237 0.65200001
-0.19605422 0.084023237 0.65200001
-0.19461212 0.083894372 0.65100002
-0.19287631 0.083636627 0.64900005
-0.19144295 0.083507761 0.648
-0.19001311 0.083378889 0.64700001
-0.18887872 0.083378889 0.64700001
-0.18687378 0.082992278 0.64400005
-0.18603306 0.083121151 0.64500004
-0.18461548 0.082992278 0.64400005
-0.18377125 0.083121151 0.64500004
-0.18235719 0.082992278 0.64400005
-0.18094663 0.082863413 0.64300001
-0.17981924 0.082863413 0.64300001
-0.17841394 0.08273454 0.64200002
-0.17728829 0.08273454 0.64200002
-0.17643705 0.082863413 0.64300001
-0.17530966 0.082863413 0.64300001
-0.17445315 0.082992278 0.64400005
-0.17359315 0.083121151 0.64500004
-0.17246225 0.083121151 0.64500004
-0.17133135 0.083121151 0.64500004
-0.17020045 0.083121151 0.64500004
-0.16933167 0.083250016 0.64600003
-0.16898012 0.083636627 0.64900005
-0.16784221 0.083636627 0.64900005
-0.1674749 0.084023237 0.65200001
-0.16658683 0.08415211 0.65300006
-0.16569526 0.084280983 0.65400004
-0.16454858 0.084280983 0.65400004
-0.1634019 0.084280983 0.65400004
-0.16250332 0.084409848 0.65500003
-0.16135488 0.084409848 0.65500003
-0.16045104 0.084538721 0.65600002
-0.15954369 0.084667586 0.65700001
-0.15887392 0.084925331 0.65900004
-0.15747914 0.084796458 0.65800005
-0.1568006 0.085054196 0.66000003
-0.15587923 0.085183069 0.66100001
-0.15448619 0.085054196 0.66000003
-0.15356131 0.085183069 0.66100001
-0.15332462 0.085698552 0.66500002
-0.15215865 0.085698552 0.66500002
-0.15121974 0.085827418 0.66600001
-0.15027732 0.08595629 0.66700006
-0.14933141 0.086085163 0.66800004
-0.14838196 0.086214028 0.66900003
-0.14720899 0.086214028 0.66900003
-0.14647259 0.086471766 0.671
-0.14551264 0.086600639 0.67200005
-0.1990121 0.12448842 0.96600002
-0.19629706 0.12384407 0.96100003
-0.19461212 0.12384407 0.96100003
-0.20875888 0.085688904 0.65600002
-0.20792517 0.085819528 0.65700001
-0.20677322 0.085819528 0.65700001
-0.20499535 0.08555828 0.65500003
-0.20415813 0.085688904 0.65600002
-0.20238902 0.085427657 0.65400004
-0.20093463 0.085297033 0.65300006
-0.19917779 0.085035786 0.65100002
-0.19742796 0.084774546 0.64900005
-0.19629005 0.084774546 0.64900005
-0.19515213 0.084774546 0.64900005
-0.19401422 0.084774546 0.64900005
-0.19287631 0.084774546 0.64900005
-0.19144295 0.084643923 0.648
-0.19001311 0.084513299 0.64700001
-0.18887872 0.084513299 0.64700001
-0.18687378 0.084121428 0.64400005
-0.1854562 0.083990805 0.64300001
-0.18432881 0.083990805 0.64300001
-0.18320142 0.083990805 0.64300001
-0.18150769 0.083729558 0.64100003
-0.18010239 0.083598934 0.64000005
-0.18009889 0.084121428 0.64400005
-0.17869185 0.083990805 0.64300001
-0.17756444 0.083990805 0.64300001
-0.17671145 0.084121428 0.64400005
-0.1755823 0.084121428 0.64400005
-0.17445315 0.084121428 0.64400005
-0.17359315 0.084252052 0.64500004
-0.17272963 0.084382676 0.64600003
-0.17159697 0.084382676 0.64600003
-0.17072821 0.084513299 0.64700001
-0.17011805 0.084774546 0.64900005
-0.16898012 0.084774546 0.64900005
-0.16810083 0.084905162 0.65000004
-0.1674749 0.08516641 0.65200001
-0.16658683 0.085297033 0.65300006
-0.16569526 0.085427657 0.65400004
-0.16454858 0.085427657 0.65400004
-0.16290221 0.08516641 0.65200001
-0.16225521 0.085427657 0.65400004
-0.16110854 0.085427657 0.65400004
-0.16020645 0.08555828 0.65500003
-0.15978652 0.085950151 0.65800005
-0.15887392 0.086080775 0.65900004
-0.15747914 0.085950151 0.65800005
-0.1568006 0.086211398 0.66000003
-0.15587923 0.086342022 0.66100001
-0.15472026 0.086342022 0.66100001
-0.15356131 0.086342022 0.66100001
-0.15355518 0.08699514 0.66600001
-0.15261626 0.087125763 0.66700006
-0.15167385 0.087256387 0.66800004
-0.15072793 0.08738701 0.66900003
-0.1497785 0.087517634 0.67000002
-0.14882556 0.087648258 0.671
-0.14764908 0.087648258 0.671
-0.14669088 0.087778881 0.67200005
-0.14551264 0.087778881 0.67200005
-0.19629706 0.12552902 0.96100003
-0.19461212 0.12552902 0.96100003
-0.20875888 0.086839095 0.65600002
-0.20792517 0.086971469 0.65700001
-0.20677322 0.086971469 0.65700001
-0.20562129 0.086971469 0.65700001
-0.20509179 0.087236226 0.65900004
-0.2033174 0.086971469 0.65700001
-0.20062692 0.086309589 0.65200001
-0.19917779 0.086177208 0.65100002
-0.19742796 0.085912459 0.64900005
-0.19629005 0.085912459 0.64900005
-0.19515213 0.085912459 0.64900005
-0.19371527 0.085780077 0.648
-0.19287631 0.085912459 0.64900005
-0.19144295 0.085780077 0.648
-0.19001311 0.085647702 0.64700001
-0.18887872 0.085647702 0.64700001
-0.18687378 0.085250571 0.64400005
-0.1854562 0.085118197 0.64300001
-0.18404214 0.084985822 0.64200002
-0.18320142 0.085118197 0.64300001
-0.18150769 0.084853441 0.64100003
-0.18010239 0.084721066 0.64000005
-0.18009889 0.085250571 0.64400005
-0.17869185 0.085118197 0.64300001
-0.17756444 0.085118197 0.64300001
-0.17671145 0.085250571 0.64400005
-0.1755823 0.085250571 0.64400005
-0.17445315 0.085250571 0.64400005
-0.17359315 0.085382946 0.64500004
-0.17272963 0.085515328 0.64600003
-0.17159697 0.085515328 0.64600003
-0.17099208 0.085780077 0.648
-0.17064229 0.086177208 0.65100002
-0.1692405 0.086044833 0.65000004
-0.16810083 0.086044833 0.65000004
-0.16773176 0.086441964 0.65300006
-0.16684194 0.086574338 0.65400004
-0.16569526 0.086574338 0.65400004
-0.16429697 0.086441964 0.65300006
-0.16315205 0.086441964 0.65300006
-0.16225521 0.086574338 0.65400004
-0.16110854 0.086574338 0.65400004
-0.16020645 0.086706713 0.65500003
-0.15978652 0.087103844 0.65800005
-0.15887392 0.087236226 0.65900004
-0.15771846 0.087236226 0.65900004
-0.15703818 0.087500975 0.66100001
-0.15587923 0.087500975 0.66100001
-0.15495434 0.087633356 0.66200006
-0.15379363 0.087633356 0.66200006
-0.15355518 0.088162862 0.66600001
-0.15284508 0.088427611 0.66800004
-0.15167385 0.088427611 0.66800004
-0.15050262 0.088427611 0.66800004
-0.14955495 0.088559993 0.66900003
-0.14882556 0.088824742 0.671
-0.14786913 0.088957116 0.67200005
-0.14669088 0.088957116 0.67200005
-0.14551264 0.088957116 0.67200005
-0.19629706 0.12721397 0.96100003
-0.19461212 0.12721397 0.96100003
-0.20875888 0.087989278 0.65600002
-0.20792517 0.088123411 0.65700001
-0.20677322 0.088123411 0.65700001
-0.20593426 0.088257536 0.65800005
-0.20509179 0.088391669 0.65900004
-0.2033174 0.088123411 0.65700001
-0.20093463 0.087586887 0.65300006
-0.19917779 0.087318629 0.65100002
-0.19742796 0.087050371 0.64900005
-0.19629005 0.087050371 0.64900005
-0.19575353 0.087318629 0.65100002
-0.19371527 0.086916238 0.648
-0.19347069 0.087318629 0.65100002
-0.1917384 0.087050371 0.64900005
-0.19060048 0.087050371 0.64900005
-0.18887872 0.086782113 0.64700001
-0.18745412 0.08664798 0.64600003
-0.18574463 0.086379722 0.64400005
-0.18461548 0.086379722 0.64400005
-0.18377125 0.086513847 0.64500004
-0.18207403 0.086245589 0.64300001
-0.18094663 0.086245589 0.64300001
-0.18009889 0.086379722 0.64400005
-0.17869185 0.086245589 0.64300001
-0.17756444 0.086245589 0.64300001
-0.17671145 0.086379722 0.64400005
-0.1755823 0.086379722 0.64400005
-0.17472404 0.086513847 0.64500004
-0.17359315 0.086513847 0.64500004
-0.17246225 0.086513847 0.64500004
-0.17159697 0.08664798 0.64600003
-0.17046432 0.08664798 0.64600003
-0.16985592 0.086916238 0.648
-0.1692405 0.087184496 0.65000004
-0.16810083 0.087184496 0.65000004
-0.16721803 0.087318629 0.65100002
-0.16633172 0.087452762 0.65200001
-0.16518855 0.087452762 0.65200001
-0.16404538 0.087452762 0.65200001
-0.16290221 0.087452762 0.65200001
-0.16225521 0.08772102 0.65400004
-0.16110854 0.08772102 0.65400004
-0.16020645 0.087855153 0.65500003
-0.15978652 0.088257536 0.65800005
-0.15863283 0.088257536 0.65800005
-0.15771846 0.088391669 0.65900004
-0.1568006 0.088525802 0.66000003
-0.15587923 0.088659927 0.66100001
-0.15448619 0.088525802 0.66000003
-0.15379363 0.08879406 0.66200006
-0.15355518 0.089330576 0.66600001
-0.15261626 0.089464709 0.66700006
-0.15167385 0.089598842 0.66800004
-0.15050262 0.089598842 0.66800004
-0.1497785 0.0898671 0.67000002
-0.14860377 0.0898671 0.67000002
-0.14786913 0.090135358 0.67200005
-0.14690916 0.090269491 0.67300004
-0.14572917 0.090269491 0.67300004
