# .PCD v0.7 - Point Cloud Data file format
VERSION 0.7
FIELDS x y z
SIZE 4 4 4
TYPE F F F
COUNT 1 1 1
WIDTH 1599
HEIGHT 1
VIEWPOINT 0 0 0 1 0 0 0
POINTS 1599
DATA ascii
0.15357709 0.30807382 1.049
0.15526819 0.30778012 1.0480001
0.15710568 0.30778012 1.0480001
0.15894318 0.30778012 1.0480001
0.16062725 0.30748644 1.0470001
0.16246299 0.30748644 1.0470001
0.16445565 0.30778012 1.0480001
0.16724521 0.30954224 1.054
0.16957451 0.31042328 1.057
0.17158997 0.31071696 1.0580001
0.17410074 0.3118917 1.062
0.10787383 0.31611723 1.0700001
0.10954476 0.31552637 1.0680001
0.11141732 0.31552637 1.0680001
0.11297165 0.31464005 1.0650001
0.11483895 0.31464005 1.0650001
0.11615833 0.31316286 1.0600001
0.11790553 0.31286743 1.059
0.11930995 0.31168568 1.0550001
0.12070034 0.31050393 1.051
0.12265969 0.31079936 1.052
0.12462255 0.31109482 1.0530001
0.12646881 0.31109482 1.0530001
0.12794951 0.3102085 1.0500001
0.12966689 0.30991307 1.049
0.13163149 0.3102085 1.0500001
0.1334725 0.3102085 1.0500001
0.13518463 0.30991307 1.049
0.13689326 0.30961764 1.0480001
0.13873075 0.30961764 1.0480001
0.14070237 0.30991307 1.049
0.14254162 0.30991307 1.049
0.14396796 0.30902675 1.046
0.14580193 0.30902675 1.046
0.14805935 0.30991307 1.049
0.1498986 0.30991307 1.049
0.15173785 0.30991307 1.049
0.15343069 0.30961764 1.0480001
0.15512003 0.30932218 1.0470001
0.15710568 0.30961764 1.0480001
0.15879151 0.30932218 1.0470001
0.1610875 0.3102085 1.0500001
0.16308367 0.31050393 1.051
0.16492642 0.31050393 1.051
0.16724521 0.31139025 1.054
0.16957451 0.31227654 1.057
0.17142779 0.31227654 1.057
0.1739368 0.31345829 1.0610001
0.10787383 0.31799328 1.0700001
0.10954476 0.31739891 1.0680001
0.11141732 0.31739891 1.0680001
0.11297165 0.31650734 1.0650001
0.11483895 0.31650734 1.0650001
0.11626792 0.31531858 1.0610001
0.11790553 0.31472421 1.059
0.11942304 0.31383264 1.056
0.12070034 0.3123467 1.051
0.12265969 0.31264389 1.052
0.1245042 0.31264389 1.052
0.12646881 0.31294107 1.0530001
0.12782764 0.31175232 1.049
0.12966689 0.31175232 1.049
0.13150613 0.31175232 1.049
0.13334538 0.31175232 1.049
0.13518463 0.31175232 1.049
0.13689326 0.31145513 1.0480001
0.13873075 0.31145513 1.0480001
0.14056824 0.31145513 1.0480001
0.14254162 0.31175232 1.049
0.14383031 0.31056353 1.0450001
0.14580193 0.31086072 1.046
0.14805935 0.31175232 1.049
0.1498986 0.31175232 1.049
0.15159319 0.31145513 1.0480001
0.15343069 0.31145513 1.0480001
0.15512003 0.31115794 1.0470001
0.15710568 0.31145513 1.0480001
0.15894318 0.31145513 1.0480001
0.16124092 0.3123467 1.051
0.16308367 0.3123467 1.051
0.16492642 0.3123467 1.051
0.16724521 0.31323826 1.054
0.16957451 0.31412983 1.057
0.17142779 0.31412983 1.057
0.17442861 0.31621015 1.064
0.10787383 0.31986937 1.0700001
0.10954476 0.31927148 1.0680001
0.11141732 0.31927148 1.0680001
0.11286557 0.31807572 1.064
0.11494678 0.31867358 1.0660001
0.11626792 0.31717888 1.0610001
0.11757152 0.31568417 1.056
0.11942304 0.31568417 1.056
0.12081519 0.31448838 1.052
0.12265969 0.31448838 1.052
0.1245042 0.31448838 1.052
0.12646881 0.31478733 1.0530001
0.12794951 0.31389049 1.0500001
0.1297905 0.31389049 1.0500001
0.13163149 0.31389049 1.0500001
0.1334725 0.31389049 1.0500001
0.13479802 0.31269473 1.046
0.13650139 0.31239578 1.0450001
0.13846599 0.31269473 1.046
0.14029998 0.31269473 1.046
0.14213397 0.31269473 1.046
0.14396796 0.31269473 1.046
0.14580193 0.31269473 1.046
0.14805935 0.31359154 1.049
0.1498986 0.31359154 1.049
0.15159319 0.31329262 1.0480001
0.15343069 0.31329262 1.0480001
0.15526819 0.31329262 1.0480001
0.15710568 0.31329262 1.0480001
0.15894318 0.31329262 1.0480001
0.16124092 0.31418943 1.051
0.16308367 0.31418943 1.051
0.16492642 0.31418943 1.051
0.16676918 0.31418943 1.051
0.16957451 0.31598309 1.057
0.17142779 0.31598309 1.057
0.1739368 0.31717888 1.0610001
0.10787383 0.32174543 1.0700001
0.10954476 0.32114404 1.0680001
0.11141732 0.32114404 1.0680001
0.11286557 0.31994125 1.064
0.11494678 0.32054263 1.0660001
0.1163775 0.31933987 1.062
0.11757152 0.31753567 1.056
0.11953613 0.31783637 1.057
0.12081519 0.31633288 1.052
0.12265969 0.31633288 1.052
0.12462255 0.31663358 1.0530001
0.1261085 0.3157315 1.0500001
0.12794951 0.3157315 1.0500001
0.1297905 0.3157315 1.0500001
0.1312554 0.31482941 1.0470001
0.13309115 0.31482941 1.0470001
0.13492689 0.31482941 1.0470001
0.13610952 0.31332591 1.0420001
0.13793649 0.31332591 1.0420001
0.14043412 0.31482941 1.0470001
0.14226985 0.31482941 1.0470001
0.14410558 0.31482941 1.0470001
0.14594133 0.31482941 1.0470001
0.14763592 0.3145287 1.046
0.1498986 0.31543079 1.049
0.15159319 0.31513011 1.0480001
0.15357709 0.31543079 1.049
0.1555645 0.3157315 1.0500001
0.1574055 0.3157315 1.0500001
0.1592465 0.3157315 1.0500001
0.16093408 0.31543079 1.049
0.16323884 0.31633288 1.052
0.16492642 0.3160322 1.051
0.16676918 0.3160322 1.051
0.16909322 0.31693429 1.054
0.17142779 0.31783637 1.057
0.1739368 0.31903917 1.0610001
0.1050948 0.326646 1.08
0.10629495 0.32452884 1.0730001
0.10777301 0.32331905 1.069
0.10964733 0.32331905 1.069
0.11152164 0.32331905 1.069
0.11339596 0.32331905 1.069
0.11483895 0.32210925 1.0650001
0.11626792 0.32089946 1.0610001
0.1181282 0.32089946 1.0610001
0.11953613 0.31968966 1.057
0.12104487 0.3187823 1.054
0.12289289 0.3187823 1.054
0.1247409 0.3187823 1.054
0.1261085 0.3175725 1.0500001
0.12794951 0.3175725 1.0500001
0.1297905 0.3175725 1.0500001
0.1312554 0.31666514 1.0470001
0.13309115 0.31666514 1.0470001
0.13492689 0.31666514 1.0470001
0.13610952 0.31515288 1.0420001
0.13793649 0.31515288 1.0420001
0.14029998 0.31636271 1.046
0.14226985 0.31666514 1.0470001
0.14410558 0.31666514 1.0470001
0.14594133 0.31666514 1.0470001
0.14777707 0.31666514 1.0470001
0.1498986 0.31727004 1.049
0.15173785 0.31727004 1.049
0.15372349 0.3175725 1.0500001
0.1555645 0.3175725 1.0500001
0.1574055 0.3175725 1.0500001
0.1592465 0.3175725 1.0500001
0.1610875 0.3175725 1.0500001
0.16277333 0.31727004 1.049
0.16445565 0.31696761 1.0480001
0.16676918 0.31787494 1.051
0.16909322 0.3187823 1.054
0.17142779 0.31968966 1.057
0.17328106 0.31968966 1.057
0.1050948 0.32853961 1.08
0.10619589 0.32610598 1.072
0.10807546 0.32610598 1.072
0.10964733 0.32519338 1.069
0.11152164 0.32519338 1.069
0.11350203 0.32549757 1.0700001
0.11505461 0.32458496 1.067
0.1163775 0.32306394 1.062
0.11823954 0.32306394 1.062
0.11964922 0.32184711 1.0580001
0.12104487 0.32063031 1.054
0.12289289 0.32063031 1.054
0.1247409 0.32063031 1.054
0.12646881 0.32032612 1.0530001
0.12794951 0.31941348 1.0500001
0.1297905 0.31941348 1.0500001
0.1312554 0.31850088 1.0470001
0.13321826 0.3188051 1.0480001
0.13441141 0.31728408 1.0430001
0.13624014 0.31728408 1.0430001
0.13806887 0.31728408 1.0430001
0.13989758 0.31728408 1.0430001
0.14226985 0.31850088 1.0470001
0.14410558 0.31850088 1.0470001
0.14608072 0.3188051 1.0480001
0.14791821 0.3188051 1.0480001
0.14961281 0.31850088 1.0470001
0.1518825 0.31941348 1.0500001
0.15372349 0.31941348 1.0500001
0.1555645 0.31941348 1.0500001
0.15695576 0.31850088 1.0470001
0.15879151 0.31850088 1.0470001
0.1610875 0.31941348 1.0500001
0.16277333 0.31910929 1.049
0.16445565 0.3188051 1.0480001
0.16676918 0.31971771 1.051
0.16909322 0.32063031 1.054
0.17142779 0.32154292 1.057
0.17328106 0.32154292 1.057
0.10377454 0.33226892 1.0860001
0.10499749 0.33012724 1.079
0.10649309 0.32890341 1.075
0.10797465 0.32767957 1.0710001
0.10964733 0.32706767 1.069
0.11152164 0.32706767 1.069
0.11350203 0.32737362 1.0700001
0.11505461 0.32645577 1.067
0.1163775 0.32492599 1.062
0.11823954 0.32492599 1.062
0.11919686 0.32247832 1.054
0.12104487 0.32247832 1.054
0.12289289 0.32247832 1.054
0.1247409 0.32247832 1.054
0.12646881 0.32217237 1.0530001
0.12794951 0.32125449 1.0500001
0.1297905 0.32125449 1.0500001
0.1312554 0.32033664 1.0470001
0.13309115 0.32033664 1.0470001
0.13441141 0.31911281 1.0430001
0.13624014 0.31911281 1.0430001
0.13806887 0.31911281 1.0430001
0.14003173 0.31941876 1.044
0.14226985 0.32033664 1.0470001
0.14410558 0.32033664 1.0470001
0.14608072 0.32064259 1.0480001
0.14791821 0.32064259 1.0480001
0.1497557 0.32064259 1.0480001
0.1513039 0.32003066 1.046
0.15372349 0.32125449 1.0500001
0.1555645 0.32125449 1.0500001
0.15695576 0.32033664 1.0470001
0.15879151 0.32033664 1.0470001
0.1610875 0.32125449 1.0500001
0.16277333 0.32094854 1.049
0.16445565 0.32064259 1.0480001
0.16676918 0.32156044 1.051
0.16861193 0.32156044 1.051
0.17094123 0.32247832 1.054
0.17328106 0.32339621 1.057
0.10318366 0.33848101 1.1
0.10367898 0.33386534 1.085
0.10528942 0.33294222 1.082
0.10718653 0.33294222 1.082
0.10837792 0.33078825 1.075
0.10954476 0.32863429 1.0680001
0.11152164 0.328942 1.069
0.11350203 0.32924971 1.0700001
0.11505461 0.32832655 1.067
0.11626792 0.3264803 1.0610001
0.1181282 0.3264803 1.0610001
0.11919686 0.32432634 1.054
0.12104487 0.32432634 1.054
0.1225431 0.32340321 1.051
0.12438585 0.32340321 1.051
0.12646881 0.32401863 1.0530001
0.12831508 0.32401863 1.0530001
0.1297905 0.3230955 1.0500001
0.13138077 0.32248008 1.0480001
0.13309115 0.32217237 1.0470001
0.13441141 0.32094154 1.0430001
0.13624014 0.32094154 1.0430001
0.13806887 0.32094154 1.0430001
0.14016585 0.32155696 1.0450001
0.14172632 0.32094154 1.0430001
0.14410558 0.32217237 1.0470001
0.14608072 0.32248008 1.0480001
0.14791821 0.32248008 1.0480001
0.1497557 0.32248008 1.0480001
0.15144855 0.32217237 1.0470001
0.1532843 0.32217237 1.0470001
0.15512003 0.32217237 1.0470001
0.15695576 0.32217237 1.0470001
0.15879151 0.32217237 1.0470001
0.16093408 0.32278779 1.049
0.16277333 0.32278779 1.049
0.16445565 0.32248008 1.0480001
0.16676918 0.32340321 1.051
0.16861193 0.32340321 1.051
0.17094123 0.32432634 1.054
0.101255 0.34040967 1.1
0.10290226 0.33948126 1.097
0.10358343 0.33545825 1.0840001
0.10528942 0.33483931 1.082
0.10718653 0.33483931 1.082
0.10878118 0.33391094 1.079
0.10954476 0.33050683 1.0680001
0.11152164 0.3308163 1.069
0.11350203 0.33112577 1.0700001
0.11494678 0.3298879 1.0660001
0.11670625 0.32957846 1.0650001
0.11857355 0.32957846 1.0650001
0.11964922 0.32741222 1.0580001
0.1213894 0.32710275 1.057
0.1225431 0.32524595 1.051
0.12438585 0.32524595 1.051
0.12646881 0.32586488 1.0530001
0.12843692 0.32617435 1.054
0.1299141 0.32524595 1.051
0.13138077 0.32431757 1.0480001
0.13321826 0.32431757 1.0480001
0.13441141 0.32277027 1.0430001
0.13624014 0.32277027 1.0430001
0.13806887 0.32277027 1.0430001
0.14016585 0.32338917 1.0450001
0.1418622 0.32307971 1.044
0.14369267 0.32307971 1.044
0.14566255 0.32338917 1.0450001
0.14749478 0.32338917 1.0450001
0.1498986 0.32462704 1.049
0.15159319 0.32431757 1.0480001
0.1532843 0.32400811 1.0470001
0.15512003 0.32400811 1.0470001
0.15620622 0.3224608 1.0420001
0.15803319 0.3224608 1.0420001
0.16032042 0.32338917 1.0450001
0.16215265 0.32338917 1.0450001
0.16445565 0.32431757 1.0480001
0.16629314 0.32431757 1.0480001
0.16861193 0.32524595 1.051
0.17094123 0.32617435 1.054
0.1008868 0.34109345 1.0960001
0.10280845 0.34109345 1.0960001
0.10396565 0.33860373 1.0880001
0.10548404 0.33735886 1.0840001
0.10708746 0.33642522 1.0810001
0.10868037 0.33549157 1.0780001
0.10985247 0.33331305 1.0710001
0.11152164 0.33269063 1.069
0.11328988 0.3323794 1.0680001
0.11483895 0.33144575 1.0650001
0.11659667 0.33113453 1.064
0.11846221 0.33113453 1.064
0.11953613 0.32895601 1.057
0.1213894 0.32895601 1.057
0.12324268 0.32895601 1.057
0.1247409 0.32802236 1.054
0.12646881 0.32771114 1.0530001
0.12843692 0.32802236 1.054
0.1299141 0.32708871 1.051
0.13175686 0.32708871 1.051
0.13321826 0.32615507 1.0480001
0.13441141 0.32459897 1.0430001
0.13624014 0.32459897 1.0430001
0.13806887 0.32459897 1.0430001
0.14016585 0.32522142 1.0450001
0.1418622 0.32491019 1.044
0.14369267 0.32491019 1.044
0.14566255 0.32522142 1.0450001
0.14749478 0.32522142 1.0450001
0.1498986 0.32646629 1.049
0.15159319 0.32615507 1.0480001
0.1532843 0.32584384 1.0470001
0.15512003 0.32584384 1.0470001
0.15620622 0.32428777 1.0420001
0.15803319 0.32428777 1.0420001
0.15970674 0.32397655 1.041
0.16215265 0.32522142 1.0450001
0.16445565 0.32615507 1.0480001
0.16629314 0.32615507 1.0480001
0.16829106 0.32646629 1.049
0.17061687 0.32739994 1.052
0.17295319 0.32833359 1.0550001
0.1008868 0.3430151 1.0960001
0.10271465 0.34270215 1.095
0.10358343 0.33925948 1.0840001
0.10548404 0.33925948 1.0840001
0.10708746 0.33832055 1.0810001
0.10857955 0.33706868 1.077
0.10985247 0.33519086 1.0710001
0.11152164 0.33456492 1.069
0.1131838 0.33393899 1.067
0.11473112 0.33300006 1.064
0.11659667 0.33300006 1.064
0.11835088 0.33268711 1.0630001
0.1198754 0.33174819 1.0600001
0.1213894 0.3308093 1.057
0.12312608 0.33049631 1.056
0.12462255 0.32955742 1.0530001
0.1263487 0.32924443 1.052
0.12843692 0.32987037 1.054
0.1299141 0.32893148 1.051
0.13163149 0.3286185 1.0500001
0.13309115 0.32767957 1.0470001
0.13492689 0.32767957 1.0470001
0.13624014 0.3264277 1.0430001
0.13806887 0.3264277 1.0430001
0.14003173 0.32674068 1.044
0.14199808 0.32705364 1.0450001
0.14383031 0.32705364 1.0450001
0.14566255 0.32705364 1.0450001
0.14749478 0.32705364 1.0450001
0.14932701 0.32705364 1.0450001
0.15159319 0.32799256 1.0480001
0.1532843 0.32767957 1.0470001
0.15512003 0.32767957 1.0470001
0.15620622 0.32611474 1.0420001
0.15803319 0.32611474 1.0420001
0.15970674 0.32580176 1.041
0.16215265 0.32705364 1.0450001
0.16445565 0.32799256 1.0480001
0.16629314 0.32799256 1.0480001
0.16829106 0.32830554 1.049
0.17045468 0.32893148 1.051
0.17278925 0.32987037 1.054
0.10271465 0.34462205 1.095
0.10358343 0.34116009 1.0840001
0.10548404 0.34116009 1.0840001
0.1069884 0.33990121 1.08
0.10857955 0.33895704 1.077
0.10985247 0.33706868 1.0710001
0.11131299 0.3358098 1.067
0.1131838 0.3358098 1.067
0.11473112 0.33486563 1.064
0.1163775 0.33423617 1.062
0.11823954 0.33423617 1.062
0.11976231 0.33329201 1.059
0.12150425 0.33297729 1.0580001
0.12335927 0.33297729 1.0580001
0.12438585 0.33077422 1.051
0.12586829 0.32983005 1.0480001
0.12794951 0.33045951 1.0500001
0.1297905 0.33045951 1.0500001
0.13113004 0.3292006 1.046
0.13309115 0.32951534 1.0470001
0.13492689 0.32951534 1.0470001
0.13624014 0.32825643 1.0430001
0.13806887 0.32825643 1.0430001
0.14003173 0.32857117 1.044
0.1418622 0.32857117 1.044
0.14369267 0.32857117 1.044
0.14552316 0.32857117 1.044
0.14721249 0.32825643 1.0430001
0.14904122 0.32825643 1.0430001
0.15086995 0.32825643 1.0430001
0.15255228 0.32794172 1.0420001
0.15437925 0.32794172 1.0420001
0.15620622 0.32794172 1.0420001
0.15788153 0.32762697 1.041
0.15970674 0.32762697 1.041
0.16215265 0.32888588 1.0450001
0.16445565 0.32983005 1.0480001
0.16629314 0.32983005 1.0480001
0.16813064 0.32983005 1.0480001
0.17061687 0.33108893 1.052
0.17295319 0.33203313 1.0550001
0.10308986 0.34780785 1.0990001
0.10377454 0.34369364 1.0860001
0.10558135 0.34337717 1.085
0.10718653 0.34242776 1.082
0.10878118 0.34147832 1.079
0.10995504 0.33926299 1.072
0.11141732 0.33799708 1.0680001
0.11307772 0.33736414 1.0660001
0.11462329 0.33641469 1.0630001
0.11626792 0.33578175 1.0610001
0.1181282 0.33578175 1.0610001
0.11953613 0.33451584 1.057
0.12127456 0.33419937 1.056
0.12277629 0.33324993 1.0530001
0.1242675 0.33230048 1.0500001
0.12574819 0.33135107 1.0470001
0.12770578 0.33166754 1.0480001
0.12941967 0.33135107 1.0470001
0.13100468 0.3307181 1.0450001
0.13296403 0.3310346 1.046
0.13492689 0.33135107 1.0470001
0.13676263 0.33135107 1.0470001
0.13846599 0.3310346 1.046
0.14043412 0.33135107 1.0470001
0.14240573 0.33166754 1.0480001
0.14369267 0.33040163 1.044
0.14538378 0.33008516 1.0430001
0.14721249 0.33008516 1.0430001
0.14904122 0.33008516 1.0430001
0.15086995 0.33008516 1.0430001
0.15240587 0.32945222 1.041
0.15423109 0.32945222 1.041
0.15605631 0.32945222 1.041
0.15788153 0.32945222 1.041
0.15970674 0.32945222 1.041
0.16215265 0.3307181 1.0450001
0.16445565 0.33166754 1.0480001
0.16629314 0.33166754 1.0480001
0.16813064 0.33166754 1.0480001
0.17077905 0.33324993 1.0530001
0.17328106 0.33451584 1.057
0.10355888 0.35132593 1.1040001
0.10444344 0.34782538 1.0930001
0.10597059 0.34655246 1.0890001
0.10748371 0.34527954 1.085
0.10908363 0.34432486 1.082
0.10995504 0.34114257 1.072
0.11141732 0.33986965 1.0680001
0.11307772 0.33923319 1.0660001
0.11462329 0.3382785 1.0630001
0.11615833 0.33732378 1.0600001
0.11801687 0.33732378 1.0600001
0.11942304 0.33605087 1.056
0.12127456 0.33605087 1.056
0.12277629 0.33509618 1.0530001
0.1242675 0.33414149 1.0500001
0.12562808 0.33286858 1.046
0.12746207 0.33286858 1.046
0.12929606 0.33286858 1.046
0.13100468 0.33255035 1.0450001
0.13296403 0.33286858 1.046
0.13505577 0.33350503 1.0480001
0.13689326 0.33350503 1.0480001
0.13859837 0.33318681 1.0470001
0.14056824 0.33350503 1.0480001
0.14240573 0.33350503 1.0480001
0.14369267 0.33223212 1.044
0.14552316 0.33223212 1.044
0.14735363 0.33223212 1.044
0.14889832 0.33159566 1.0420001
0.15072531 0.33159566 1.0420001
0.15240587 0.33127743 1.041
0.15423109 0.33127743 1.041
0.15605631 0.33127743 1.041
0.15788153 0.33127743 1.041
0.15955333 0.3309592 1.0400001
0.16215265 0.33255035 1.0450001
0.16445565 0.33350503 1.0480001
0.16645183 0.33382326 1.049
0.1684515 0.33414149 1.0500001
0.17142779 0.3363691 1.057
0.17344499 0.33668733 1.0580001
0.10597059 0.34846184 1.0890001
0.10748371 0.34718192 1.085
0.10908363 0.34622195 1.082
0.10985247 0.34270215 1.0710001
0.11141732 0.34174219 1.0680001
0.1131838 0.3414222 1.067
0.11483895 0.34078225 1.0650001
0.11626792 0.3395023 1.0610001
0.11768286 0.33822238 1.057
0.11942304 0.3379024 1.056
0.12127456 0.3379024 1.056
0.12277629 0.33694243 1.0530001
0.12391245 0.33502254 1.0470001
0.12526777 0.33374262 1.0430001
0.12721837 0.33406261 1.044
0.12904884 0.33406261 1.044
0.13100468 0.33438259 1.0450001
0.13296403 0.33470255 1.046
0.13492689 0.33502254 1.0470001
0.13676263 0.33502254 1.0470001
0.13846599 0.33470255 1.046
0.14043412 0.33502254 1.0470001
0.14226985 0.33502254 1.0470001
0.14355505 0.33374262 1.0430001
0.14538378 0.33374262 1.0430001
0.14721249 0.33374262 1.0430001
0.14889832 0.33342263 1.0420001
0.15072531 0.33342263 1.0420001
0.15240587 0.33310264 1.041
0.15423109 0.33310264 1.041
0.15605631 0.33310264 1.041
0.15788153 0.33310264 1.041
0.15970674 0.33310264 1.041
0.16215265 0.33438259 1.0450001
0.16445565 0.33534253 1.0480001
0.16645183 0.33566251 1.049
0.1684515 0.3359825 1.0500001
0.17158997 0.33854237 1.0580001
0.17344499 0.33854237 1.0580001
0.10837792 0.34586692 1.075
0.10985247 0.34457996 1.0710001
0.11141732 0.34361476 1.0680001
0.11328988 0.34361476 1.0680001
0.11451546 0.34168434 1.062
0.11648709 0.34200609 1.0630001
0.11779419 0.34039739 1.0580001
0.11953613 0.34007564 1.057
0.12127456 0.33975393 1.056
0.1224265 0.33782351 1.0500001
0.12391245 0.3368583 1.0470001
0.12490746 0.33460614 1.0400001
0.1268528 0.33492786 1.041
0.12917244 0.33621481 1.0450001
0.13113004 0.33653656 1.046
0.13309115 0.3368583 1.0470001
0.13492689 0.3368583 1.0470001
0.13676263 0.3368583 1.0470001
0.13846599 0.33653656 1.046
0.14029998 0.33653656 1.046
0.14213397 0.33653656 1.046
0.1434174 0.3352496 1.0420001
0.14524437 0.3352496 1.0420001
0.14707135 0.3352496 1.0420001
0.14875543 0.33492786 1.041
0.15058064 0.33492786 1.041
0.15240587 0.33492786 1.041
0.15423109 0.33492786 1.041
0.15605631 0.33492786 1.041
0.15788153 0.33492786 1.041
0.15970674 0.33492786 1.041
0.16230781 0.33653656 1.046
0.16461258 0.33750176 1.049
0.16661049 0.33782351 1.0500001
0.1684515 0.33782351 1.0500001
0.17110342 0.33943218 1.0550001
0.17278925 0.33911043 1.054
0.10837792 0.34775174 1.075
0.10964733 0.3458108 1.069
0.11152164 0.3458108 1.069
0.11328988 0.34548733 1.0680001
0.11473112 0.34419337 1.064
0.11648709 0.34386986 1.0630001
0.11779419 0.3422524 1.0580001
0.11930995 0.34128195 1.0550001
0.12093003 0.34063497 1.0530001
0.1224265 0.33966449 1.0500001
0.1235574 0.33772355 1.044
0.12502757 0.3367531 1.041
0.12697464 0.33707657 1.0420001
0.12880161 0.33707657 1.0420001
0.13075395 0.33740008 1.0430001
0.1327098 0.33772355 1.044
0.13441141 0.33740008 1.0430001
0.13624014 0.33740008 1.0430001
0.13846599 0.33837053 1.046
0.14029998 0.33837053 1.046
0.14199808 0.33804706 1.0450001
0.14327978 0.3367531 1.041
0.14510499 0.3367531 1.041
0.14707135 0.33707657 1.0420001
0.14875543 0.3367531 1.041
0.15058064 0.3367531 1.041
0.15240587 0.3367531 1.041
0.15423109 0.3367531 1.041
0.15605631 0.3367531 1.041
0.15788153 0.3367531 1.041
0.15970674 0.3367531 1.041
0.16230781 0.33837053 1.046
0.1647695 0.33966449 1.0500001
0.16661049 0.33966449 1.0500001
0.16877235 0.34031147 1.052
0.17110342 0.34128195 1.0550001
0.17295319 0.34128195 1.0550001
0.10787383 0.34801036 1.0700001
0.10985247 0.34833559 1.0710001
0.11162597 0.34801036 1.0700001
0.1131838 0.34703463 1.067
0.11473112 0.34605891 1.064
0.11626792 0.34508318 1.0610001
0.11757152 0.34345695 1.056
0.11942304 0.34345695 1.056
0.12081519 0.34215599 1.052
0.12265969 0.34215599 1.052
0.1237941 0.34020454 1.046
0.12514767 0.33890355 1.0420001
0.1270965 0.33922881 1.0430001
0.12904884 0.33955404 1.044
0.13100468 0.33987927 1.0450001
0.13283692 0.33987927 1.0450001
0.13454027 0.33955404 1.044
0.13624014 0.33922881 1.0430001
0.13806887 0.33922881 1.0430001
0.14043412 0.34052977 1.0470001
0.14226985 0.34052977 1.0470001
0.1434174 0.33890355 1.0420001
0.14524437 0.33890355 1.0420001
0.14735363 0.33955404 1.044
0.14904122 0.33922881 1.0430001
0.15058064 0.33857831 1.041
0.15255228 0.33890355 1.0420001
0.15423109 0.33857831 1.041
0.15605631 0.33857831 1.041
0.15788153 0.33857831 1.041
0.16047384 0.34020454 1.046
0.16292849 0.3415055 1.0500001
0.16492642 0.34183073 1.051
0.16676918 0.34183073 1.051
0.16861193 0.34183073 1.051
0.17077905 0.34248123 1.0530001
0.17246138 0.34215599 1.052
0.10787383 0.34988642 1.0700001
0.1097499 0.34988642 1.0700001
0.11162597 0.34988642 1.0700001
0.1131838 0.34890544 1.067
0.11483895 0.34825146 1.0650001
0.1163775 0.34727046 1.062
0.11779419 0.34596246 1.0580001
0.11930995 0.34498149 1.0550001
0.12104487 0.34465447 1.054
0.12289289 0.34465447 1.054
0.12391245 0.3423655 1.0470001
0.12526777 0.34105751 1.0430001
0.12721837 0.34138453 1.044
0.12917244 0.34171152 1.0450001
0.13113004 0.34203851 1.046
0.13296403 0.34203851 1.046
0.13466915 0.34171152 1.0450001
0.13624014 0.34105751 1.0430001
0.13793649 0.34073052 1.0420001
0.14043412 0.3423655 1.0470001
0.14226985 0.3423655 1.0470001
0.1434174 0.34073052 1.0420001
0.14524437 0.34073052 1.0420001
0.14721249 0.34105751 1.0430001
0.14904122 0.34105751 1.0430001
0.15086995 0.34105751 1.0430001
0.15255228 0.34073052 1.0420001
0.15437925 0.34073052 1.0420001
0.15635613 0.34105751 1.0430001
0.15818486 0.34105751 1.0430001
0.16078067 0.34269249 1.0480001
0.16308367 0.3436735 1.051
0.16492642 0.3436735 1.051
0.16692786 0.34400049 1.052
0.16877235 0.34400049 1.052
0.17077905 0.34432748 1.0530001
0.1726253 0.34432748 1.0530001
0.10944219 0.35077626 1.067
0.11131299 0.35077626 1.067
0.1131838 0.35077626 1.067
0.11494678 0.35044751 1.0660001
0.11659667 0.34979001 1.064
0.11801687 0.34847501 1.0600001
0.11953613 0.34748876 1.057
0.12104487 0.34650248 1.054
0.1225431 0.34551623 1.051
0.12438585 0.34551623 1.051
0.12538788 0.34321499 1.044
0.12746207 0.34387249 1.046
0.12929606 0.34387249 1.046
0.13075395 0.34288624 1.0430001
0.1327098 0.34321499 1.044
0.13441141 0.34288624 1.0430001
0.13610952 0.34255749 1.0420001
0.13793649 0.34255749 1.0420001
0.14056824 0.34452999 1.0480001
0.14226985 0.34420124 1.0470001
0.1434174 0.34255749 1.0420001
0.14538378 0.34288624 1.0430001
0.14749478 0.34354374 1.0450001
0.14932701 0.34354374 1.0450001
0.1510146 0.34321499 1.044
0.15284508 0.34321499 1.044
0.15467556 0.34321499 1.044
0.15650603 0.34321499 1.044
0.15894318 0.34452999 1.0480001
0.16093408 0.34485874 1.049
0.16308367 0.34551623 1.051
0.16524027 0.34617373 1.0530001
0.16708653 0.34617373 1.0530001
0.1689328 0.34617373 1.0530001
0.17045468 0.34551623 1.051
0.17229743 0.34551623 1.051
0.10954476 0.35297754 1.0680001
0.11131299 0.35264707 1.067
0.11307772 0.35231656 1.0660001
0.11462329 0.35132504 1.0630001
0.11659667 0.35165554 1.064
0.1181282 0.35066402 1.0610001
0.11964922 0.34967253 1.0580001
0.1213894 0.34934202 1.057
0.12277629 0.34802002 1.0530001
0.1245042 0.34768951 1.052
0.12562808 0.34570649 1.046
0.1270965 0.34471497 1.0430001
0.12892523 0.34471497 1.0430001
0.13075395 0.34471497 1.0430001
0.13258268 0.34471497 1.0430001
0.13454027 0.34504548 1.044
0.13624014 0.34471497 1.0430001
0.13793649 0.34438446 1.0420001
0.14070237 0.34669799 1.049
0.14226985 0.346037 1.0470001
0.14410558 0.346037 1.0470001
0.14552316 0.34504548 1.044
0.14749478 0.34537598 1.0450001
0.14932701 0.34537598 1.0450001
0.1510146 0.34504548 1.044
0.15284508 0.34504548 1.044
0.15467556 0.34504548 1.044
0.15650603 0.34504548 1.044
0.15939817 0.347359 1.051
0.16139433 0.34768951 1.052
0.16308367 0.347359 1.051
0.16524027 0.34802002 1.0530001
0.16708653 0.34802002 1.0530001
0.16909322 0.34835052 1.054
0.17045468 0.347359 1.051
0.17229743 0.347359 1.051
0.10954476 0.35485011 1.0680001
0.11131299 0.35451785 1.067
0.11307772 0.35418561 1.0660001
0.11462329 0.35318884 1.0630001
0.11626792 0.35252431 1.0610001
0.11779419 0.35152754 1.0580001
0.11964922 0.35152754 1.0580001
0.12104487 0.35019854 1.054
0.12289289 0.35019854 1.054
0.12462255 0.34986627 1.0530001
0.12562808 0.34754047 1.046
0.1270965 0.3465437 1.0430001
0.12892523 0.3465437 1.0430001
0.13075395 0.3465437 1.0430001
0.13258268 0.3465437 1.0430001
0.13454027 0.34687597 1.044
0.13624014 0.3465437 1.0430001
0.13793649 0.34621143 1.0420001
0.14070237 0.34853724 1.049
0.14240573 0.34820497 1.0480001
0.14410558 0.34787273 1.0470001
0.14608072 0.34820497 1.0480001
0.14749478 0.3472082 1.0450001
0.14932701 0.3472082 1.0450001
0.1510146 0.34687597 1.044
0.15284508 0.34687597 1.044
0.15467556 0.34687597 1.044
0.15650603 0.34687597 1.044
0.15939817 0.34920177 1.051
0.16139433 0.349534 1.052
0.16323884 0.349534 1.052
0.16524027 0.34986627 1.0530001
0.16708653 0.34986627 1.0530001
0.1689328 0.34986627 1.0530001
0.17094123 0.35019854 1.054
0.17229743 0.34920177 1.051
0.10964733 0.35705668 1.069
0.11141732 0.35672268 1.0680001
0.11328988 0.35672268 1.0680001
0.11473112 0.35538664 1.064
0.11626792 0.3543846 1.0610001
0.11779419 0.35338259 1.0580001
0.11964922 0.35338259 1.0580001
0.12115972 0.35238054 1.0550001
0.1225431 0.35104451 1.051
0.12438585 0.35104451 1.051
0.12574819 0.34970847 1.0470001
0.1270965 0.34837243 1.0430001
0.12892523 0.34837243 1.0430001
0.13075395 0.34837243 1.0430001
0.1327098 0.34870642 1.044
0.13454027 0.34870642 1.044
0.13624014 0.34837243 1.0430001
0.13806887 0.34837243 1.0430001
0.13989758 0.34837243 1.0430001
0.1426775 0.35071051 1.0500001
0.14424323 0.35004249 1.0480001
0.1462201 0.35037649 1.049
0.14749478 0.34904045 1.0450001
0.14932701 0.34904045 1.0450001
0.15115924 0.34904045 1.0450001
0.15284508 0.34870642 1.044
0.15526819 0.35004249 1.0480001
0.15725559 0.35037649 1.049
0.15909484 0.35037649 1.049
0.16139433 0.35137853 1.052
0.16323884 0.35137853 1.052
0.1653972 0.35204655 1.054
0.16724521 0.35204655 1.054
0.16909322 0.35204655 1.054
0.17094123 0.35204655 1.054
0.17229743 0.35104451 1.051
0.11110435 0.35758793 1.0650001
0.11286557 0.35725218 1.064
0.11440763 0.35624489 1.0610001
0.11626792 0.35624489 1.0610001
0.11779419 0.3552376 1.0580001
0.11964922 0.3552376 1.0580001
0.12115972 0.35423031 1.0550001
0.1225431 0.35288727 1.051
0.12438585 0.35288727 1.051
0.12574819 0.3515442 1.0470001
0.12746207 0.35120845 1.046
0.12929606 0.35120845 1.046
0.13113004 0.35120845 1.046
0.13258268 0.35020116 1.0430001
0.13441141 0.35020116 1.0430001
0.13624014 0.35020116 1.0430001
0.13806887 0.35020116 1.0430001
0.14003173 0.35053691 1.044
0.14226985 0.3515442 1.0470001
0.14438087 0.35221574 1.049
0.1462201 0.35221574 1.049
0.14749478 0.3508727 1.0450001
0.14932701 0.3508727 1.0450001
0.15115924 0.3508727 1.0450001
0.15284508 0.35053691 1.044
0.15526819 0.35187998 1.0480001
0.15725559 0.35221574 1.049
0.15909484 0.35221574 1.049
0.16139433 0.35322303 1.052
0.16323884 0.35322303 1.052
0.16524027 0.35355878 1.0530001
0.16708653 0.35355878 1.0530001
0.1689328 0.35355878 1.0530001
0.17142779 0.35490185 1.057
0.17295319 0.35423031 1.0550001
0.10892934 0.35844269 1.062
0.11079138 0.35844269 1.062
0.11254735 0.35810518 1.0610001
0.11440763 0.35810518 1.0610001
0.11593916 0.35709262 1.0580001
0.11779419 0.35709262 1.0580001
0.11930995 0.35608009 1.0550001
0.12115972 0.35608009 1.0550001
0.1225431 0.35473001 1.051
0.12438585 0.35473001 1.051
0.12574819 0.35337994 1.0470001
0.12746207 0.35304242 1.046
0.12892523 0.35202989 1.0430001
0.13075395 0.35202989 1.0430001
0.13258268 0.35202989 1.0430001
0.13441141 0.35202989 1.0430001
0.13624014 0.35202989 1.0430001
0.13806887 0.35202989 1.0430001
0.14043412 0.35337994 1.0470001
0.14226985 0.35337994 1.0470001
0.14438087 0.35405499 1.049
0.1462201 0.35405499 1.049
0.14749478 0.35270491 1.0450001
0.14932701 0.35270491 1.0450001
0.1510146 0.3523674 1.044
0.15284508 0.3523674 1.044
0.15512003 0.35337994 1.0470001
0.15695576 0.35337994 1.0470001
0.15939817 0.35473001 1.051
0.16124092 0.35473001 1.051
0.16323884 0.35506752 1.052
0.16508335 0.35506752 1.052
0.16692786 0.35506752 1.052
0.16877235 0.35506752 1.052
0.17142779 0.35675511 1.057
0.17344499 0.35709262 1.0580001
0.10882677 0.35996547 1.0610001
0.11068705 0.35996547 1.0610001
0.11254735 0.35996547 1.0610001
0.1142998 0.3596262 1.0600001
0.11593916 0.35894766 1.0580001
0.11779419 0.35894766 1.0580001
0.11930995 0.35792986 1.0550001
0.12081519 0.35691205 1.052
0.1224265 0.35623351 1.0500001
0.1242675 0.35623351 1.0500001
0.12562808 0.35487643 1.046
0.12746207 0.35487643 1.046
0.12880161 0.35351935 1.0420001
0.13062859 0.35351935 1.0420001
0.13283692 0.35453716 1.0450001
0.13466915 0.35453716 1.0450001
0.13663201 0.35487643 1.046
0.13846599 0.35487643 1.046
0.14083649 0.35623351 1.0500001
0.1426775 0.35623351 1.0500001
0.14438087 0.35589424 1.049
0.1462201 0.35589424 1.049
0.14749478 0.35453716 1.0450001
0.14918412 0.35419789 1.044
0.1510146 0.35419789 1.044
0.15269868 0.35385862 1.0430001
0.15512003 0.3552157 1.0470001
0.15710568 0.35555497 1.0480001
0.15894318 0.35555497 1.0480001
0.16062725 0.3552157 1.0470001
0.16277333 0.35589424 1.049
0.16508335 0.35691205 1.052
0.16692786 0.35691205 1.052
0.16877235 0.35691205 1.052
0.1712656 0.35826913 1.056
0.17328106 0.35860839 1.057
0.11141732 0.36421293 1.0680001
0.11275949 0.36250779 1.0630001
0.1142998 0.36148474 1.0600001
0.11582958 0.36046165 1.057
0.11779419 0.36080268 1.0580001
0.11942304 0.36012062 1.056
0.12081519 0.35875654 1.052
0.1224265 0.35807449 1.0500001
0.12438585 0.35841551 1.051
0.12574819 0.35705143 1.0470001
0.12758394 0.35705143 1.0470001
0.12904884 0.35602835 1.044
0.13100468 0.35636938 1.0450001
0.13283692 0.35636938 1.0450001
0.13466915 0.35636938 1.0450001
0.13650139 0.35636938 1.0450001
0.13820124 0.35602835 1.044
0.14016585 0.35636938 1.0450001
0.14199808 0.35636938 1.0450001
0.14369267 0.35602835 1.044
0.14552316 0.35602835 1.044
0.14721249 0.35568732 1.0430001
0.14889832 0.35534632 1.0420001
0.15086995 0.35568732 1.0430001
0.15269868 0.35568732 1.0430001
0.1545274 0.35568732 1.0430001
0.15650603 0.35602835 1.044
0.15894318 0.35739246 1.0480001
0.16078067 0.35739246 1.0480001
0.16277333 0.35773349 1.049
0.16524027 0.35909757 1.0530001
0.16708653 0.35909757 1.0530001
0.1689328 0.35909757 1.0530001
0.17158997 0.36080268 1.0580001
0.17360893 0.36114371 1.059
0.11037409 0.36265773 1.0580001
0.11201696 0.36197215 1.056
0.11386848 0.36197215 1.056
0.11572 0.36197215 1.056
0.11757152 0.36197215 1.056
0.11919686 0.36128661 1.054
0.1205855 0.35991549 1.0500001
0.1223099 0.35957271 1.049
0.12367575 0.35820162 1.0450001
0.12562808 0.35854438 1.046
0.12746207 0.35854438 1.046
0.12892523 0.35751605 1.0430001
0.13075395 0.35751605 1.0430001
0.13258268 0.35751605 1.0430001
0.13454027 0.35785884 1.044
0.13637076 0.35785884 1.044
0.13820124 0.35785884 1.044
0.14016585 0.35820162 1.0450001
0.14159043 0.35717329 1.0420001
0.14327978 0.35683051 1.041
0.14510499 0.35683051 1.041
0.14678906 0.35648772 1.0400001
0.14875543 0.35683051 1.041
0.15115924 0.35820162 1.0450001
0.15299149 0.35820162 1.0450001
0.15482372 0.35820162 1.0450001
0.15680586 0.35854438 1.046
0.1592465 0.35991549 1.0500001
0.16093408 0.35957271 1.049
0.16277333 0.35957271 1.049
0.16508335 0.36060104 1.052
0.16708653 0.36094382 1.0530001
0.1689328 0.36094382 1.0530001
0.17175215 0.36300048 1.059
0.17360893 0.36300048 1.059
0.11047841 0.36485726 1.059
0.11212303 0.3641682 1.057
0.11386848 0.36382368 1.056
0.11561041 0.36347914 1.0550001
0.11746018 0.36347914 1.0550001
0.11908377 0.36279008 1.0530001
0.1205855 0.3617565 1.0500001
0.1223099 0.36141196 1.049
0.12367575 0.36003384 1.0450001
0.12550798 0.36003384 1.0450001
0.12721837 0.35968933 1.044
0.12892523 0.35934478 1.0430001
0.13075395 0.35934478 1.0430001
0.13258268 0.35934478 1.0430001
0.13441141 0.35934478 1.0430001
0.13637076 0.35968933 1.044
0.13780411 0.35865572 1.041
0.13976346 0.35900027 1.0420001
0.14159043 0.35900027 1.0420001
0.14327978 0.35865572 1.041
0.14510499 0.35865572 1.041
0.1469302 0.35865572 1.041
0.14875543 0.35865572 1.041
0.15072531 0.35900027 1.0420001
0.15255228 0.35900027 1.0420001
0.15497187 0.36037838 1.046
0.15680586 0.36037838 1.046
0.1592465 0.3617565 1.0500001
0.16093408 0.36141196 1.049
0.16292849 0.3617565 1.0500001
0.16524027 0.36279008 1.0530001
0.16724521 0.36313462 1.054
0.16877235 0.36244556 1.052
0.17142779 0.3641682 1.057
0.17344499 0.36451274 1.0580001
0.11079138 0.36775291 1.062
0.11244126 0.36706033 1.0600001
0.11386848 0.36567521 1.056
0.11572 0.36567521 1.056
0.11757152 0.36567521 1.056
0.11897068 0.36429006 1.052
0.12047066 0.36325121 1.049
0.1223099 0.36325121 1.049
0.12367575 0.36186609 1.0450001
0.12538788 0.36151978 1.044
0.12721837 0.36151978 1.044
0.12880161 0.36082724 1.0420001
0.13075395 0.36117351 1.0430001
0.13220133 0.36013466 1.0400001
0.13415366 0.36048093 1.041
0.13650139 0.36186609 1.0450001
0.13780411 0.36048093 1.041
0.13989758 0.36117351 1.0430001
0.14172632 0.36117351 1.0430001
0.1434174 0.36082724 1.0420001
0.14510499 0.36048093 1.041
0.14678906 0.36013466 1.0400001
0.14861253 0.36013466 1.0400001
0.15072531 0.36082724 1.0420001
0.15255228 0.36082724 1.0420001
0.15482372 0.36186609 1.0450001
0.15680586 0.36221236 1.046
0.1592465 0.36359751 1.0500001
0.16093408 0.36325121 1.049
0.16277333 0.36325121 1.049
0.16524027 0.36463636 1.0530001
0.16708653 0.36463636 1.0530001
0.1689328 0.36463636 1.0530001
0.17045468 0.36394379 1.051
0.17344499 0.36636776 1.0580001
0.11068705 0.3692669 1.0610001
0.11244126 0.36891887 1.0600001
0.1142998 0.36891887 1.0600001
0.11582958 0.36787474 1.057
0.11768286 0.36787474 1.057
0.11908377 0.36648262 1.0530001
0.12081519 0.36613458 1.052
0.1223099 0.36509046 1.049
0.12414915 0.36509046 1.049
0.12586829 0.36474243 1.0480001
0.12721837 0.36335027 1.044
0.12904884 0.36335027 1.044
0.13087931 0.36335027 1.044
0.13232845 0.36230618 1.041
0.13428254 0.36265421 1.0420001
0.13624014 0.36300224 1.0430001
0.13806887 0.36300224 1.0430001
0.14003173 0.36335027 1.044
0.1418622 0.36335027 1.044
0.14355505 0.36300224 1.0430001
0.14538378 0.36300224 1.0430001
0.1469302 0.36230618 1.041
0.14875543 0.36230618 1.041
0.15072531 0.36265421 1.0420001
0.15255228 0.36265421 1.0420001
0.15437925 0.36265421 1.0420001
0.15680586 0.36404637 1.046
0.15863985 0.36404637 1.046
0.1610875 0.36543849 1.0500001
0.16292849 0.36543849 1.0500001
0.16461258 0.36509046 1.049
0.16661049 0.36543849 1.0500001
0.1684515 0.36543849 1.0500001
0.16996813 0.36474243 1.0480001
0.17377287 0.36891887 1.0600001
0.11068705 0.37112719 1.0610001
0.11244126 0.3707774 1.0600001
0.11419197 0.37042761 1.059
0.11572 0.36937824 1.056
0.11757152 0.36937824 1.056
0.11908377 0.36832887 1.0530001
0.12081519 0.36797908 1.052
0.1223099 0.36692971 1.049
0.12414915 0.36692971 1.049
0.12586829 0.36657992 1.0480001
0.12770578 0.36657992 1.0480001
0.12954327 0.36657992 1.0480001
0.13087931 0.36518076 1.044
0.13258268 0.36483097 1.0430001
0.13454027 0.36518076 1.044
0.13637076 0.36518076 1.044
0.13820124 0.36518076 1.044
0.14003173 0.36518076 1.044
0.14199808 0.36553055 1.0450001
0.14314213 0.3637816 1.0400001
0.1449656 0.3637816 1.0400001
0.14664792 0.36343181 1.039
0.14861253 0.3637816 1.0400001
0.150436 0.3637816 1.0400001
0.15269868 0.36483097 1.0430001
0.15467556 0.36518076 1.044
0.15650603 0.36518076 1.044
0.15818486 0.36483097 1.0430001
0.16062725 0.36623013 1.0470001
0.16246299 0.36623013 1.0470001
0.1647695 0.3672795 1.0500001
0.16661049 0.3672795 1.0500001
0.16764934 0.36553055 1.0450001
0.16931941 0.36518076 1.044
0.17114988 0.36518076 1.044
0.11068705 0.37298748 1.0610001
0.11233519 0.37228438 1.059
0.11408414 0.37193283 1.0580001
0.11550083 0.37052667 1.054
0.11746018 0.37087822 1.0550001
0.11930995 0.37087822 1.0550001
0.12093003 0.37017512 1.0530001
0.1224265 0.36912051 1.0500001
0.12414915 0.36876896 1.049
0.12598839 0.36876896 1.049
0.12782764 0.36876896 1.049
0.12954327 0.36841741 1.0480001
0.13087931 0.36701125 1.044
0.13296403 0.36771432 1.046
0.13492689 0.36806586 1.0470001
0.13637076 0.36701125 1.044
0.13820124 0.36701125 1.044
0.13976346 0.36630815 1.0420001
0.14159043 0.36630815 1.0420001
0.14327978 0.3659566 1.041
0.1449656 0.36560506 1.0400001
0.14664792 0.36525351 1.039
0.14861253 0.36560506 1.0400001
0.150436 0.36560506 1.0400001
0.15269868 0.3666597 1.0430001
0.15467556 0.36701125 1.044
0.15650603 0.36701125 1.044
0.15818486 0.3666597 1.0430001
0.16062725 0.36806586 1.0470001
0.16230781 0.36771432 1.046
0.1647695 0.36912051 1.0500001
0.16661049 0.36912051 1.0500001
0.16748892 0.36701125 1.044
0.16915722 0.3666597 1.0430001
0.20082241 0.43064058 1.225
0.10676485 0.37414116 1.059
0.10862163 0.37414116 1.059
0.11026976 0.37343457 1.057
0.11191088 0.37272799 1.0550001
0.11365282 0.37237468 1.054
0.11550083 0.37237468 1.054
0.11734884 0.37237468 1.054
0.11919686 0.37237468 1.054
0.12070034 0.37131479 1.051
0.1225431 0.37131479 1.051
0.1240308 0.3702549 1.0480001
0.12586829 0.3702549 1.0480001
0.12782764 0.37060821 1.049
0.1297905 0.37096149 1.0500001
0.13100468 0.36919501 1.0450001
0.13296403 0.36954832 1.046
0.13505577 0.3702549 1.0480001
0.13637076 0.36884171 1.044
0.13820124 0.36884171 1.044
0.13976346 0.36813512 1.0420001
0.14172632 0.36848843 1.0430001
0.14355505 0.36848843 1.0430001
0.14538378 0.36848843 1.0430001
0.14721249 0.36848843 1.0430001
0.14904122 0.36848843 1.0430001
0.15072531 0.36813512 1.0420001
0.15299149 0.36919501 1.0450001
0.15467556 0.36884171 1.044
0.15650603 0.36884171 1.044
0.15833652 0.36884171 1.044
0.16047384 0.36954832 1.046
0.16230781 0.36954832 1.046
0.16461258 0.37060821 1.049
0.16645183 0.37060821 1.049
0.16748892 0.36884171 1.044
0.16931941 0.36884171 1.044
0.20065849 0.43243513 1.2240001
0.10676485 0.37599796 1.059
0.10862163 0.37599796 1.059
0.11016544 0.3749328 1.056
0.11180481 0.3742227 1.054
0.11365282 0.3742227 1.054
0.11550083 0.3742227 1.054
0.11746018 0.37457776 1.0550001
0.11930995 0.37457776 1.0550001
0.12070034 0.37315756 1.051
0.1225431 0.37315756 1.051
0.1242675 0.3728025 1.0500001
0.1262286 0.37315756 1.051
0.12807135 0.37315756 1.051
0.12941967 0.37173736 1.0470001
0.13113004 0.3713823 1.046
0.1327098 0.3706722 1.044
0.13454027 0.3706722 1.044
0.13597889 0.36960706 1.041
0.13780411 0.36960706 1.041
0.13976346 0.3699621 1.0420001
0.14172632 0.37031716 1.0430001
0.14355505 0.37031716 1.0430001
0.14538378 0.37031716 1.0430001
0.14721249 0.37031716 1.0430001
0.14904122 0.37031716 1.0430001
0.15072531 0.3699621 1.0420001
0.15299149 0.37102726 1.0450001
0.15467556 0.3706722 1.044
0.15650603 0.3706722 1.044
0.15863985 0.3713823 1.046
0.16032042 0.37102726 1.0450001
0.16277333 0.37244746 1.049
0.16461258 0.37244746 1.049
0.16645183 0.37244746 1.049
0.16813064 0.3720924 1.0480001
0.16980594 0.37173736 1.0470001
0.17164169 0.37173736 1.0470001
0.10656322 0.37714112 1.057
0.10841649 0.37714112 1.057
0.11016544 0.37678432 1.056
0.11180481 0.37607071 1.054
0.11365282 0.37607071 1.054
0.11550083 0.37607071 1.054
0.11757152 0.37678432 1.056
0.11942304 0.37678432 1.056
0.12093003 0.37571391 1.0530001
0.12277629 0.37571391 1.0530001
0.12485925 0.3764275 1.0550001
0.1263487 0.37535709 1.052
0.12758394 0.37357309 1.0470001
0.12954327 0.37392989 1.0480001
0.1312554 0.37357309 1.0470001
0.1327098 0.37250268 1.044
0.13466915 0.37285948 1.0450001
0.13610952 0.37178907 1.0420001
0.13793649 0.37178907 1.0420001
0.13976346 0.37178907 1.0420001
0.14172632 0.37214586 1.0430001
0.14355505 0.37214586 1.0430001
0.14538378 0.37214586 1.0430001
0.14721249 0.37214586 1.0430001
0.14889832 0.37178907 1.0420001
0.15072531 0.37178907 1.0420001
0.15299149 0.37285948 1.0450001
0.1545274 0.37214586 1.0430001
0.15620622 0.37178907 1.0420001
0.15803319 0.37178907 1.0420001
0.15986016 0.37178907 1.0420001
0.16215265 0.37285948 1.0450001
0.16382796 0.37250268 1.044
0.16565844 0.37250268 1.044
0.16748892 0.37250268 1.044
0.19639613 0.42745039 1.1980001
0.11037409 0.37935296 1.0580001
0.11233519 0.37971151 1.059
0.11419197 0.37971151 1.059
0.11604875 0.37971151 1.059
0.11757152 0.37863582 1.056
0.11942304 0.37863582 1.056
0.12081519 0.37720162 1.052
0.12277629 0.37756017 1.0530001
0.1245042 0.37720162 1.052
0.1263487 0.37720162 1.052
0.12758394 0.37540883 1.0470001
0.12941967 0.37540883 1.0470001
0.13113004 0.37505028 1.046
0.13258268 0.37397459 1.0430001
0.13454027 0.37433314 1.044
0.13597889 0.37325749 1.041
0.13780411 0.37325749 1.041
0.13962933 0.37325749 1.041
0.14159043 0.37361604 1.0420001
0.1434174 0.37361604 1.0420001
0.14524437 0.37361604 1.0420001
0.14707135 0.37361604 1.0420001
0.14875543 0.37325749 1.041
0.15058064 0.37325749 1.041
0.15211307 0.37254038 1.039
0.15437925 0.37361604 1.0420001
0.15620622 0.37361604 1.0420001
0.15803319 0.37361604 1.0420001
0.15970674 0.37325749 1.041
0.16215265 0.37469172 1.0450001
0.16382796 0.37433314 1.044
0.16565844 0.37433314 1.044
0.16764934 0.37469172 1.0450001
0.11233519 0.38156828 1.059
0.11386848 0.38048735 1.056
0.11572 0.38048735 1.056
0.11757152 0.38048735 1.056
0.11953613 0.38084766 1.057
0.12093003 0.37940642 1.0530001
0.1223099 0.37796518 1.049
0.12438585 0.3786858 1.051
0.12574819 0.37724456 1.0470001
0.12758394 0.37724456 1.0470001
0.12929606 0.37688425 1.046
0.13100468 0.37652394 1.0450001
0.13245557 0.37544301 1.0420001
0.13454027 0.37616363 1.044
0.13637076 0.37616363 1.044
0.13767174 0.37472239 1.0400001
0.13976346 0.37544301 1.0420001
0.14159043 0.37544301 1.0420001
0.1434174 0.37544301 1.0420001
0.14510499 0.3750827 1.041
0.1469302 0.3750827 1.041
0.14875543 0.3750827 1.041
0.15058064 0.3750827 1.041
0.15211307 0.37436208 1.039
0.15408294 0.37472239 1.0400001
0.15575649 0.37436208 1.039
0.1575782 0.37436208 1.039
0.15939991 0.37436208 1.039
0.16122162 0.37436208 1.039
0.16304334 0.37436208 1.039
0.16565844 0.37616363 1.044
0.16829106 0.37796518 1.049
0.11397631 0.38270095 1.057
0.11582958 0.38270095 1.057
0.11768286 0.38270095 1.057
0.11953613 0.38270095 1.057
0.12093003 0.38125268 1.0530001
0.12172692 0.37799412 1.044
0.1237941 0.37871826 1.046
0.12562808 0.37871826 1.046
0.1270965 0.37763205 1.0430001
0.12892523 0.37763205 1.0430001
0.13062859 0.37726998 1.0420001
0.13232845 0.37690791 1.041
0.13428254 0.37726998 1.0420001
0.13571765 0.37618381 1.039
0.13753936 0.37618381 1.039
0.13949519 0.37654588 1.0400001
0.1410469 0.37582174 1.0380001
0.14286686 0.37582174 1.0380001
0.1449656 0.37654588 1.0400001
0.1469302 0.37690791 1.041
0.14875543 0.37690791 1.041
0.150436 0.37654588 1.0400001
0.15182026 0.37545967 1.0370001
0.15393478 0.37618381 1.039
0.15575649 0.37618381 1.039
0.1575782 0.37618381 1.039
0.15939991 0.37618381 1.039
0.16122162 0.37618381 1.039
0.16304334 0.37618381 1.039
0.16565844 0.37799412 1.044
0.1689328 0.38125268 1.0530001
0.17077905 0.38125268 1.0530001
0.11212303 0.38455421 1.057
0.11397631 0.38455421 1.057
0.11593916 0.38491803 1.0580001
0.11779419 0.38491803 1.0580001
0.11964922 0.38491803 1.0580001
0.12104487 0.38346276 1.054
0.12172692 0.37982461 1.044
0.1237941 0.38055223 1.046
0.12526777 0.37946078 1.0430001
0.1270965 0.37946078 1.0430001
0.12892523 0.37946078 1.0430001
0.1302525 0.3780055 1.039
0.1319471 0.37764171 1.0380001
0.13389593 0.3780055 1.039
0.13571765 0.3780055 1.039
0.13753936 0.3780055 1.039
0.1390928 0.37727788 1.0370001
0.14091101 0.37727788 1.0370001
0.14272922 0.37727788 1.0370001
0.14454743 0.37727788 1.0370001
0.14664792 0.3780055 1.039
0.14846964 0.3780055 1.039
0.15029135 0.3780055 1.039
0.15152745 0.37655026 1.0350001
0.15393478 0.3780055 1.039
0.15575649 0.3780055 1.039
0.15742654 0.37764171 1.0380001
0.15939991 0.3780055 1.039
0.16122162 0.3780055 1.039
0.16304334 0.3780055 1.039
0.16565844 0.37982461 1.044
0.16877235 0.38273513 1.052
0.11473112 0.38896647 1.064
0.11593916 0.38677305 1.0580001
0.11779419 0.38677305 1.0580001
0.11964922 0.38677305 1.0580001
0.12104487 0.38531077 1.054
0.12172692 0.38165507 1.044
0.1237941 0.38238621 1.046
0.12526777 0.38128951 1.0430001
0.12697464 0.38092393 1.0420001
0.12880161 0.38092393 1.0420001
0.13012713 0.37946165 1.0380001
0.1319471 0.37946165 1.0380001
0.13389593 0.37982723 1.039
0.13571765 0.37982723 1.039
0.13753936 0.37982723 1.039
0.1390928 0.37909609 1.0370001
0.14091101 0.37909609 1.0370001
0.14272922 0.37909609 1.0370001
0.14440803 0.37873051 1.036
0.14608335 0.37836495 1.0350001
0.14846964 0.37982723 1.039
0.15029135 0.37982723 1.039
0.15240587 0.38055837 1.041
0.15437925 0.38092393 1.0420001
0.15620622 0.38092393 1.0420001
0.15803319 0.38092393 1.0420001
0.15986016 0.38092393 1.0420001
0.16168714 0.38092393 1.0420001
0.16351411 0.38092393 1.0420001
0.16549976 0.38128951 1.0430001
0.16877235 0.38457963 1.052
0.10440311 0.40883088 1.113
0.10635457 0.40883088 1.113
0.10850065 0.40956551 1.115
0.10966311 0.40662694 1.107
0.11140241 0.40589228 1.105
0.11354499 0.40662694 1.107
0.11275949 0.39046469 1.0630001
0.11462329 0.39046469 1.0630001
0.11593916 0.3886281 1.0580001
0.11779419 0.3886281 1.0580001
0.11919686 0.38715878 1.054
0.12024097 0.38458753 1.0470001
0.12149373 0.3827509 1.0420001
0.1233207 0.3827509 1.0420001
0.12514767 0.3827509 1.0420001
0.12697464 0.3827509 1.0420001
0.12880161 0.3827509 1.0420001
0.13012713 0.38128161 1.0380001
0.1319471 0.38128161 1.0380001
0.13376705 0.38128161 1.0380001
0.13558702 0.38128161 1.0380001
0.13753936 0.38164893 1.039
0.1390928 0.3809143 1.0370001
0.14091101 0.3809143 1.0370001
0.14272922 0.3809143 1.0370001
0.14440803 0.38054696 1.036
0.1462245 0.38054696 1.036
0.14861253 0.38201627 1.0400001
0.150436 0.38201627 1.0400001
0.15269868 0.38311824 1.0430001
0.1545274 0.38311824 1.0430001
0.15635613 0.38311824 1.0430001
0.15803319 0.3827509 1.0420001
0.15986016 0.3827509 1.0420001
0.16168714 0.3827509 1.0420001
0.16351411 0.3827509 1.0420001
0.16549976 0.38311824 1.0430001
0.16764934 0.38385287 1.0450001
0.100139 0.40930602 1.1090001
0.1023596 0.41041327 1.1120001
0.10449691 0.41115141 1.1140001
0.10597234 0.40930602 1.1090001
0.10713831 0.40635341 1.1010001
0.10906873 0.40635341 1.1010001
0.11049507 0.40450802 1.0960001
0.11262186 0.40524617 1.098
0.11454702 0.40524617 1.098
0.11572964 0.40266263 1.0910001
0.11473112 0.39269757 1.064
0.11593916 0.39048311 1.0580001
0.11779419 0.39048311 1.0580001
0.11919686 0.38900679 1.054
0.12024097 0.38642326 1.0470001
0.12149373 0.38457787 1.0420001
0.1233207 0.38457787 1.0420001
0.12514767 0.38457787 1.0420001
0.12697464 0.38457787 1.0420001
0.12843078 0.38347065 1.039
0.13012713 0.38310158 1.0380001
0.13232845 0.3842088 1.041
0.13376705 0.38310158 1.0380001
0.13558702 0.38310158 1.0380001
0.13740698 0.38310158 1.0380001
0.13895868 0.38236344 1.036
0.14077513 0.38236344 1.036
0.14272922 0.38273251 1.0370001
0.14454743 0.38273251 1.0370001
0.14636564 0.38273251 1.0370001
0.14861253 0.38383973 1.0400001
0.15058064 0.3842088 1.041
0.15284508 0.38531604 1.044
0.15467556 0.38531604 1.044
0.15650603 0.38531604 1.044
0.15818486 0.38494697 1.0430001
0.16001359 0.38494697 1.0430001
0.16184232 0.38494697 1.0430001
0.16351411 0.38457787 1.0420001
0.16629314 0.38679233 1.0480001
0.1689328 0.38863772 1.0530001
0.17061687 0.38826865 1.052
0.1002293 0.4116213 1.11
