# .PCD v0.7 - Point Cloud Data file format
VERSION 0.7
FIELDS x y z
SIZE 4 4 4
TYPE F F F
COUNT 1 1 1
WIDTH 1595
HEIGHT 1
VIEWPOINT 0 0 0 1 0 0 0
POINTS 1595
DATA ascii
0.35991549 0.38411149 1.1500001
0.36161712 0.3837775 1.149
0.3636317 0.3837775 1.149
0.36914679 0.38745159 1.1600001
0.37118065 0.38745159 1.1600001
0.37353626 0.38778561 1.161
0.37460142 0.38678357 1.1580001
0.37728226 0.38745159 1.1600001
0.38062412 0.38878763 1.164
0.38299376 0.38912165 1.1650001
0.38371438 0.38778561 1.161
0.38575 0.38778561 1.161
0.38778561 0.38778561 1.161
0.39787954 0.39580184 1.1850001
0.39826965 0.39413181 1.1800001
0.40033859 0.39413181 1.1800001
0.40240753 0.39413181 1.1800001
0.40447646 0.39413181 1.1800001
0.41067976 0.39813992 1.192
0.41276973 0.39813992 1.192
0.41451168 0.3978059 1.1910001
0.40225849 0.38411149 1.1500001
0.40427482 0.38411149 1.1500001
0.4071126 0.38110539 1.141
0.42237976 0.39346379 1.1780001
0.4251658 0.39413181 1.1800001
0.42687267 0.39379779 1.179
0.4256655 0.39079168 1.1700001
0.42771691 0.39079168 1.1700001
0.43380886 0.3944658 1.1810001
0.43587953 0.3944658 1.1810001
0.43832105 0.39479983 1.182
0.43397629 0.38010338 1.138
0.43443918 0.37876734 1.1340001
0.45720971 0.39680389 1.1880001
0.45929268 0.39680389 1.1880001
0.46059892 0.39613587 1.1860001
0.46306849 0.39646986 1.187
0.4584879 0.39079168 1.1700001
0.46053931 0.39079168 1.1700001
0.46259069 0.39079168 1.1700001
0.46424496 0.39045769 1.169
0.47467116 0.3974719 1.1900001
0.47515509 0.39613587 1.1860001
0.47723454 0.39613587 1.1860001
0.479314 0.39613587 1.1860001
0.47241899 0.3837775 1.149
0.4744336 0.3837775 1.149
0.48142412 0.38778561 1.161
0.48429257 0.38845363 1.1630001
0.48674989 0.38878763 1.164
0.49005052 0.38978967 1.1670001
0.49209666 0.38978967 1.1670001
0.49202564 0.38811961 1.1620001
0.49363786 0.38778561 1.161
0.49567348 0.38778561 1.161
0.49728039 0.38745159 1.1600001
0.49931428 0.38745159 1.1600001
0.49918714 0.38578156 1.1550001
0.50208014 0.38644958 1.1570001
0.50410873 0.38644958 1.1570001
0.504825 0.38544753 1.154
0.50728756 0.38578156 1.1550001
0.51151747 0.38745159 1.1600001
0.51355135 0.38745159 1.1600001
0.51914096 0.39012367 1.1680001
0.52163506 0.39045769 1.169
0.52368474 0.39045769 1.169
0.52618408 0.39079168 1.1700001
0.5282355 0.39079168 1.1700001
0.53164661 0.39179373 1.1730001
0.5359782 0.39346379 1.1780001
0.53667343 0.39246175 1.1750001
0.5387336 0.39246175 1.1750001
0.54033351 0.39212775 1.174
0.54747397 0.39580184 1.1850001
0.54769659 0.3944658 1.1810001
0.54883629 0.39379779 1.179
0.55090344 0.39379779 1.179
0.55672276 0.39646986 1.187
0.55833322 0.39613587 1.1860001
0.56277531 0.3978059 1.1910001
0.56296641 0.39646986 1.187
0.56123936 0.39379779 1.179
0.56330657 0.39379779 1.179
0.56537372 0.39379779 1.179
0.56744093 0.39379779 1.179
0.56757593 0.39246175 1.1750001
0.56818169 0.3914597 1.1720001
0.57072318 0.39179373 1.1730001
0.57277983 0.39179373 1.1730001
0.57483649 0.39179373 1.1730001
0.57689315 0.39179373 1.1730001
0.57697552 0.39045769 1.169
0.57902521 0.39045769 1.169
0.58107483 0.39045769 1.169
0.32848173 0.39687225 1.182
0.32831693 0.39418614 1.174
0.32784265 0.39116427 1.1650001
0.32931894 0.39049277 1.1630001
0.32879382 0.38747087 1.154
0.32995716 0.38646358 1.151
0.33197525 0.38646358 1.151
0.33399335 0.38646358 1.151
0.33513564 0.38545629 1.148
0.33685479 0.38512054 1.1470001
0.33886585 0.38512054 1.1470001
0.35460377 0.3891497 1.159
0.3566359 0.3891497 1.159
0.35712069 0.38747087 1.154
0.35883281 0.38713512 1.153
0.35866362 0.38478479 1.146
0.36035821 0.38444901 1.1450001
0.36236578 0.38444901 1.1450001
0.36660096 0.38679937 1.1520001
0.36862078 0.38679937 1.1520001
0.36999717 0.38612783 1.1500001
0.37233698 0.38646358 1.151
0.37337935 0.38545629 1.148
0.37539217 0.38545629 1.148
0.37871999 0.38679937 1.1520001
0.37941784 0.38545629 1.148
0.38143066 0.38545629 1.148
0.38344347 0.38545629 1.148
0.38512054 0.38512054 1.1470001
0.39826965 0.39620072 1.1800001
0.40033859 0.39620072 1.1800001
0.40240753 0.39620072 1.1800001
0.40481925 0.3965365 1.1810001
0.4065454 0.39620072 1.1800001
0.39822584 0.38612783 1.1500001
0.40059021 0.38646358 1.151
0.40225849 0.38612783 1.1500001
0.40392327 0.38579208 1.149
0.40311149 0.38310596 1.141
0.40653226 0.38444901 1.1450001
0.40782622 0.3837775 1.143
0.41347632 0.38344172 1.1420001
0.41547862 0.38344172 1.1420001
0.41711536 0.38310596 1.141
0.41874859 0.38277021 1.1400001
0.43062305 0.38444901 1.1450001
0.4414306 0.38512054 1.1470001
0.44344166 0.38512054 1.1470001
0.44312257 0.38310596 1.141
0.45643649 0.3928431 1.1700001
0.45809603 0.39250734 1.169
0.45699668 0.38982123 1.161
0.4590323 0.38982123 1.161
0.46424496 0.39250734 1.169
0.46629462 0.39250734 1.169
0.45512325 0.38142714 1.136
0.45711502 0.38142714 1.136
0.4744336 0.38579208 1.149
0.4747895 0.38444901 1.1450001
0.4776299 0.38512054 1.1470001
0.48131368 0.38646358 1.151
0.48669115 0.3891497 1.159
0.49083164 0.39082852 1.164
0.49202564 0.39015698 1.1620001
0.49406302 0.39015698 1.1620001
0.49439266 0.38881394 1.1580001
0.49556562 0.38814241 1.156
0.49759248 0.38814241 1.156
0.49745837 0.38646358 1.151
0.50034434 0.38713512 1.153
0.50236595 0.38713512 1.153
0.50351262 0.38646358 1.151
0.50553071 0.38646358 1.151
0.50931263 0.38780665 1.1550001
0.51133776 0.38780665 1.1550001
0.51736307 0.39082852 1.164
0.51985019 0.39116427 1.1650001
0.52189279 0.39116427 1.1650001
0.52438515 0.39150006 1.166
0.5282355 0.3928431 1.1700001
0.52983367 0.39250734 1.169
0.53461325 0.39452192 1.1750001
0.53484643 0.39317885 1.171
0.53689957 0.39317885 1.171
0.54079372 0.39452192 1.1750001
0.54839796 0.39855108 1.187
0.54816037 0.39687225 1.182
0.54883629 0.39586496 1.179
0.53221291 0.38243443 1.1390001
0.53420997 0.38243443 1.1390001
0.53573626 0.38209867 1.138
0.55143476 0.39183581 1.1670001
0.55348086 0.39183581 1.1670001
0.55552703 0.39183581 1.1670001
0.56330657 0.39586496 1.179
0.56345558 0.39452192 1.1750001
0.56407189 0.39351463 1.1720001
0.56419462 0.39217156 1.1680001
0.56624252 0.39217156 1.1680001
0.56926352 0.3928431 1.1700001
0.57082659 0.39250734 1.169
0.57287621 0.39250734 1.169
0.5749259 0.39250734 1.169
0.57697552 0.39250734 1.169
0.57902521 0.39250734 1.169
0.58157188 0.3928431 1.1700001
0.32375738 0.39320692 1.1650001
0.3258 0.39320692 1.1650001
0.32559136 0.39050677 1.1570001
0.32677048 0.38949424 1.154
0.32679942 0.3871316 1.1470001
0.32881048 0.3871316 1.1470001
0.33082157 0.3871316 1.1470001
0.33399335 0.38848168 1.151
0.3348437 0.3871316 1.1470001
0.33509269 0.3851065 1.141
0.33709323 0.3851065 1.141
0.33939096 0.38544405 1.1420001
0.35307398 0.38949424 1.154
0.3541742 0.38848168 1.151
0.35619229 0.38848168 1.151
0.35634309 0.38645658 1.1450001
0.35835063 0.38645658 1.1450001
0.35909933 0.3851065 1.141
0.36109987 0.3851065 1.141
0.36437336 0.38645658 1.1450001
0.3663809 0.38645658 1.1450001
0.36871022 0.38679409 1.146
0.37071955 0.38679409 1.146
0.37207836 0.38611907 1.1440001
0.37408417 0.38611907 1.1440001
0.37608999 0.38611907 1.1440001
0.3777653 0.38578156 1.143
0.37877259 0.38476899 1.1400001
0.3807714 0.38476899 1.1400001
0.38243443 0.38443148 1.1390001
0.38443148 0.38443148 1.1390001
0.38642853 0.38443148 1.1390001
0.3901307 0.38611907 1.1440001
0.39213651 0.38611907 1.1440001
0.39345327 0.38544405 1.1420001
0.39545557 0.38544405 1.1420001
0.3978059 0.38578156 1.143
0.39980996 0.38578156 1.143
0.4014625 0.38544405 1.1420001
0.40346479 0.38544405 1.1420001
0.40688729 0.38679409 1.146
0.40782622 0.38578156 1.143
0.40983027 0.38578156 1.143
0.41183433 0.38578156 1.143
0.41347632 0.38544405 1.1420001
0.41547862 0.38544405 1.1420001
0.41748095 0.38544405 1.1420001
0.41911593 0.3851065 1.141
0.42111647 0.3851065 1.141
0.42311704 0.3851065 1.141
0.42660791 0.38645658 1.1450001
0.42861548 0.38645658 1.1450001
0.43024695 0.38611907 1.1440001
0.4314971 0.38544405 1.1420001
0.43236059 0.38443148 1.1390001
0.43435764 0.38443148 1.1390001
0.43520537 0.38341892 1.136
0.44181544 0.38746914 1.148
0.44344166 0.3871316 1.1470001
0.44389927 0.38578156 1.143
0.44590336 0.38578156 1.143
0.44908303 0.38679409 1.146
0.45109233 0.38679409 1.146
0.45112479 0.3851065 1.141
0.45113969 0.38341892 1.136
0.45313147 0.38341892 1.136
0.45512325 0.38341892 1.136
0.45711502 0.38341892 1.136
0.45910683 0.38341892 1.136
0.46109861 0.38341892 1.136
0.46145979 0.38206887 1.1320001
0.46344456 0.38206887 1.1320001
0.46542934 0.38206887 1.1320001
0.47278196 0.38645658 1.1450001
0.47313085 0.3851065 1.141
0.47596425 0.38578156 1.143
0.47629562 0.38443148 1.1390001
0.47871259 0.38476899 1.1400001
0.48872325 0.39118183 1.159
0.49244907 0.39253187 1.1630001
0.49448821 0.39253187 1.1630001
0.49481958 0.39118183 1.159
0.49685171 0.39118183 1.159
0.49802294 0.39050677 1.1570001
0.49789056 0.38881919 1.1520001
0.49904251 0.38814417 1.1500001
0.50105882 0.38814417 1.1500001
0.50307518 0.38814417 1.1500001
0.50509149 0.38814417 1.1500001
0.50798976 0.38881919 1.1520001
0.51133776 0.38983175 1.1550001
0.51558518 0.39151934 1.1600001
0.52029639 0.39354444 1.166
0.52234077 0.39354444 1.166
0.52438515 0.39354444 1.166
0.52642953 0.39354444 1.166
0.52847397 0.39354444 1.166
0.53097332 0.39388195 1.1670001
0.53119248 0.39253187 1.1630001
0.53369009 0.39286938 1.164
0.53619123 0.39320692 1.1650001
0.5271458 0.3851065 1.141
0.52821887 0.38443148 1.1390001
0.53021586 0.38443148 1.1390001
0.53221291 0.38443148 1.1390001
0.53233391 0.38308141 1.1350001
0.53432393 0.38308141 1.1350001
0.53631395 0.38308141 1.1350001
0.54020113 0.38443148 1.1390001
0.54219818 0.38443148 1.1390001
0.54419523 0.38443148 1.1390001
0.54427409 0.38308141 1.1350001
0.54674542 0.38341892 1.136
0.56226242 0.39286938 1.164
0.56430334 0.39286938 1.164
0.56731731 0.39354444 1.166
0.57082659 0.39455697 1.169
0.57287621 0.39455697 1.169
0.57295865 0.39320692 1.1650001
0.57549483 0.39354444 1.166
0.57753921 0.39354444 1.166
0.58008069 0.39388195 1.1670001
0.31341973 0.39253539 1.1570001
0.31517568 0.39219612 1.156
0.31802574 0.39321393 1.159
0.32033399 0.3935532 1.1600001
0.32264575 0.39389247 1.161
0.32356277 0.39253539 1.1570001
0.32446572 0.39117831 1.153
0.325921 0.39049977 1.151
0.32679942 0.38914269 1.1470001
0.32881048 0.38914269 1.1470001
0.33082157 0.38914269 1.1470001
0.33283263 0.38914269 1.1470001
0.33455178 0.38880342 1.146
0.33509269 0.38710707 1.141
0.33591148 0.38575 1.1370001
0.33820221 0.38608927 1.138
0.3401975 0.38608927 1.138
0.3424935 0.38642853 1.1390001
0.34648758 0.38642853 1.1390001
0.34848464 0.38642853 1.1390001
0.3541742 0.39049977 1.151
0.35619229 0.39049977 1.151
0.35634309 0.38846415 1.1450001
0.35709876 0.38710707 1.141
0.35909933 0.38710707 1.141
0.36109987 0.38710707 1.141
0.36310044 0.38710707 1.141
0.36510098 0.38710707 1.141
0.36710152 0.38710707 1.141
0.36910209 0.38710707 1.141
0.3707774 0.3867678 1.1400001
0.37244919 0.38642853 1.1390001
0.37444624 0.38642853 1.1390001
0.3764433 0.38642853 1.1390001
0.37844035 0.38642853 1.1390001
0.38043737 0.38642853 1.1390001
0.38243443 0.38642853 1.1390001
0.38443148 0.38642853 1.1390001
0.38642853 0.38642853 1.1390001
0.38842559 0.38642853 1.1390001
0.39007986 0.38608927 1.138
0.39173061 0.38575 1.1370001
0.39372414 0.38575 1.1370001
0.39606571 0.38608927 1.138
0.39806101 0.38608927 1.138
0.4000563 0.38608927 1.138
0.4020516 0.38608927 1.138
0.40546709 0.38744634 1.1420001
0.40604219 0.38608927 1.138
0.40803748 0.38608927 1.138
0.41003278 0.38608927 1.138
0.41202807 0.38608927 1.138
0.41438717 0.38642853 1.1390001
0.4178465 0.38778561 1.143
0.41911593 0.38710707 1.141
0.41927108 0.38541073 1.136
0.42126289 0.38541073 1.136
0.42325467 0.38541073 1.136
0.42524645 0.38541073 1.136
0.42911869 0.38710707 1.141
0.43036357 0.38642853 1.1390001
0.43122181 0.38541073 1.136
0.43321359 0.38541073 1.136
0.4363547 0.38642853 1.1390001
0.44104573 0.38880342 1.146
0.4407354 0.3867678 1.1400001
0.44273421 0.3867678 1.1400001
0.44473299 0.3867678 1.1400001
0.44633994 0.38642853 1.1390001
0.44991148 0.38778561 1.143
0.45033401 0.38642853 1.1390001
0.45074254 0.38507146 1.1350001
0.45153594 0.38405365 1.1320001
0.45352072 0.38405365 1.1320001
0.45711502 0.38541073 1.136
0.45910683 0.38541073 1.136
0.46109861 0.38541073 1.136
0.46145979 0.38405365 1.1320001
0.46344456 0.38405365 1.1320001
0.46542934 0.38405365 1.1320001
0.46947867 0.38575 1.1370001
0.4714722 0.38575 1.1370001
0.47388217 0.38608927 1.138
0.47336844 0.38405365 1.1320001
0.47535321 0.38405365 1.1320001
0.48028973 0.38642853 1.1390001
0.48228678 0.38642853 1.1390001
0.48598453 0.38778561 1.143
0.48798862 0.38778561 1.143
0.48999268 0.38778561 1.143
0.49328807 0.38880342 1.146
0.49486518 0.38846415 1.1450001
0.4973067 0.38880342 1.146
0.49975172 0.38914269 1.1470001
0.50001299 0.38778561 1.143
0.50157779 0.38744634 1.1420001
0.50402111 0.38778561 1.143
0.50779599 0.38914269 1.1470001
0.51336282 0.39185685 1.1550001
0.51851153 0.39423174 1.1620001
0.52054888 0.39423174 1.1620001
0.52258629 0.39423174 1.1620001
0.52462363 0.39423174 1.1620001
0.52802074 0.39524955 1.1650001
0.52824336 0.39389247 1.161
0.5257116 0.39049977 1.151
0.52452016 0.38812488 1.1440001
0.52514523 0.38710707 1.141
0.5271458 0.38710707 1.141
0.52821887 0.38642853 1.1390001
0.53021586 0.38642853 1.1390001
0.53221291 0.38642853 1.1390001
0.53233391 0.38507146 1.1350001
0.53432393 0.38507146 1.1350001
0.53631395 0.38507146 1.1350001
0.53830403 0.38507146 1.1350001
0.54029405 0.38507146 1.1350001
0.54228407 0.38507146 1.1350001
0.54427409 0.38507146 1.1350001
0.54626417 0.38507146 1.1350001
0.54825419 0.38507146 1.1350001
0.5512138 0.38575 1.1370001
0.55953252 0.3901605 1.1500001
0.56936169 0.39558882 1.166
0.57140607 0.39558882 1.166
0.57197505 0.39457101 1.1630001
0.57401413 0.39457101 1.1630001
0.57605326 0.39457101 1.1630001
0.5761041 0.39321393 1.159
0.31260705 0.39354092 1.154
0.31435776 0.39319989 1.153
0.31637937 0.39319989 1.153
0.31840095 0.39319989 1.153
0.31931093 0.39183581 1.149
0.32132551 0.39183581 1.149
0.32334009 0.39183581 1.149
0.32450518 0.39081272 1.146
0.32651451 0.39081272 1.146
0.32766381 0.38978967 1.143
0.32966787 0.38978967 1.143
0.33283263 0.39115375 1.1470001
0.33338407 0.38944864 1.1420001
0.33568004 0.38978967 1.143
0.33650237 0.38842559 1.1390001
0.3384994 0.38842559 1.1390001
0.34049645 0.38842559 1.1390001
0.3424935 0.38842559 1.1390001
0.34449056 0.38842559 1.1390001
0.34648758 0.38842559 1.1390001
0.34848464 0.38842559 1.1390001
0.35294336 0.39115375 1.1470001
0.35495445 0.39115375 1.1470001
0.35665429 0.39081272 1.146
0.35709876 0.38910761 1.141
0.35909933 0.38910761 1.141
0.36109987 0.38910761 1.141
0.36310044 0.38910761 1.141
0.36510098 0.38910761 1.141
0.36710152 0.38910761 1.141
0.36910209 0.38910761 1.141
0.3707774 0.38876659 1.1400001
0.37244919 0.38842559 1.1390001
0.37444624 0.38842559 1.1390001
0.3764433 0.38842559 1.1390001
0.37844035 0.38842559 1.1390001
0.38043737 0.38842559 1.1390001
0.38243443 0.38842559 1.1390001
0.38443148 0.38842559 1.1390001
0.38642853 0.38842559 1.1390001
0.38842559 0.38842559 1.1390001
0.39007986 0.38808456 1.138
0.39069703 0.38672045 1.1340001
0.39095387 0.38501534 1.1290001
0.3929334 0.38501534 1.1290001
0.39666185 0.38672045 1.1340001
0.39689243 0.38501534 1.1290001
0.39887193 0.38501534 1.1290001
0.40369186 0.38774353 1.1370001
0.4056854 0.38774353 1.1370001
0.40767893 0.38774353 1.1370001
0.40967247 0.38774353 1.1370001
0.41202807 0.38808456 1.138
0.41402337 0.38808456 1.138
0.41601866 0.38808456 1.138
0.41764662 0.38774353 1.1370001
0.41964015 0.38774353 1.1370001
0.42163372 0.38774353 1.1370001
0.42325467 0.3874025 1.136
0.42524645 0.3874025 1.136
0.42911869 0.38910761 1.141
0.4299857 0.38808456 1.138
0.43122181 0.3874025 1.136
0.43321359 0.3874025 1.136
0.4363547 0.38842559 1.1390001
0.43950632 0.38944864 1.1420001
0.43918896 0.3874025 1.136
0.44118074 0.3874025 1.136
0.44317254 0.3874025 1.136
0.44477245 0.38706148 1.1350001
0.44676247 0.38706148 1.1350001
0.44875252 0.38706148 1.1350001
0.45074254 0.38706148 1.1350001
0.45033929 0.38501534 1.1290001
0.45231879 0.38501534 1.1290001
0.45550549 0.38603842 1.1320001
0.45749024 0.38603842 1.1320001
0.46109861 0.3874025 1.136
0.46309039 0.3874025 1.136
0.4650822 0.3874025 1.136
0.46748513 0.38774353 1.1370001
0.46947867 0.38774353 1.1370001
0.4714722 0.38774353 1.1370001
0.47346574 0.38774353 1.1370001
0.47253209 0.38535637 1.13
0.47535321 0.38603842 1.1320001
0.47860301 0.38706148 1.1350001
0.48059306 0.38706148 1.1350001
0.48258308 0.38706148 1.1350001
0.48457313 0.38706148 1.1350001
0.48656315 0.38706148 1.1350001
0.49027497 0.38842559 1.1390001
0.49313641 0.38910761 1.141
0.49383509 0.38808456 1.138
0.49583039 0.38808456 1.138
0.49782568 0.38808456 1.138
0.49850336 0.38706148 1.1350001
0.50225723 0.38842559 1.1390001
0.50469702 0.38876659 1.1400001
0.50847369 0.3901307 1.1440001
0.51092571 0.39047173 1.1450001
0.51338124 0.39081272 1.146
0.51179272 0.38808456 1.138
0.51288503 0.3874025 1.136
0.52802074 0.39729217 1.1650001
0.52824336 0.39592808 1.161
0.52114415 0.38910761 1.141
0.52314472 0.38910761 1.141
0.52330422 0.38774353 1.1370001
0.52529776 0.38774353 1.1370001
0.52821887 0.38842559 1.1390001
0.53021586 0.38842559 1.1390001
0.53221291 0.38842559 1.1390001
0.53233391 0.38706148 1.1350001
0.53432393 0.38706148 1.1350001
0.53631395 0.38706148 1.1350001
0.53830403 0.38706148 1.1350001
0.54029405 0.38706148 1.1350001
0.54228407 0.38706148 1.1350001
0.54427409 0.38706148 1.1350001
0.54626417 0.38706148 1.1350001
0.54825419 0.38706148 1.1350001
0.5512138 0.38774353 1.1370001
0.5556401 0.38944864 1.1420001
0.55813068 0.38978967 1.143
0.56209499 0.39115375 1.1470001
0.56410605 0.39115375 1.1470001
0.56858498 0.39285886 1.1520001
0.5706048 0.39285886 1.1520001
0.57262462 0.39285886 1.1520001
0.3117944 0.39453593 1.151
0.31353983 0.39419317 1.1500001
0.31555617 0.39419317 1.1500001
0.31729636 0.39385039 1.149
0.3179214 0.39213651 1.1440001
0.31992722 0.39213651 1.1440001
0.3208074 0.3907654 1.1400001
0.32308936 0.39110819 1.141
0.32537484 0.39145094 1.1420001
0.32766381 0.39179373 1.143
0.32966787 0.39179373 1.143
0.33167192 0.39179373 1.143
0.33338407 0.39145094 1.1420001
0.33568004 0.39179373 1.143
0.33768409 0.39179373 1.143
0.33968818 0.39179373 1.143
0.34169224 0.39179373 1.143
0.3424935 0.39042261 1.1390001
0.34449056 0.39042261 1.1390001
0.34648758 0.39042261 1.1390001
0.34848464 0.39042261 1.1390001
0.35294336 0.39316484 1.1470001
0.35371658 0.39179373 1.143
0.35572064 0.39179373 1.143
0.35741174 0.39145094 1.1420001
0.35815516 0.39007986 1.138
0.36015046 0.39007986 1.138
0.36182752 0.38973707 1.1370001
0.36350107 0.38939428 1.136
0.36549285 0.38939428 1.136
0.36748463 0.38939428 1.136
0.36947644 0.38939428 1.136
0.37146822 0.38939428 1.136
0.37345999 0.38939428 1.136
0.3751213 0.38905153 1.1350001
0.37578228 0.38768041 1.131
0.3777653 0.38768041 1.131
0.38142714 0.38939428 1.136
0.38341892 0.38939428 1.136
0.38507146 0.38905153 1.1350001
0.38706148 0.38905153 1.1350001
0.38905153 0.38905153 1.1350001
0.39069703 0.38870874 1.1340001
0.39095387 0.38699487 1.1290001
0.3929334 0.38699487 1.1290001
0.3949129 0.38699487 1.1290001
0.39689243 0.38699487 1.1290001
0.39887193 0.38699487 1.1290001
0.40369186 0.38973707 1.1370001
0.40461498 0.38870874 1.1340001
0.40660325 0.38870874 1.1340001
0.40823123 0.38836595 1.133
0.41166601 0.38973707 1.1370001
0.41438717 0.39042261 1.1390001
0.41638422 0.39042261 1.1390001
0.41801396 0.39007986 1.138
0.41964015 0.38973707 1.1370001
0.42163372 0.38973707 1.1370001
0.42362726 0.38973707 1.1370001
0.42562079 0.38973707 1.1370001
0.42911869 0.39110819 1.141
0.42960787 0.38973707 1.1370001
0.431981 0.39007986 1.138
0.43397629 0.39007986 1.138
0.43520537 0.38939428 1.136
0.43873659 0.3907654 1.1400001
0.43957555 0.38973707 1.1370001
0.44195747 0.39007986 1.138
0.44356266 0.38973707 1.1370001
0.44477245 0.38905153 1.1350001
0.44676247 0.38905153 1.1350001
0.44756639 0.3880232 1.1320001
0.4487569 0.38733763 1.13
0.45033929 0.38699487 1.1290001
0.45231879 0.38699487 1.1290001
0.45429832 0.38699487 1.1290001
0.45627782 0.38699487 1.1290001
0.45825735 0.38699487 1.1290001
0.46145979 0.3880232 1.1320001
0.46344456 0.3880232 1.1320001
0.46542934 0.3880232 1.1320001
0.46741411 0.3880232 1.1320001
0.46939889 0.3880232 1.1320001
0.47138366 0.3880232 1.1320001
0.47253209 0.38733763 1.13
0.47535321 0.3880232 1.1320001
0.47733799 0.3880232 1.1320001
0.48059306 0.38905153 1.1350001
0.48258308 0.38905153 1.1350001
0.48457313 0.38905153 1.1350001
0.48656315 0.38905153 1.1350001
0.48812273 0.38870874 1.1340001
0.4918398 0.39007986 1.138
0.49166533 0.38836595 1.133
0.49365187 0.38836595 1.133
0.49738821 0.38973707 1.1370001
0.49938178 0.38973707 1.1370001
0.50137532 0.38973707 1.1370001
0.50292611 0.38939428 1.136
0.50491792 0.38939428 1.136
0.50735593 0.38973707 1.1370001
0.50979745 0.39007986 1.138
0.51179272 0.39007986 1.138
0.51288503 0.38939428 1.136
0.51306391 0.3880232 1.1320001
0.51550364 0.38836595 1.133
0.52023065 0.39042261 1.1390001
0.5222277 0.39042261 1.1390001
0.52238375 0.38905153 1.1350001
0.52437377 0.38905153 1.1350001
0.52821887 0.39042261 1.1390001
0.53021586 0.39042261 1.1390001
0.53034389 0.38905153 1.1350001
0.53233391 0.38905153 1.1350001
0.53432393 0.38905153 1.1350001
0.53631395 0.38905153 1.1350001
0.53830403 0.38905153 1.1350001
0.53838992 0.38768041 1.131
0.54037297 0.38768041 1.131
0.54427409 0.38905153 1.1350001
0.54482025 0.3880232 1.1320001
0.54680502 0.3880232 1.1320001
0.55072904 0.38939428 1.136
0.55320734 0.38973707 1.1370001
0.5561775 0.39042261 1.1390001
0.55621433 0.38905153 1.1350001
0.55918795 0.38973707 1.1370001
0.56118149 0.38973707 1.1370001
0.56119376 0.38836595 1.133
0.56318033 0.38836595 1.133
0.3117944 0.39655402 1.151
0.31353983 0.39620951 1.1500001
0.31418419 0.39448684 1.1450001
0.31619176 0.39448684 1.1450001
0.3168098 0.39276421 1.1400001
0.31880859 0.39276421 1.1400001
0.3208074 0.39276421 1.1400001
0.32308936 0.39310873 1.141
0.32537484 0.39345327 1.1420001
0.32737714 0.39345327 1.1420001
0.32966787 0.39379779 1.143
0.33167192 0.39379779 1.143
0.33338407 0.39345327 1.1420001
0.33568004 0.39379779 1.143
0.33532062 0.39104155 1.1350001
0.33731064 0.39104155 1.1350001
0.33930069 0.39104155 1.1350001
0.3424935 0.39241967 1.1390001
0.34449056 0.39241967 1.1390001
0.34770441 0.39379779 1.143
0.34970847 0.39379779 1.143
0.35294336 0.3951759 1.1470001
0.35371658 0.39379779 1.143
0.35572064 0.39379779 1.143
0.3577247 0.39379779 1.143
0.35846987 0.39241967 1.1390001
0.36046693 0.39241967 1.1390001
0.36246398 0.39241967 1.1390001
0.36318108 0.39104155 1.1350001
0.36452764 0.39035249 1.133
0.36683765 0.39069703 1.1340001
0.36785021 0.38966343 1.131
0.36983323 0.38966343 1.131
0.37181625 0.38966343 1.131
0.37412977 0.39000794 1.1320001
0.37578228 0.38966343 1.131
0.3777653 0.38966343 1.131
0.37974831 0.38966343 1.131
0.38173136 0.38966343 1.131
0.38473219 0.39069703 1.1340001
0.38672045 0.39069703 1.1340001
0.38870874 0.39069703 1.1340001
0.39069703 0.39069703 1.1340001
0.39268529 0.39069703 1.1340001
0.39432555 0.39035249 1.133
0.39526269 0.38931888 1.13
0.39689243 0.38897437 1.1290001
0.40028512 0.39035249 1.133
0.40262669 0.39069703 1.1340001
0.40461498 0.39069703 1.1340001
0.40660325 0.39069703 1.1340001
0.40823123 0.39035249 1.133
0.41021776 0.39035249 1.133
0.41293192 0.39104155 1.1350001
0.41638422 0.39241967 1.1390001
0.41801396 0.39207515 1.138
0.41964015 0.39173061 1.1370001
0.42163372 0.39173061 1.1370001
0.42250949 0.39069703 1.1340001
0.42449778 0.39069703 1.1340001
0.42648605 0.39069703 1.1340001
0.4280965 0.39035249 1.133
0.43084222 0.39104155 1.1350001
0.43283224 0.39104155 1.1350001
0.43482229 0.39104155 1.1350001
0.43719718 0.39138609 1.136
0.43918896 0.39138609 1.136
0.44156912 0.39173061 1.1370001
0.44317254 0.39138609 1.136
0.44477245 0.39104155 1.1350001
0.44676247 0.39104155 1.1350001
0.44677565 0.38931888 1.13
0.44835976 0.38897437 1.1290001
0.45033929 0.38897437 1.1290001
0.45231879 0.38897437 1.1290001
0.45429832 0.38897437 1.1290001
0.45627782 0.38897437 1.1290001
0.45825735 0.38897437 1.1290001
0.46023685 0.38897437 1.1290001
0.46221635 0.38897437 1.1290001
0.46419588 0.38897437 1.1290001
0.46741411 0.39000794 1.1320001
0.46939889 0.39000794 1.1320001
0.47013441 0.38897437 1.1290001
0.47253209 0.38931888 1.13
0.4749333 0.38966343 1.131
0.47691631 0.38966343 1.131
0.48059306 0.39104155 1.1350001
0.48130754 0.39000794 1.1320001
0.48329231 0.39000794 1.1320001
0.48527709 0.39000794 1.1320001
0.48855317 0.39104155 1.1350001
0.49054322 0.39104155 1.1350001
0.49209929 0.39069703 1.1340001
0.49408758 0.39069703 1.1340001
0.49520093 0.39000794 1.1320001
0.49718571 0.39000794 1.1320001
0.50137532 0.39173061 1.1370001
0.50292611 0.39138609 1.136
0.50491792 0.39138609 1.136
0.50690973 0.39138609 1.136
0.50890148 0.39138609 1.136
0.50909436 0.39000794 1.1320001
0.51107913 0.39000794 1.1320001
0.51306391 0.39000794 1.1320001
0.51595867 0.39069703 1.1340001
0.5188604 0.39138609 1.136
0.52085221 0.39138609 1.136
0.52238375 0.39104155 1.1350001
0.52437377 0.39104155 1.1350001
0.52636379 0.39104155 1.1350001
0.53021586 0.39241967 1.1390001
0.53034389 0.39104155 1.1350001
0.53233391 0.39104155 1.1350001
0.53432393 0.39104155 1.1350001
0.53631395 0.39104155 1.1350001
0.53830403 0.39104155 1.1350001
0.53791392 0.38931888 1.13
0.54132849 0.39035249 1.133
0.54331505 0.39035249 1.133
0.54482025 0.39000794 1.1320001
0.54680502 0.39000794 1.1320001
0.5487898 0.39000794 1.1320001
0.54931498 0.38897437 1.1290001
0.55178279 0.38931888 1.13
0.55425411 0.38966343 1.131
0.55967975 0.39207515 1.138
0.56167507 0.39207515 1.138
0.55921251 0.38897437 1.1290001
0.56119204 0.38897437 1.1290001
0.31206527 0.39891839 1.1520001
0.31244925 0.39684069 1.146
0.31418419 0.39649442 1.1450001
0.31508714 0.39510927 1.141
0.31542027 0.39303157 1.1350001
0.31741032 0.39303157 1.1350001
0.31940034 0.39303157 1.1350001
0.32195669 0.39372414 1.1370001
0.3230955 0.39268529 1.1340001
0.32537046 0.39303157 1.1350001
0.32736048 0.39303157 1.1350001
0.3293505 0.39303157 1.1350001
0.33134055 0.39303157 1.1350001
0.33333057 0.39303157 1.1350001
0.33413887 0.39164644 1.131
0.33612189 0.39164644 1.131
0.3381049 0.39164644 1.131
0.34129071 0.39303157 1.1350001
0.34328076 0.39303157 1.1350001
0.34770441 0.39580184 1.143
0.34970847 0.39580184 1.143
0.35171252 0.39580184 1.143
0.35371658 0.39580184 1.143
0.35572064 0.39580184 1.143
0.35647282 0.39441672 1.1390001
0.35846987 0.39441672 1.1390001
0.35951748 0.39337787 1.136
0.36150926 0.39337787 1.136
0.36190113 0.39164644 1.131
0.36324069 0.39095387 1.1290001
0.36554369 0.39130017 1.13
0.36785021 0.39164644 1.131
0.36983323 0.39164644 1.131
0.37181625 0.39164644 1.131
0.37280777 0.3906076 1.128
0.37445325 0.39026132 1.1270001
0.37642926 0.39026132 1.1270001
0.37974831 0.39164644 1.131
0.38173136 0.39164644 1.131
0.38371438 0.39164644 1.131
0.38433328 0.39026132 1.1270001
0.38562375 0.38956875 1.125
0.38931888 0.39130017 1.13
0.39130017 0.39130017 1.13
0.39467359 0.39268529 1.1340001
0.39666185 0.39268529 1.1340001
0.39865014 0.39268529 1.1340001
0.40063843 0.39268529 1.1340001
0.40262669 0.39268529 1.1340001
0.40283096 0.39095387 1.1290001
0.40516904 0.39130017 1.13
0.40678999 0.39095387 1.1290001
0.40876949 0.39095387 1.1290001
0.41256809 0.39268529 1.1340001
0.41455638 0.39268529 1.1340001
0.41654465 0.39268529 1.1340001
0.41853294 0.39268529 1.1340001
0.42126289 0.39337787 1.136
0.42250949 0.39268529 1.1340001
0.42449778 0.39268529 1.1340001
0.42535779 0.39164644 1.131
0.42734081 0.39164644 1.131
0.42932382 0.39164644 1.131
0.43206954 0.39233902 1.133
0.43482229 0.39303157 1.1350001
0.43719718 0.39337787 1.136
0.43918896 0.39337787 1.136
0.44118074 0.39337787 1.136
0.44200218 0.39233902 1.133
0.44359684 0.39199272 1.1320001
0.44558161 0.39199272 1.1320001
0.447171 0.39164644 1.131
0.44915402 0.39164644 1.131
0.44874376 0.38956875 1.125
0.45071626 0.38956875 1.125
0.45268875 0.38956875 1.125
0.45466125 0.38956875 1.125
0.45825735 0.39095387 1.1290001
0.46023685 0.39095387 1.1290001
0.46221635 0.39095387 1.1290001
0.46419588 0.39095387 1.1290001
0.46617538 0.39095387 1.1290001
0.46815491 0.39095387 1.1290001
0.47055084 0.39130017 1.13
0.47253209 0.39130017 1.13
0.4749333 0.39164644 1.131
0.47522959 0.39026132 1.1270001
0.4772056 0.39026132 1.1270001
0.47960681 0.3906076 1.128
0.48158455 0.3906076 1.128
0.48356232 0.3906076 1.128
0.48554006 0.3906076 1.128
0.48708564 0.39026132 1.1270001
0.49123141 0.39199272 1.1320001
0.49278048 0.39164644 1.131
0.49388859 0.39095387 1.1290001
0.49718571 0.39199272 1.1320001
0.49917048 0.39199272 1.1320001
0.50071257 0.39164644 1.131
0.50491792 0.39337787 1.136
0.50690973 0.39337787 1.136
0.50666159 0.39164644 1.131
0.50909436 0.39199272 1.1320001
0.51107913 0.39199272 1.1320001
0.51306391 0.39199272 1.1320001
0.51595867 0.39268529 1.1340001
0.51794696 0.39268529 1.1340001
0.52085221 0.39337787 1.136
0.52284402 0.39337787 1.136
0.52483577 0.39337787 1.136
0.52682757 0.39337787 1.136
0.53068137 0.39476299 1.1400001
0.53034389 0.39303157 1.1350001
0.53327197 0.39372414 1.1370001
0.53526551 0.39372414 1.1370001
0.53631395 0.39303157 1.1350001
0.53877831 0.39337787 1.136
0.53934199 0.39233902 1.133
0.54180628 0.39268529 1.1340001
0.54379457 0.39268529 1.1340001
0.54337639 0.39095387 1.1290001
0.54535592 0.39095387 1.1290001
0.54782021 0.39130017 1.13
0.54785532 0.38991502 1.126
0.55129445 0.39095387 1.1290001
0.55376405 0.39130017 1.13
0.55771255 0.39268529 1.1340001
0.55624586 0.39026132 1.1270001
0.55624062 0.38887617 1.123
0.5582096 0.38887617 1.123
0.32483217 0.42843312 1.2310001
0.32672489 0.42808509 1.23
0.32861412 0.42773706 1.2290001
0.3117944 0.40059021 1.151
0.31244925 0.39885002 1.146
0.31281221 0.3967618 1.1400001
0.31398255 0.39571768 1.1370001
0.31458658 0.39397749 1.1320001
0.31657135 0.39397749 1.1320001
0.31855613 0.39397749 1.1320001
0.32110721 0.39467359 1.1340001
0.32224074 0.39362946 1.131
0.32422376 0.39362946 1.131
0.32620677 0.39362946 1.131
0.32818982 0.39362946 1.131
0.32988089 0.39328143 1.13
0.33215585 0.39362946 1.131
0.33413887 0.39362946 1.131
0.33493313 0.39223734 1.1270001
0.33690915 0.39223734 1.1270001
0.33858445 0.39188927 1.126
0.34207094 0.39362946 1.131
0.34405395 0.39362946 1.131
0.3472608 0.39502162 1.1350001
0.35017398 0.39606571 1.138
0.35185981 0.39571768 1.1370001
0.35385334 0.39571768 1.1370001
0.35490799 0.39467359 1.1340001
0.35721099 0.39502162 1.1350001
0.35920101 0.39502162 1.1350001
0.35991812 0.39362946 1.131
0.36158118 0.39328143 1.13
0.36324069 0.3929334 1.1290001
0.36522022 0.3929334 1.1290001
0.36622399 0.39188927 1.126
0.36819825 0.39188927 1.126
0.37050125 0.39223734 1.1270001
0.37247726 0.39223734 1.1270001
0.37445325 0.39223734 1.1270001
0.37642926 0.39223734 1.1270001
0.37840527 0.39223734 1.1270001
0.38038129 0.39223734 1.1270001
0.3823573 0.39223734 1.1270001
0.38331023 0.39119321 1.1240001
0.38459542 0.39049715 1.1220001
0.38690719 0.39084518 1.123
0.38956875 0.39154124 1.125
0.39154124 0.39154124 1.125
0.39526269 0.39328143 1.13
0.39724398 0.39328143 1.13
0.39922523 0.39328143 1.13
0.40262669 0.39467359 1.1340001
0.40318775 0.39328143 1.13
0.40481049 0.3929334 1.1290001
0.40678999 0.3929334 1.1290001
0.40876949 0.3929334 1.1290001
0.41256809 0.39467359 1.1340001
0.41455638 0.39467359 1.1340001
0.41691199 0.39502162 1.1350001
0.41853294 0.39467359 1.1340001
0.42126289 0.39536965 1.136
0.42399982 0.39606571 1.138
0.42599511 0.39606571 1.138
0.42686215 0.39502162 1.1350001
0.42734081 0.39362946 1.131
0.42970341 0.39397749 1.1320001
0.43168819 0.39397749 1.1320001
0.43405607 0.39432555 1.133
0.43565774 0.39397749 1.1320001
0.43764251 0.39397749 1.1320001
0.44001564 0.39432555 1.133
0.44200218 0.39432555 1.133
0.44359684 0.39397749 1.1320001
0.44558161 0.39397749 1.1320001
0.44756639 0.39397749 1.1320001
0.4475655 0.39223734 1.1270001
0.44834486 0.39119321 1.1240001
0.45031562 0.39119321 1.1240001
0.45268875 0.39154124 1.125
0.45466125 0.39154124 1.125
0.45622784 0.39119321 1.1240001
0.45860624 0.39154124 1.125
0.46221635 0.3929334 1.1290001
0.46419588 0.3929334 1.1290001
0.46617538 0.3929334 1.1290001
0.46815491 0.3929334 1.1290001
0.47055084 0.39328143 1.13
0.47085941 0.39188927 1.126
0.47325361 0.39223734 1.1270001
0.47522959 0.39223734 1.1270001
0.4772056 0.39223734 1.1270001
0.47790608 0.39119321 1.1240001
0.47987682 0.39119321 1.1240001
0.48141888 0.39084518 1.123
0.48338786 0.39084518 1.123
0.48492464 0.39049715 1.1220001
0.48732585 0.39084518 1.123
0.49147335 0.39258537 1.128
0.49213874 0.39154124 1.125
0.49630728 0.39328143 1.13
0.49828857 0.39328143 1.13
0.4993844 0.39258537 1.128
0.5035845 0.39432555 1.133
0.50735593 0.39571768 1.1370001
0.50666159 0.39362946 1.131
0.50909436 0.39397749 1.1320001
0.51107913 0.39397749 1.1320001
0.51351714 0.39432555 1.133
0.51641363 0.39502162 1.1350001
0.51840371 0.39502162 1.1350001
0.52039373 0.39502162 1.1350001
0.52284402 0.39536965 1.136
0.52483577 0.39536965 1.136
0.52682757 0.39536965 1.136
0.53068137 0.3967618 1.1400001
0.53034389 0.39502162 1.1350001
0.53327197 0.39571768 1.1370001
0.53526551 0.39571768 1.1370001
0.53631395 0.39502162 1.1350001
0.53877831 0.39536965 1.136
0.53934199 0.39432555 1.133
0.54037297 0.39362946 1.131
0.54283547 0.39397749 1.1320001
0.544339 0.39362946 1.131
0.54390681 0.39188927 1.126
0.54588103 0.39188927 1.126
0.54785532 0.39188927 1.126
0.54934126 0.39154124 1.125
0.55180383 0.39188927 1.126
0.55426985 0.39223734 1.1270001
0.55427164 0.39084518 1.123
0.55624062 0.39084518 1.123
0.5582096 0.39084518 1.123
0.32483217 0.43059149 1.2310001
0.32672489 0.4302417 1.23
0.32968366 0.43129107 1.233
0.31043994 0.40085933 1.146
0.31217661 0.40050954 1.1450001
0.31253779 0.3984108 1.1390001
0.31343025 0.39701164 1.1350001
0.31486449 0.39631206 1.133
0.31713066 0.39666185 1.1340001
0.31911895 0.39666185 1.1340001
0.32025772 0.39561248 1.131
0.32110107 0.39421332 1.1270001
0.32307708 0.39421332 1.1270001
0.3250531 0.39421332 1.1270001
0.32702911 0.39421332 1.1270001
0.33017284 0.39561248 1.131
0.33215585 0.39561248 1.131
0.3344343 0.39596227 1.1320001
0.33523032 0.39456311 1.128
0.3366102 0.39386353 1.126
0.33828375 0.39351374 1.125
0.3417685 0.39526269 1.13
0.34344557 0.3949129 1.1290001
0.34542507 0.3949129 1.1290001
0.3474046 0.3949129 1.1290001
0.3493841 0.3949129 1.1290001
0.35136363 0.3949129 1.1290001
0.35334313 0.3949129 1.1290001
0.35595208 0.39561248 1.131
0.3579351 0.39561248 1.131
0.35832697 0.39386353 1.126
0.36030123 0.39386353 1.126
0.36195374 0.39351374 1.125
0.36392626 0.39351374 1.125
0.36622399 0.39386353 1.126
0.36721724 0.39281416 1.123
0.369515 0.39316395 1.1240001
0.37148574 0.39316395 1.1240001
0.37345648 0.39316395 1.1240001
0.37542725 0.39316395 1.1240001
0.37739798 0.39316395 1.1240001
0.37936872 0.39316395 1.1240001
0.38133949 0.39316395 1.1240001
0.38194612 0.39176479 1.12
0.38356709 0.391415 1.1190001
0.38552907 0.391415 1.1190001
0.3885299 0.39246437 1.1220001
0.39084518 0.39281416 1.123
0.39246437 0.39246437 1.1220001
0.39548624 0.39351374 1.125
0.39745876 0.39351374 1.125
0.39943126 0.39351374 1.125
0.40283096 0.3949129 1.1290001
0.40481049 0.3949129 1.1290001
0.40678999 0.3949129 1.1290001
0.40876949 0.3949129 1.1290001
0.41111284 0.39526269 1.13
0.4130941 0.39526269 1.13
0.4172793 0.39736143 1.136
0.41927108 0.39736143 1.136
0.42052123 0.39666185 1.1340001
0.42288208 0.39701164 1.1350001
0.4248721 0.39701164 1.1350001
0.42761433 0.39771122 1.1370001
0.4280965 0.39631206 1.133
0.42818505 0.39456311 1.128
0.43092549 0.39526269 1.13
0.43252367 0.3949129 1.1290001
0.43411833 0.39456311 1.128
0.43764251 0.39596227 1.1320001
0.43923894 0.39561248 1.131
0.43966147 0.39421332 1.1270001
0.44163749 0.39421332 1.1270001
0.4436135 0.39421332 1.1270001
0.44558951 0.39421332 1.1270001
0.44716838 0.39386353 1.126
0.44834486 0.39316395 1.1240001
0.44991496 0.39281416 1.123
0.45228636 0.39316395 1.1240001
0.4542571 0.39316395 1.1240001
0.45582196 0.39281416 1.123
0.45860624 0.39351374 1.125
0.46057874 0.39351374 1.125
0.46419588 0.3949129 1.1290001
0.46617538 0.3949129 1.1290001
0.46815491 0.3949129 1.1290001
0.47055084 0.39526269 1.13
0.47085941 0.39386353 1.126
0.47283366 0.39386353 1.126
0.47480792 0.39386353 1.126
0.47508845 0.39246437 1.1220001
0.47748089 0.39281416 1.123
0.47774214 0.391415 1.1190001
0.48013279 0.39176479 1.12
0.48209652 0.39176479 1.12
0.48406026 0.39176479 1.12
0.48732585 0.39281416 1.123
0.48929483 0.39281416 1.123
0.49038893 0.39211458 1.1210001
0.49455047 0.39386353 1.126
0.49652472 0.39386353 1.126
0.49982712 0.3949129 1.1290001
0.50314003 0.39596227 1.1320001
0.50690973 0.39736143 1.136
0.50666159 0.39561248 1.131
0.50684571 0.39421332 1.1270001
0.50882173 0.39421332 1.1270001
0.51170421 0.3949129 1.1290001
0.51459366 0.39561248 1.131
0.51657671 0.39561248 1.131
0.51855975 0.39561248 1.131
0.52008247 0.39526269 1.13
0.52391177 0.39666185 1.1340001
0.52590007 0.39666185 1.1340001
0.52649182 0.39561248 1.131
0.52847481 0.39561248 1.131
0.53092688 0.39596227 1.1320001
0.53338242 0.39631206 1.133
0.5367865 0.39736143 1.136
0.53545833 0.3949129 1.1290001
0.53600979 0.39386353 1.126
0.53798401 0.39386353 1.126
0.5399583 0.39386353 1.126
0.54048866 0.39281416 1.123
0.54245764 0.39281416 1.123
0.54442668 0.39281416 1.123
0.54688221 0.39316395 1.1240001
0.54934126 0.39351374 1.125
0.55131376 0.39351374 1.125
0.55377805 0.39386353 1.126
0.55377805 0.39246437 1.1220001
0.5557453 0.39246437 1.1220001
0.55771255 0.39246437 1.1220001
0.32351279 0.43099213 1.2260001
0.32539675 0.43064058 1.225
0.32968366 0.43345293 1.233
0.33157638 0.43310139 1.2320001
0.31043994 0.40286866 1.146
0.31217661 0.40251711 1.1450001
0.31253779 0.40040785 1.1390001
0.31343025 0.39900169 1.1350001
0.31458658 0.39794704 1.1320001
0.31713066 0.39865014 1.1340001
0.31911895 0.39865014 1.1340001
0.32025772 0.39759549 1.131
0.32110107 0.39618933 1.1270001
0.32307708 0.39618933 1.1270001
0.3250531 0.39618933 1.1270001
0.32702911 0.39618933 1.1270001
0.32871318 0.39583778 1.126
0.33098111 0.39618933 1.1270001
0.33325255 0.39654088 1.128
0.33523032 0.39654088 1.128
0.3366102 0.39583778 1.126
0.33828375 0.39548624 1.125
0.33934891 0.39443162 1.1220001
0.34131613 0.39443162 1.1220001
0.34328339 0.39443162 1.1220001
0.34525061 0.39443162 1.1220001
0.34721786 0.39443162 1.1220001
0.35011876 0.39548624 1.125
0.35209125 0.39548624 1.125
0.35437846 0.39583778 1.126
0.3554033 0.39478317 1.123
0.35737228 0.39478317 1.123
0.35774136 0.39302546 1.118
0.3597016 0.39302546 1.118
0.36295578 0.39443162 1.1220001
0.36524826 0.39478317 1.123
0.36525527 0.39267391 1.1170001
0.36754251 0.39302546 1.118
0.37082472 0.39443162 1.1220001
0.37146294 0.39302546 1.118
0.37342319 0.39302546 1.118
0.37538341 0.39302546 1.118
0.37734362 0.39302546 1.118
0.37964314 0.39337698 1.1190001
0.38160512 0.39337698 1.1190001
0.38288152 0.39267391 1.1170001
0.38518453 0.39302546 1.118
0.38679847 0.39267391 1.1170001
0.38875696 0.39267391 1.1170001
0.39246437 0.39443162 1.1220001
0.39443162 0.39443162 1.1220001
0.39639887 0.39443162 1.1220001
0.39943126 0.39548624 1.125
0.40140375 0.39548624 1.125
0.40337625 0.39548624 1.125
0.40534875 0.39548624 1.125
0.40768331 0.39583778 1.126
0.40965757 0.39583778 1.126
0.41163182 0.39583778 1.126
0.41544268 0.39759549 1.131
0.4159494 0.39618933 1.1270001
0.41792542 0.39618933 1.1270001
0.4199014 0.39618933 1.1270001
0.42187741 0.39618933 1.1270001
0.42686215 0.39900169 1.1350001
0.42696297 0.39724398 1.13
0.42704624 0.39548624 1.125
0.42978144 0.39618933 1.1270001
0.43137434 0.39583778 1.126
0.43296376 0.39548624 1.125
0.43493626 0.39548624 1.125
0.43690875 0.39548624 1.125
0.43888125 0.39548624 1.125
0.44046187 0.39513472 1.1240001
0.44243261 0.39513472 1.1240001
0.44282186 0.39372852 1.12
0.44399133 0.39302546 1.118
0.44635046 0.39337698 1.1190001
0.44831243 0.39337698 1.1190001
0.4506768 0.39372852 1.12
0.45264053 0.39372852 1.12
0.45419836 0.39337698 1.1190001
0.45616034 0.39337698 1.1190001
0.45853174 0.39372852 1.12
0.46255124 0.39548624 1.125
0.46452373 0.39548624 1.125
0.46649626 0.39548624 1.125
0.46846876 0.39548624 1.125
0.47085941 0.39583778 1.126
0.47283366 0.39583778 1.126
0.47480792 0.39583778 1.126
0.47508845 0.39443162 1.1220001
0.47578016 0.39337698 1.1190001
0.47731519 0.39302546 1.118
0.47841802 0.39232236 1.1160001
0.48037475 0.39232236 1.1160001
0.48233148 0.39232236 1.1160001
0.48428819 0.39232236 1.1160001
0.48624492 0.39232236 1.1160001
0.48688927 0.39126772 1.113
0.4884015 0.3909162 1.1120001
0.49035123 0.3909162 1.1120001
0.49318635 0.39161927 1.1140001
0.49691746 0.39302546 1.118
0.50646347 0.39900169 1.1350001
0.50666159 0.39759549 1.131
0.50729543 0.39654088 1.128
0.50746727 0.39513472 1.1240001
0.50989127 0.39548624 1.125
0.51368374 0.39689243 1.1290001
0.51383626 0.39548624 1.125
0.51351625 0.39372852 1.12
0.51640052 0.39443162 1.1220001
0.51698172 0.39337698 1.1190001
0.51894373 0.39337698 1.1190001
0.5218367 0.39408007 1.1210001
0.52567124 0.39548624 1.125
0.52764374 0.39548624 1.125
0.53008699 0.39583778 1.126
0.53395134 0.39724398 1.13
0.5340355 0.39583778 1.126
0.53458166 0.39478317 1.123
0.53416175 0.39302546 1.118
0.53612196 0.39302546 1.118
0.53760093 0.39267391 1.1170001
0.53955942 0.39267391 1.1170001
0.54200268 0.39302546 1.118
0.544936 0.39372852 1.12
0.54738802 0.39408007 1.1210001
0.55131376 0.39548624 1.125
0.55377805 0.39583778 1.126
0.55328447 0.39408007 1.1210001
0.5557453 0.39443162 1.1220001
0.55771255 0.39443162 1.1220001
0.32219341 0.43137524 1.2210001
0.32539675 0.4327884 1.225
0.32727718 0.43243513 1.2240001
0.32915413 0.43208182 1.223
0.30935639 0.40346479 1.1420001
0.31108603 0.40311149 1.141
0.31253779 0.4024049 1.1390001
0.31149721 0.39851865 1.128
0.31375286 0.39887193 1.1290001
0.31601202 0.39922523 1.13
0.31799328 0.39922523 1.13
0.32025772 0.39957854 1.131
0.32110107 0.39816535 1.1270001
0.32307708 0.39816535 1.1270001
0.32303414 0.39569226 1.12
0.32499787 0.39569226 1.12
0.32812932 0.39710546 1.1240001
0.33010006 0.39710546 1.1240001
0.3320708 0.39710546 1.1240001
0.33404157 0.39710546 1.1240001
0.33571336 0.39675215 1.123
0.33738166 0.39639887 1.1220001
0.33813909 0.39498568 1.118
0.33979511 0.39463237 1.1170001
0.34052977 0.39321917 1.113
0.34248123 0.39321917 1.113
0.34567055 0.39463237 1.1170001
0.34762901 0.39463237 1.1170001
0.3495875 0.39463237 1.1170001
0.35186067 0.39498568 1.118
0.35413739 0.39533898 1.1190001
0.35609937 0.39533898 1.1190001
0.35774136 0.39498568 1.118
0.3597016 0.39498568 1.118
0.36166182 0.39498568 1.118
0.3639473 0.39533898 1.1190001
0.36558226 0.39498568 1.118
0.36754251 0.39498568 1.118
0.36950272 0.39498568 1.118
0.37146294 0.39498568 1.118
0.37242115 0.39392579 1.115
0.37437612 0.39392579 1.115
0.37633109 0.39392579 1.115
0.3786253 0.39427906 1.1160001
0.38092306 0.39463237 1.1170001
0.38288152 0.39463237 1.1170001
0.38380641 0.39357248 1.1140001
0.38610592 0.39392579 1.115
0.38771284 0.39357248 1.1140001
0.39106521 0.39498568 1.118
0.39302546 0.39498568 1.118
0.39498568 0.39498568 1.118
0.39836609 0.39639887 1.1220001
0.40033334 0.39639887 1.1220001
0.40050781 0.39463237 1.1170001
0.40282658 0.39498568 1.118
0.40659711 0.39675215 1.123
0.40856612 0.39675215 1.123
0.4105351 0.39675215 1.123
0.41287142 0.39710546 1.1240001
0.41447309 0.39675215 1.123
0.4164421 0.39675215 1.123
0.41878366 0.39710546 1.1240001
0.4207544 0.39710546 1.1240001
0.42234907 0.39675215 1.123
0.42431808 0.39675215 1.123
0.42628706 0.39675215 1.123
0.42863739 0.39710546 1.1240001
0.42830953 0.39498568 1.118
0.43026975 0.39498568 1.118
0.43416303 0.39675215 1.123
0.43419021 0.39498568 1.118
0.43615043 0.39498568 1.118
0.43771878 0.39463237 1.1170001
0.43928364 0.39427906 1.1160001
0.44124037 0.39427906 1.1160001
0.44319707 0.39427906 1.1160001
0.44355828 0.3928659 1.1120001
0.44751117 0.39463237 1.1170001
0.44946963 0.39463237 1.1170001
0.45102397 0.39427906 1.1160001
0.45298067 0.39427906 1.1160001
0.4549374 0.39427906 1.1160001
0.45689413 0.39427906 1.1160001
0.45967314 0.39498568 1.118
0.46163338 0.39498568 1.118
0.4635936 0.39498568 1.118
0.46555382 0.39498568 1.118
0.46751407 0.39498568 1.118
0.46947429 0.39498568 1.118
0.4714345 0.39498568 1.118
0.47339475 0.39498568 1.118
0.47535497 0.39498568 1.118
0.47731519 0.39498568 1.118
0.47841802 0.39427906 1.1160001
0.48037475 0.39427906 1.1160001
0.48233148 0.39427906 1.1160001
0.48428819 0.39427906 1.1160001
0.48668063 0.39463237 1.1170001
0.48776418 0.39392579 1.115
0.48752311 0.39215928 1.11
0.48946929 0.39215928 1.11
0.49185821 0.39251259 1.1110001
0.49513957 0.39357248 1.1140001
0.49709278 0.39357248 1.1140001
0.49546218 0.39074612 1.1060001
0.5054965 0.39710546 1.1240001
0.50791878 0.39745876 1.125
0.51034451 0.39781204 1.126
0.51231873 0.39781204 1.126
0.50926882 0.39392579 1.115
0.5098483 0.3928659 1.1120001
0.51317877 0.39392579 1.115
0.51374769 0.3928659 1.1120001
0.51569742 0.3928659 1.1120001
0.51857811 0.39357248 1.1140001
0.52053136 0.39357248 1.1140001
0.52248454 0.39357248 1.1140001
0.52302545 0.39251259 1.1110001
0.52497339 0.39251259 1.1110001
0.52929276 0.39427906 1.1160001
0.53077346 0.39392579 1.115
0.53272843 0.39392579 1.115
0.53468341 0.39392579 1.115
0.53615707 0.39357248 1.1140001
0.53811026 0.39357248 1.1140001
0.5400635 0.39357248 1.1140001
0.54444945 0.39533898 1.1190001
0.54738802 0.39604557 1.1210001
0.54935354 0.39604557 1.1210001
0.54984355 0.39498568 1.118
0.55180383 0.39498568 1.118
0.5557453 0.39639887 1.1220001
0.55771255 0.39639887 1.1220001
0.32219341 0.43351606 1.2210001
0.32539675 0.43493626 1.225
0.32700983 0.43422616 1.223
0.30977631 0.40866256 1.151
0.30935639 0.40546709 1.1420001
0.31108603 0.40511206 1.141
0.31281221 0.40475699 1.1400001
0.31481099 0.40475699 1.1400001
0.31347495 0.40049639 1.128
0.31601202 0.40120649 1.13
0.31799328 0.40120649 1.13
0.32025772 0.40156156 1.131
0.31825191 0.39659086 1.1170001
0.3202104 0.39659086 1.1170001
0.32216886 0.39659086 1.1170001
0.32412735 0.39659086 1.1170001
0.32637775 0.39694589 1.118
0.3280443 0.39659086 1.1170001
0.33059362 0.39730096 1.1190001
0.33255562 0.39730096 1.1190001
0.33421865 0.39694589 1.118
0.33497608 0.39552569 1.1140001
0.33692929 0.39552569 1.1140001
0.33888251 0.39552569 1.1140001
0.34052977 0.39517066 1.113
0.34217352 0.39481559 1.1120001
0.34443268 0.39517066 1.113
0.34638414 0.39517066 1.113
0.34896156 0.39588076 1.115
0.3509165 0.39588076 1.115
0.35318795 0.39623579 1.1160001
0.35546291 0.39659086 1.1170001
0.35742137 0.39659086 1.1170001
0.35905811 0.39623579 1.1160001
0.36101484 0.39623579 1.1160001
0.3639473 0.39730096 1.1190001
0.36558226 0.39694589 1.118
0.36754251 0.39694589 1.118
0.36950272 0.39694589 1.118
0.37146294 0.39694589 1.118
0.37242115 0.39588076 1.115
0.37437612 0.39588076 1.115
0.37633109 0.39588076 1.115
0.3786253 0.39623579 1.1160001
0.38092306 0.39659086 1.1170001
0.38288152 0.39659086 1.1170001
0.38415095 0.39588076 1.115
0.38610592 0.39588076 1.115
0.38771284 0.39552569 1.1140001
0.39106521 0.39694589 1.118
0.39302546 0.39694589 1.118
0.39498568 0.39694589 1.118
0.39836609 0.39836609 1.1220001
0.40033334 0.39836609 1.1220001
0.40050781 0.39659086 1.1170001
0.40282658 0.39694589 1.118
0.4047868 0.39694589 1.118
0.40856612 0.39872116 1.123
0.4105351 0.39872116 1.123
0.41287142 0.39907619 1.1240001
0.4129968 0.39730096 1.1190001
0.41495878 0.39730096 1.1190001
0.41729334 0.39765599 1.12
0.41925707 0.39765599 1.12
0.4208447 0.39730096 1.1190001
0.42242885 0.39694589 1.118
0.42476866 0.39730096 1.1190001
0.42673063 0.39730096 1.1190001
0.42869264 0.39730096 1.1190001
0.43026975 0.39694589 1.118
0.43261659 0.39730096 1.1190001
0.43419021 0.39694589 1.118
0.43615043 0.39694589 1.118
0.43771878 0.39659086 1.1170001
0.43928364 0.39623579 1.1160001
0.44084498 0.39588076 1.115
0.44279996 0.39588076 1.115
0.44395715 0.39517066 1.113
0.44550797 0.39481559 1.1120001
0.44946963 0.39659086 1.1170001
0.44981152 0.39517066 1.113
0.45176297 0.39517066 1.113
0.45330679 0.39481559 1.1120001
0.45525649 0.39481559 1.1120001
0.45761737 0.39517066 1.113
0.45956883 0.39517066 1.113
0.46152028 0.39517066 1.113
0.46347174 0.39517066 1.113
