# .PCD v0.7 - Point Cloud Data file format
VERSION 0.7
FIELDS x y z
SIZE 4 4 4
TYPE F F F
COUNT 1 1 1
WIDTH 1512
HEIGHT 1
VIEWPOINT 0 0 0 1 0 0 0
POINTS 1512
DATA ascii
0.51685458 0.0015709867 1.7920001
0.51970643 0.00157011 1.7910001
0.5308997 0.00157537 1.7970001
0.53464478 0.0015771233 1.7990001
0.54078847 0.00158589 1.8090001
0.54396027 0.00158589 1.8090001
0.55287862 0.0016025467 1.8280001
0.55608368 0.0016025467 1.8280001
0.55561733 0.0015920267 1.8160001
0.56126302 0.00159904 1.8240001
0.56446111 0.00159904 1.8240001
0.56112367 0.00158063 1.8030001
0.56365895 0.0015788766 1.8010001
0.5702787 0.00158852 1.812
0.57630402 0.0015964099 1.8210001
0.58045149 0.00159904 1.8240001
0.58652943 0.00160693 1.8330001
0.58974332 0.00160693 1.8330001
0.60736519 0.0016025467 1.8280001
0.60756421 0.0015946566 1.8190001
0.60403824 0.0015771233 1.7990001
0.60685498 0.0015762467 1.7980001
0.61034673 0.0015771233 1.7990001
0.61486506 0.00158063 1.8030001
0.61528409 0.0015736166 1.7950001
0.6187759 0.0015744934 1.7960001
0.62192488 0.0015744934 1.7960001
0.62542188 0.00157537 1.7970001
0.62857264 0.00157537 1.7970001
0.62188017 0.0015508233 1.7690001
0.62498182 0.0015508233 1.7690001
0.62808347 0.0015508233 1.7690001
0.63403952 0.0015578367 1.7770001
0.64074075 0.0015666033 1.7870001
0.64747709 0.00157537 1.7970001
0.65062779 0.00157537 1.7970001
0.6574167 0.0015841366 1.807
0.66021943 0.00158326 1.8060001
0.66742647 0.0015929033 1.817
0.66655248 0.00158326 1.8060001
0.66971898 0.00158326 1.8060001
0.67288548 0.00158326 1.8060001
0.672683 0.00157537 1.7970001
0.6758337 0.00157537 1.7970001
0.67180544 0.0015587133 1.7780001
0.67492288 0.0015587133 1.7780001
0.68528593 0.00157537 1.7970001
0.68843669 0.00157537 1.7970001
0.69235712 0.0015771233 1.7990001
0.70324361 0.0015946566 1.8190001
0.70565617 0.0015929033 1.817
0.70884198 0.0015929033 1.817
0.71202779 0.0015929033 1.817
0.7152136 0.0015929033 1.817
0.71879476 0.00159378 1.8180001
0.71959955 0.00158852 1.812
0.72277659 0.00158852 1.812
0.71994406 0.00157537 1.7970001
0.72430199 0.001578 1.8000001
0.73109531 0.00158589 1.8090001
0.73304939 0.00158326 1.8060001
0.73621589 0.00158326 1.8060001
0.73938239 0.00158326 1.8060001
0.74131548 0.00158063 1.8030001
0.74447674 0.00158063 1.8030001
0.73975939 0.0015639734 1.784
0.74288732 0.0015639734 1.784
0.74308807 0.0015578367 1.7770001
0.74284434 0.0015508233 1.7690001
0.744681 0.0015481933 1.766
0.7477774 0.0015481933 1.766
0.75087374 0.0015481933 1.766
0.75397015 0.0015481933 1.766
0.7579239 0.0015499466 1.7680001
0.76102382 0.0015499466 1.7680001
0.75980175 0.00154118 1.7580001
0.75941247 0.0015341666 1.7500001
0.76248085 0.0015341666 1.7500001
0.76161206 0.0015262767 1.7410001
0.76466459 0.0015262767 1.7410001
0.769481 0.0015297834 1.7450001
0.77254057 0.0015297834 1.7450001
0.77560014 0.0015297834 1.7450001
0.7782135 0.0015289066 1.7440001
0.78261524 0.0015315367 1.7470001
0.79377347 0.0015473167 1.7650001
0.8013829 0.0015560833 1.7750001
0.8044951 0.0015560833 1.7750001
0.81170213 0.0015639734 1.784
0.81483012 0.0015639734 1.784
0.82254303 0.00157274 1.794
0.82568848 0.00157274 1.794
0.82421392 0.0015639734 1.784
0.82734191 0.0015639734 1.784
0.83046985 0.0015639734 1.784
0.83827043 0.00157274 1.794
0.83719474 0.00156485 1.7850001
0.83608752 0.0015569599 1.7760001
0.84061903 0.00155959 1.779
0.8473413 0.00154907 1.7670001
0.85332716 0.00155433 1.7730001
0.86174929 0.0015639734 1.784
0.86827081 0.00157011 1.7910001
0.87092447 0.0015692334 1.7900001
0.87455124 0.00157011 1.7910001
0.87867159 0.0015718633 1.7930001
0.88181531 0.0015718633 1.7930001
0.88495904 0.0015718633 1.7930001
0.88810277 0.0015718633 1.7930001
0.21062267 0.0048234202 1.8340001
0.21407148 0.0048286798 1.8360001
0.38769269 0.0048260498 1.835
0.38877976 0.0047997502 1.825
0.39219436 0.0048023798 1.8260001
0.39539596 0.0048023798 1.8260001
0.39859754 0.0048023798 1.8260001
0.40179911 0.0048023798 1.8260001
0.40500072 0.0048023798 1.8260001
0.40820229 0.0048023798 1.8260001
0.52774894 0.00472611 1.7970001
0.53060424 0.00472348 1.7960001
0.53464478 0.0047313701 1.7990001
0.53779906 0.0047313701 1.7990001
0.61238235 0.00474715 1.8050001
0.61588812 0.0047497801 1.8060001
0.61596966 0.00472611 1.7970001
0.61912042 0.00472611 1.7970001
0.62227112 0.00472611 1.7970001
0.64432633 0.00472611 1.7970001
0.64747709 0.00472611 1.7970001
0.65388638 0.0047497801 1.8060001
0.65705287 0.0047497801 1.8060001
0.66424066 0.0047787102 1.817
0.66742647 0.0047787102 1.817
0.67379808 0.0047787102 1.817
0.67288548 0.0047497801 1.8060001
0.67605203 0.0047497801 1.8060001
0.6758337 0.00472611 1.7970001
0.67180544 0.0046761399 1.7780001
0.67454326 0.0046735099 1.7770001
0.71241963 0.0047813398 1.8180001
0.71560723 0.0047813398 1.8180001
0.71444565 0.0047524101 1.807
0.71959955 0.0047655599 1.812
0.72277659 0.0047655599 1.812
0.71994406 0.00472611 1.7970001
0.7238996 0.0047313701 1.7990001
0.73109531 0.0047576698 1.8090001
0.73304939 0.0047497801 1.8060001
0.74070007 0.0047787102 1.817
0.74388587 0.0047787102 1.817
0.74131548 0.0047418899 1.8030001
0.74447674 0.0047418899 1.8030001
0.74763799 0.0047418899 1.8030001
0.74871719 0.0047287401 1.7980001
0.74392444 0.00467877 1.779
0.74368423 0.00465773 1.771
0.7467894 0.00465773 1.771
0.7498945 0.00465773 1.771
0.76023394 0.0046261698 1.7590001
0.75941247 0.0046024998 1.7500001
0.76248085 0.0046024998 1.7500001
0.74542618 0.00448152 1.7040001
0.74885303 0.0044841501 1.705
0.75757498 0.0045183399 1.7180001
0.76899886 0.00456831 1.7370001
0.77693355 0.0045972401 1.748
0.77955216 0.0045946101 1.7470001
0.78261524 0.0045946101 1.7470001
0.79377347 0.0046419501 1.7650001
0.8013829 0.0046682497 1.7750001
0.8044951 0.0046682497 1.7750001
0.82421392 0.0046919198 1.784
0.82734191 0.0046919198 1.784
0.83046985 0.0046919198 1.784
0.83827043 0.0047182199 1.794
0.83672571 0.0046919198 1.784
0.8398537 0.0046919198 1.784
0.88495904 0.0047155898 1.7930001
0.88810277 0.0047155898 1.7930001
0.20924455 0.0079864329 1.8220001
0.21255572 0.0079908166 1.8230001
0.38811523 0.0080521833 1.8370001
0.38941884 0.0080127334 1.8280001
0.39219436 0.0080039669 1.8260001
0.39517942 0.0079995831 1.825
0.39859754 0.0080039669 1.8260001
0.39959869 0.0079601333 1.8160001
0.40278274 0.0079601333 1.8160001
0.40820229 0.0080039669 1.8260001
0.44316813 0.0066144499 1.5090001
0.45201811 0.0067065 1.5300001
0.4549979 0.0067108832 1.531
0.45768225 0.0067108832 1.531
0.46395829 0.0067240335 1.534
0.46603951 0.0067152665 1.5320001
0.51636893 0.0066714333 1.5220001
0.51903749 0.0066714333 1.5220001
0.71405023 0.0079162996 1.8060001
0.71761388 0.0079206834 1.807
0.72078216 0.0079206834 1.807
0.72354984 0.0079162996 1.8060001
0.73513675 0.0079732835 1.8190001
0.73751426 0.007964517 1.817
0.74542618 0.0074692001 1.7040001
0.74885303 0.0074735833 1.705
0.75713402 0.0075261835 1.7170001
0.76944155 0.0076182331 1.738
0.77737802 0.00766645 1.7490001
0.78044462 0.00766645 1.7490001
0.88810277 0.0078593167 1.7930001
0.20924455 0.011181006 1.8220001
0.21220593 0.011168733 1.8200001
0.2165805 0.0112301 1.83
0.22033702 0.0092356829 1.5050001
0.22193868 0.0091927266 1.498
0.22441527 0.0091865901 1.4970001
0.22704001 0.0091865901 1.4970001
0.22966474 0.0091865901 1.4970001
0.23228949 0.0091865901 1.4970001
0.39005792 0.011236236 1.8310001
0.39348307 0.011242373 1.8320001
0.39626211 0.0112301 1.83
0.39925241 0.011223963 1.8290001
0.40003878 0.01115646 1.8180001
0.40322635 0.01115646 1.8180001
0.45559227 0.00940751 1.5330001
0.45828012 0.00940751 1.5330001
0.46096799 0.00940751 1.5330001
0.4633534 0.0094013736 1.5320001
0.46603951 0.0094013736 1.5320001
0.20958908 0.01439925 1.825
0.21232253 0.01436769 1.8210001
0.21669886 0.01444659 1.8310001
0.22033702 0.01187445 1.5050001
0.22193868 0.01181922 1.498
0.22441527 0.01181133 1.4970001
0.22719167 0.01181922 1.498
0.22981817 0.01181922 1.498
0.23244466 0.01181922 1.498
0.23616962 0.01187445 1.5050001
0.39391264 0.01447026 1.8340001
0.39669517 0.01445448 1.8320001
0.39968899 0.01444659 1.8310001
0.44935918 0.01200069 1.521
0.45410633 0.01205592 1.5280001
0.45648646 0.01204803 1.5270001
0.45946449 0.01205592 1.5280001
0.46395829 0.01210326 1.534
0.46573529 0.01207959 1.531
0.46688986 0.01204014 1.526
0.46956545 0.01204014 1.526
0.47227174 0.01190601 1.5090001
0.47554696 0.011921789 1.511
0.48041159 0.01197702 1.5180001
0.48307315 0.01197702 1.5180001
0.48253486 0.01189812 1.508
0.48485714 0.01189023 1.5070001
0.49073434 0.01196913 1.5170001
0.49371937 0.01197702 1.5180001
0.51161915 0.01189812 1.508
0.51903749 0.01200858 1.5220001
0.5217061 0.01200858 1.5220001
0.52437466 0.01200858 1.5220001
0.52461922 0.01195335 1.5150001
0.52727556 0.01195335 1.5150001
0.20958908 0.017599083 1.825
0.21243912 0.017570153 1.8220001
0.2168172 0.017666586 1.8320001
0.22019061 0.014503573 1.5040001
0.22193868 0.014445713 1.498
0.22441527 0.01443607 1.4970001
0.22704001 0.01443607 1.4970001
0.22966474 0.01443607 1.4970001
0.23213431 0.014426427 1.4960001
0.23585577 0.01449393 1.503
0.39412743 0.017695516 1.835
0.39691171 0.017676231 1.8330001
0.43903729 0.014590363 1.5130001
0.44169009 0.014590363 1.5130001
0.44375551 0.014571076 1.511
0.44935918 0.01466751 1.521
0.45172879 0.014657866 1.5200001
0.45409492 0.014648223 1.5190001
0.45946449 0.014735013 1.5280001
0.4621436 0.014735013 1.5280001
0.46391007 0.014706084 1.5250001
0.46688986 0.014715726 1.526
0.47554696 0.014571076 1.511
0.47819623 0.014571076 1.511
0.48084554 0.014571076 1.511
0.48349482 0.014571076 1.511
0.4861441 0.014571076 1.511
0.49105781 0.014638579 1.5180001
0.49436986 0.014657866 1.5200001
0.50237209 0.01458072 1.5120001
0.50268507 0.014513217 1.5050001
0.50599533 0.014532504 1.5070001
0.50897515 0.014542147 1.508
0.51161915 0.014542147 1.508
0.51426321 0.014542147 1.508
0.51690722 0.014542147 1.508
0.51955122 0.014542147 1.508
0.52219528 0.014542147 1.508
0.52483928 0.014542147 1.508
0.20958908 0.020798916 1.825
0.21255572 0.020776123 1.8230001
0.21693555 0.020890091 1.8330001
0.21931219 0.017072206 1.498
0.22193868 0.017072206 1.498
0.22456518 0.017072206 1.498
0.22704001 0.017060811 1.4970001
0.22966474 0.017060811 1.4970001
0.23197915 0.017038016 1.4950001
0.4328717 0.017208967 1.5100001
0.43551922 0.017208967 1.5100001
0.43816677 0.017208967 1.5100001
0.44081429 0.017208967 1.5100001
0.44346184 0.017208967 1.5100001
0.44876829 0.017311536 1.5190001
0.4514316 0.017311536 1.5190001
0.45409492 0.017311536 1.5190001
0.45645753 0.01730014 1.5180001
0.45881665 0.017288743 1.5170001
0.46360588 0.01736852 1.524
0.46688986 0.017391313 1.526
0.46710378 0.01730014 1.5180001
0.46976534 0.01730014 1.5180001
0.47242689 0.01730014 1.5180001
0.47289768 0.017220363 1.511
0.47554696 0.017220363 1.511
0.47819623 0.017220363 1.511
0.48084554 0.017220363 1.511
0.48381481 0.017231761 1.5120001
0.48678759 0.017243156 1.5130001
0.49170479 0.017322933 1.5200001
0.4946951 0.017334329 1.521
0.49736193 0.017334329 1.521
0.50463122 0.017493883 1.5350001
0.50203454 0.017311536 1.5190001
0.50237209 0.017231761 1.5120001
0.50268507 0.017151983 1.5050001
0.50565958 0.017163379 1.506
0.50897515 0.017186172 1.508
0.51161915 0.017186172 1.508
0.51426321 0.017186172 1.508
0.51690722 0.017186172 1.508
0.51955122 0.017186172 1.508
0.52219528 0.017186172 1.508
0.52483928 0.017186172 1.508
0.20958908 0.02399875 1.825
0.21278891 0.02399875 1.825
0.21598876 0.02399875 1.825
0.21870817 0.023946149 1.8210001
0.21931219 0.0196987 1.498
0.22193868 0.0196987 1.498
0.22456518 0.0196987 1.498
0.22719167 0.0196987 1.498
0.22966474 0.01968555 1.4970001
0.43258503 0.019843349 1.5090001
0.43494239 0.019830199 1.508
0.4375864 0.019830199 1.508
0.44052237 0.019843349 1.5090001
0.4455176 0.01994855 1.5170001
0.44610935 0.0198565 1.5100001
0.44845971 0.019843349 1.5090001
0.45319811 0.019935399 1.516
0.45555544 0.019922249 1.5150001
0.45821175 0.019922249 1.5150001
0.46299747 0.020014299 1.5220001
0.46597201 0.020027449 1.5230001
0.46618065 0.019922249 1.5150001
0.46883693 0.019922249 1.5150001
0.47149324 0.019922249 1.5150001
0.47195876 0.019830199 1.508
0.47460279 0.019830199 1.508
0.47787976 0.0198565 1.5100001
0.48084554 0.01986965 1.511
0.48413479 0.01989595 1.5130001
0.48678759 0.01989595 1.5130001
0.48976386 0.019909101 1.5140001
0.49502036 0.020014299 1.5220001
0.49768892 0.020014299 1.5220001
0.50496 0.020198399 1.536
0.49972105 0.0198828 1.5120001
0.50004625 0.01979075 1.5050001
0.50268507 0.01979075 1.5050001
0.50532383 0.01979075 1.5050001
0.50897515 0.019830199 1.508
0.51161915 0.019830199 1.508
0.51426321 0.019830199 1.508
0.51690722 0.019830199 1.508
0.51955122 0.019830199 1.508
0.52219528 0.019830199 1.508
0.52483928 0.019830199 1.508
0.20970392 0.027213486 1.8260001
0.21290551 0.027213486 1.8260001
0.2161071 0.027213486 1.8260001
0.21882828 0.027153874 1.8220001
0.2184215 0.022504034 1.5100001
0.22019061 0.022414614 1.5040001
0.22282763 0.022414614 1.5040001
0.22546464 0.022414614 1.5040001
0.22810166 0.022414614 1.5040001
0.23058525 0.02239971 1.503
0.28028172 0.022369903 1.501
0.28197107 0.022295386 1.4960001
0.28459406 0.022295386 1.4960001
0.43430504 0.022578551 1.5150001
0.43494239 0.022474226 1.508
0.43700606 0.02244442 1.506
0.44198203 0.022563646 1.5140001
0.44463655 0.022563646 1.5140001
0.44581392 0.02248913 1.5090001
0.44905409 0.022518937 1.511
0.45379597 0.02262326 1.5180001
0.45555544 0.022578551 1.5150001
0.45821175 0.022578551 1.5150001
0.46086806 0.022578551 1.5150001
0.46352434 0.022578551 1.5150001
0.46618065 0.022578551 1.5150001
0.46883693 0.022578551 1.5150001
0.47180447 0.022593454 1.516
0.47195876 0.022474226 1.508
0.4749175 0.02248913 1.5090001
0.47819623 0.022518937 1.511
0.48116377 0.02253384 1.5120001
0.48413479 0.022548743 1.5130001
0.48678759 0.022548743 1.5130001
0.48976386 0.022563646 1.5140001
0.49241841 0.022563646 1.5140001
0.48886001 0.022280483 1.4950001
0.49575499 0.022474226 1.508
0.497738 0.02244442 1.506
0.50037855 0.02244442 1.506
0.50268507 0.022429517 1.5050001
0.50532383 0.022429517 1.5050001
0.50897515 0.022474226 1.508
0.51161915 0.022474226 1.508
0.51426321 0.022474226 1.508
0.51690722 0.022474226 1.508
0.51955122 0.022474226 1.508
0.52219528 0.022474226 1.508
0.52483928 0.022474226 1.508
0.20970392 0.030415073 1.8260001
0.21290551 0.030415073 1.8260001
0.2161071 0.030415073 1.8260001
0.21906848 0.03038176 1.8240001
0.2229977 0.0304817 1.83
0.21411444 0.025268164 1.5170001
0.21677424 0.025268164 1.5170001
0.21827684 0.02513491 1.5090001
0.22092263 0.02513491 1.5090001
0.22267947 0.02503497 1.503
0.22516482 0.025018314 1.5020001
0.22779833 0.025018314 1.5020001
0.23027842 0.025001656 1.501
0.2765401 0.024901716 1.4950001
0.27934808 0.024918374 1.4960001
0.28197107 0.024918374 1.4960001
0.28459406 0.024918374 1.4960001
0.43430504 0.02523485 1.5150001
0.43696135 0.02523485 1.5150001
0.43932748 0.025218192 1.5140001
0.44169009 0.025201537 1.5130001
0.44463655 0.025218192 1.5140001
0.44551849 0.025118252 1.508
0.44905409 0.025168223 1.511
0.45439386 0.025318133 1.5200001
0.45405197 0.025151566 1.5100001
0.45700195 0.025168223 1.511
0.46178067 0.025284819 1.5180001
0.46444222 0.025284819 1.5180001
0.46618065 0.02523485 1.5150001
0.46883693 0.02523485 1.5150001
0.47180447 0.025251506 1.516
0.47195876 0.025118252 1.508
0.4749175 0.02513491 1.5090001
0.4785127 0.025184879 1.5120001
0.481482 0.025201537 1.5130001
0.48413479 0.025201537 1.5130001
0.48678759 0.025201537 1.5130001
0.48976386 0.025218192 1.5140001
0.48591354 0.02488506 1.4940001
0.48886001 0.024901716 1.4950001
0.49148124 0.024901716 1.4950001
0.49410248 0.024901716 1.4950001
0.49672371 0.024901716 1.4950001
0.50068098 0.024968343 1.4990001
0.50330925 0.024968343 1.4990001
0.50897515 0.025118252 1.508
0.51161915 0.025118252 1.508
0.51426321 0.025118252 1.508
0.51690722 0.025118252 1.508
0.51955122 0.025118252 1.508
0.52219528 0.025118252 1.508
0.52483928 0.025118252 1.508
0.56260872 0.024801776 1.4890001
0.56446022 0.024768462 1.4870001
0.56783015 0.024801776 1.4890001
0.57044089 0.024801776 1.4890001
0.20970392 0.033616658 1.8260001
0.21290551 0.033616658 1.8260001
0.2161071 0.033616658 1.8260001
0.21906848 0.033579841 1.8240001
0.2229977 0.0336903 1.83
0.21411444 0.027927971 1.5170001
0.21677424 0.027927971 1.5170001
0.21928939 0.02790956 1.516
0.22092263 0.027780689 1.5090001
0.22356841 0.027780689 1.5090001
0.22606428 0.027762279 1.508
0.22870831 0.027762279 1.508
0.23119892 0.02774387 1.5070001
0.23492737 0.027872739 1.5140001
0.2765401 0.02752295 1.4950001
0.27934808 0.02754136 1.4960001
0.28178257 0.02752295 1.4950001
0.2844038 0.02752295 1.4950001
0.43401837 0.027872739 1.5140001
0.43667293 0.027872739 1.5140001
0.43932748 0.027872739 1.5140001
0.44169009 0.027854329 1.5130001
0.44463655 0.027872739 1.5140001
0.44551849 0.027762279 1.508
0.44816253 0.027762279 1.508
0.45140442 0.0277991 1.5100001
0.45435265 0.02781751 1.511
0.45700195 0.02781751 1.511
0.45965123 0.02781751 1.511
0.46230051 0.02781751 1.511
0.46402669 0.027762279 1.508
0.46728963 0.0277991 1.5100001
0.46993718 0.0277991 1.5100001
0.47227174 0.027780689 1.5090001
0.4749175 0.027780689 1.5090001
0.47693032 0.02774387 1.5070001
0.47957259 0.02774387 1.5070001
0.48221487 0.02774387 1.5070001
0.48485714 0.02774387 1.5070001
0.48782292 0.027762279 1.508
0.48591354 0.027504539 1.4940001
0.48886001 0.02752295 1.4950001
0.49148124 0.02752295 1.4950001
0.49410248 0.02752295 1.4950001
0.49672371 0.02752295 1.4950001
0.49834293 0.02746772 1.4920001
0.50095892 0.02746772 1.4920001
0.50695002 0.02765182 1.5020001
0.50958353 0.02765182 1.5020001
0.51221704 0.02765182 1.5020001
0.51485056 0.02765182 1.5020001
0.51955122 0.027762279 1.508
0.52011758 0.02765182 1.5020001
0.52275109 0.02765182 1.5020001
0.56185305 0.02737567 1.4870001
0.56446022 0.02737567 1.4870001
0.56744879 0.027394081 1.488
0.57044089 0.027412489 1.4890001
0.57305157 0.027412489 1.4890001
0.20970392 0.036818247 1.8260001
0.21290551 0.036818247 1.8260001
0.2161071 0.036818247 1.8260001
0.21882828 0.036737595 1.8220001
0.22177914 0.036697265 1.8200001
0.2262063 0.0368989 1.83
0.21145463 0.030587776 1.5170001
0.21411444 0.030587776 1.5170001
0.21663134 0.030567612 1.516
0.21928939 0.030567612 1.516
0.22092263 0.030426471 1.5090001
0.22342025 0.030406306 1.508
0.22606428 0.030406306 1.508
0.22855665 0.030386142 1.5070001
0.2310455 0.030365979 1.506
0.23477221 0.030507123 1.5130001
0.27764997 0.030265164 1.501
0.27934808 0.030164346 1.4960001
0.28178257 0.030144183 1.4950001
0.2844038 0.030144183 1.4950001
0.28548914 0.029982876 1.4870001
0.28809634 0.029982876 1.4870001
0.2922675 0.030144183 1.4950001
0.42295924 0.03030549 1.503
0.42616081 0.030345816 1.5050001
0.43107891 0.030507123 1.5130001
0.4337317 0.030507123 1.5130001
0.4363845 0.030507123 1.5130001
0.43903729 0.030507123 1.5130001
0.44402552 0.03066843 1.521
0.44463655 0.030527286 1.5140001
0.44551849 0.030406306 1.508
0.44816253 0.030406306 1.508
0.45110548 0.030426471 1.5090001
0.45405197 0.030446634 1.5100001
0.45700195 0.030466797 1.511
0.45965123 0.030466797 1.511
0.46230051 0.030466797 1.511
0.46218041 0.030285327 1.5020001
0.46543285 0.030325653 1.5040001
0.46806985 0.030325653 1.5040001
0.4703939 0.03030549 1.503
0.47302917 0.03030549 1.503
0.47598091 0.030325653 1.5040001
0.47957259 0.030386142 1.5070001
0.4777351 0.030103857 1.493
0.48035285 0.030103857 1.493
0.48329407 0.03012402 1.4940001
0.48591354 0.03012402 1.4940001
0.48886001 0.030144183 1.4950001
0.49148124 0.030144183 1.4950001
0.49410248 0.030144183 1.4950001
0.49672371 0.030144183 1.4950001
0.49834293 0.030083694 1.4920001
0.50095892 0.030083694 1.4920001
0.50661254 0.030265164 1.501
0.50924426 0.030265164 1.501
0.51221704 0.030285327 1.5020001
0.51485056 0.030285327 1.5020001
0.51955122 0.030406306 1.508
0.52011758 0.030285327 1.5020001
0.52275109 0.030285327 1.5020001
0.5585103 0.030083694 1.4920001
0.56225455 0.030144183 1.4950001
0.56260872 0.030023202 1.4890001
0.56483984 0.030003039 1.488
0.5682115 0.030043367 1.4900001
0.57082397 0.030043367 1.4900001
0.57343644 0.030043367 1.4900001
0.57759535 0.03012402 1.4940001
0.5802148 0.03012402 1.4940001
0.20855549 0.039800666 1.8160001
0.21173954 0.039800666 1.8160001
0.21492361 0.039800666 1.8160001
0.21882828 0.039932165 1.8220001
0.22165728 0.039866418 1.8190001
0.22608268 0.040085584 1.8290001
0.21117584 0.033203751 1.5150001
0.21284415 0.033050332 1.508
0.21548817 0.033050332 1.508
0.21914475 0.033203751 1.5150001
0.22077623 0.033050332 1.508
0.22342025 0.033050332 1.508
0.22606428 0.033050332 1.508
0.22870831 0.033050332 1.508
0.23119892 0.033028416 1.5070001
0.27746499 0.032875001 1.5000001
0.27916133 0.032765418 1.4950001
0.28178257 0.032765418 1.4950001
0.2844038 0.032765418 1.4950001
0.28548914 0.032590084 1.4870001
0.28809634 0.032590084 1.4870001
0.2922675 0.032765418 1.4950001
0.29607224 0.032896917 1.501
0.42116293 0.0330065 1.506
0.42295924 0.032940749 1.503
0.42644396 0.0330065 1.506
0.43107891 0.033159915 1.5130001
0.43401837 0.033181835 1.5140001
0.43898031 0.033357166 1.5220001
0.44135872 0.03333525 1.521
0.44431746 0.033357166 1.5220001
0.44463655 0.033181835 1.5140001
0.44758654 0.033203751 1.5150001
0.45024285 0.033203751 1.5150001
0.45080656 0.033050332 1.508
0.45345056 0.033050332 1.508
0.45609459 0.033050332 1.508
0.45873863 0.033050332 1.508
0.46138266 0.033050332 1.508
0.46218041 0.032918833 1.5020001
0.46481392 0.032918833 1.5020001
0.46744743 0.032918833 1.5020001
0.4703939 0.032940749 1.503
0.47302917 0.032940749 1.503
0.47598091 0.032962665 1.5040001
0.47957259 0.033028416 1.5070001
0.47581521 0.032590084 1.4870001
0.47842243 0.032590084 1.4870001
0.47941217 0.032480501 1.4820001
0.4820106 0.032480501 1.4820001
0.48689803 0.032633916 1.4890001
0.49148124 0.032765418 1.4950001
0.49410248 0.032765418 1.4950001
0.49672371 0.032765418 1.4950001
0.49867693 0.032721583 1.493
0.50129467 0.032721583 1.493
0.506275 0.032875001 1.5000001
0.50890499 0.032875001 1.5000001
0.51426321 0.033050332 1.508
0.51690722 0.033050332 1.508
0.51955122 0.033050332 1.508
0.52011758 0.032918833 1.5020001
0.52275109 0.032918833 1.5020001
0.55328625 0.032546248 1.485
0.55626428 0.032568168 1.4860001
0.55999804 0.032633916 1.4890001
0.56260872 0.032633916 1.4890001
0.56483984 0.032612 1.488
0.5682115 0.032655831 1.4900001
0.57082397 0.032655831 1.4900001
0.57305157 0.032633916 1.4890001
0.57759535 0.032743499 1.4940001
0.5802148 0.032743499 1.4940001
0.20855549 0.04298472 1.8160001
0.21185614 0.043008391 1.817
0.21492361 0.04298472 1.8160001
0.21774735 0.042913709 1.8130001
0.22165728 0.043055728 1.8190001
0.22608268 0.043292429 1.8290001
0.20922439 0.035528671 1.501
0.21199729 0.035552341 1.5020001
0.21548817 0.035694361 1.508
0.2190001 0.03583638 1.5140001
0.22180104 0.03586005 1.5150001
0.2246055 0.035883721 1.516
0.22726355 0.035883721 1.516
0.22976995 0.03586005 1.5150001
0.23242626 0.03586005 1.5150001
0.28009501 0.035505001 1.5000001
0.28272501 0.035505001 1.5000001
0.28516477 0.03548133 1.4990001
0.28664106 0.035339311 1.493
0.28925881 0.035339311 1.493
0.2922675 0.035386648 1.4950001
0.29607224 0.035528671 1.501
0.42088327 0.035623349 1.5050001
0.42324063 0.035599679 1.5040001
0.42644396 0.03564702 1.506
0.43136382 0.03583638 1.5140001
0.43430504 0.03586005 1.5150001
0.43926874 0.036049411 1.5230001
0.44164887 0.03602574 1.5220001
0.44431746 0.03602574 1.5220001
0.44493026 0.03586005 1.5150001
0.44758654 0.03586005 1.5150001
0.45024285 0.03586005 1.5150001
0.45080656 0.035694361 1.508
0.45345056 0.035694361 1.508
0.45669949 0.035741698 1.5100001
0.45934704 0.035741698 1.5100001
0.46199456 0.035741698 1.5100001
0.46218041 0.035552341 1.5020001
0.46481392 0.035552341 1.5020001
0.46744743 0.035552341 1.5020001
0.47008094 0.035552341 1.5020001
0.47271445 0.035552341 1.5020001
0.47598091 0.035599679 1.5040001
0.47257155 0.035149951 1.485
0.47581521 0.035197292 1.4870001
0.47842243 0.035197292 1.4870001
0.47941217 0.035078939 1.4820001
0.4820106 0.035078939 1.4820001
0.48460907 0.035078939 1.4820001
0.4872075 0.035078939 1.4820001
0.49211946 0.035244629 1.4890001
0.49672371 0.035386648 1.4950001
0.49867693 0.035339311 1.493
0.50398076 0.035528671 1.501
0.506275 0.035505001 1.5000001
0.51094061 0.03564702 1.506
0.51426321 0.035694361 1.508
0.51690722 0.035694361 1.508
0.51955122 0.035694361 1.508
0.52011758 0.035552341 1.5020001
0.52275109 0.035552341 1.5020001
0.55365884 0.035173621 1.4860001
0.5566386 0.035197292 1.4870001
0.55924582 0.035197292 1.4870001
0.56185305 0.035197292 1.4870001
0.56446022 0.035197292 1.4870001
0.56783015 0.035244629 1.4890001
0.57044089 0.035244629 1.4890001
0.57228184 0.035197292 1.4870001
0.5772087 0.035339311 1.493
0.57982647 0.035339311 1.493
0.20855549 0.046168774 1.8160001
0.21185614 0.046194196 1.817
0.21492361 0.046168774 1.8160001
0.21750714 0.046041656 1.8110001
0.20590445 0.038033307 1.4960001
0.20852745 0.038033307 1.4960001
0.21100928 0.038007881 1.4950001
0.21363051 0.038007881 1.4950001
0.2190001 0.038490925 1.5140001
0.22180104 0.03851635 1.5150001
0.2246055 0.038541771 1.516
0.22726355 0.038541771 1.516
0.22976995 0.03851635 1.5150001
0.23227283 0.038490925 1.5140001
0.28385589 0.038287539 1.506
0.28516477 0.038109578 1.4990001
0.28779301 0.038109578 1.4990001
0.29042125 0.038109578 1.4990001
0.29324499 0.038135 1.5000001
0.29607224 0.038160425 1.501
0.42436627 0.038338386 1.508
0.42729348 0.038363811 1.5090001
0.42965433 0.038338386 1.508
0.43459171 0.038541771 1.516
0.43724978 0.038541771 1.516
0.43961763 0.03851635 1.5150001
0.44227394 0.03851635 1.5150001
0.44493026 0.03851635 1.5150001
0.44374588 0.038185846 1.5020001
0.44637936 0.038185846 1.5020001
0.44901288 0.038185846 1.5020001
0.45164639 0.038185846 1.5020001
0.45518726 0.038262118 1.5050001
0.45782602 0.038262118 1.5050001
0.46015882 0.038236693 1.5040001
0.46218041 0.038185846 1.5020001
0.46481392 0.038185846 1.5020001
0.46744743 0.038185846 1.5020001
0.47008094 0.038185846 1.5020001
0.47271445 0.038185846 1.5020001
0.47566444 0.038211271 1.503
0.47257155 0.037753649 1.485
0.47581521 0.037804496 1.4870001
0.47842243 0.037804496 1.4870001
0.47941217 0.037677381 1.4820001
0.4820106 0.037677381 1.4820001
0.48460907 0.037677381 1.4820001
0.4872075 0.037677381 1.4820001
0.49211946 0.037855342 1.4890001
0.49406567 0.037804496 1.4870001
0.49867693 0.037957035 1.493
0.503645 0.038135 1.5000001
0.506275 0.038135 1.5000001
0.51094061 0.038287539 1.506
0.51426321 0.038338386 1.508
0.51485056 0.038185846 1.5020001
0.51748407 0.038185846 1.5020001
0.52011758 0.038185846 1.5020001
0.52275109 0.038185846 1.5020001
0.55365884 0.037779074 1.4860001
0.5566386 0.037804496 1.4870001
0.55924582 0.037804496 1.4870001
0.56185305 0.037804496 1.4870001
0.56446022 0.037804496 1.4870001
0.56783015 0.037855342 1.4890001
0.56775916 0.037677381 1.4820001
0.56997269 0.037651956 1.4810001
0.57488906 0.037804496 1.4870001
0.20867033 0.049380004 1.817
0.21197274 0.04940718 1.8180001
0.21385846 0.049108237 1.807
0.21654631 0.048999529 1.8030001
0.20590445 0.040656295 1.4960001
0.20852745 0.040656295 1.4960001
0.21100928 0.040629115 1.4950001
0.21348763 0.040601939 1.4940001
0.21798755 0.040955238 1.5070001
0.22165464 0.041145474 1.5140001
0.22342025 0.040982414 1.508
0.22426535 0.040656295 1.4960001
0.22688834 0.040656295 1.4960001
0.28516477 0.040737823 1.4990001
0.28779301 0.040737823 1.4990001
0.29042125 0.040737823 1.4990001
0.29304951 0.040737823 1.4990001
0.29587501 0.040764999 1.5000001
0.42436627 0.040982414 1.508
0.42729348 0.04100959 1.5090001
0.42965433 0.040982414 1.508
0.43430504 0.04117265 1.5150001
0.43696135 0.04117265 1.5150001
0.43961763 0.04117265 1.5150001
0.44227394 0.04117265 1.5150001
0.44637936 0.040819354 1.5020001
0.44901288 0.040819354 1.5020001
0.45164639 0.040819354 1.5020001
0.45518726 0.040900882 1.5050001
0.45782602 0.040900882 1.5050001
0.45985287 0.04084653 1.503
0.46218041 0.040819354 1.5020001
0.46481392 0.040819354 1.5020001
0.46744743 0.040819354 1.5020001
0.47008094 0.040819354 1.5020001
0.47271445 0.040819354 1.5020001
0.47123376 0.040466055 1.4890001
0.47225332 0.040330172 1.4840001
0.47549522 0.040384527 1.4860001
0.47842243 0.040411703 1.4870001
0.47941217 0.04027582 1.4820001
0.4820106 0.04027582 1.4820001
0.48460907 0.04027582 1.4820001
0.4872075 0.04027582 1.4820001
0.49112794 0.040384527 1.4860001
0.49340114 0.040357351 1.485
0.49834293 0.040547587 1.4920001
0.50330925 0.040737823 1.4990001
0.50593746 0.040737823 1.4990001
0.51060134 0.040900882 1.5050001
0.51426321 0.040982414 1.508
0.51485056 0.040819354 1.5020001
0.51748407 0.040819354 1.5020001
0.52011758 0.040819354 1.5020001
0.52275109 0.040819354 1.5020001
0.55365884 0.040384527 1.4860001
0.5566386 0.040411703 1.4870001
0.55924582 0.040411703 1.4870001
0.56185305 0.040411703 1.4870001
0.56218266 0.040248644 1.4810001
0.56516069 0.04027582 1.4820001
0.56775916 0.04027582 1.4820001
0.56997269 0.040248644 1.4810001
0.57488906 0.040411703 1.4870001
0.20878518 0.05259474 1.8180001
0.21162295 0.052507948 1.8150001
0.21362175 0.05221865 1.8050001
0.21654631 0.052160788 1.8030001
0.20396088 0.043423928 1.501
0.20590445 0.043279279 1.4960001
0.20838805 0.043250348 1.4950001
0.21086814 0.043221422 1.4940001
0.21348763 0.043221422 1.4940001
0.21625175 0.043250348 1.4950001
0.2197514 0.043423928 1.501
0.22164237 0.043279279 1.4960001
0.22426535 0.043279279 1.4960001
0.22688834 0.043279279 1.4960001
0.22951134 0.043279279 1.4960001
0.23291017 0.043423928 1.501
0.28291348 0.043423928 1.501
0.28573546 0.043452859 1.5020001
0.28817698 0.043423928 1.501
0.29061499 0.043395001 1.5000001
0.29304951 0.043366071 1.4990001
0.29725575 0.043597508 1.5070001
0.39341906 0.043713231 1.511
0.39606836 0.043713231 1.511
0.397926 0.043626439 1.508
0.40057003 0.043626439 1.508
0.42899245 0.043828949 1.5150001
0.43164876 0.043828949 1.5150001
0.43659842 0.04406039 1.5230001
0.43724978 0.04385788 1.516
0.43961763 0.043828949 1.5150001
0.44227394 0.043828949 1.5150001
0.44637936 0.043452859 1.5020001
0.44901288 0.043452859 1.5020001
0.45164639 0.043452859 1.5020001
0.4548848 0.04351072 1.5040001
0.4575218 0.04351072 1.5040001
0.45954692 0.043452859 1.5020001
0.4618727 0.043423928 1.501
0.46264768 0.043250348 1.4950001
0.46526891 0.043250348 1.4950001
0.46789014 0.043250348 1.4950001
0.47019666 0.043221422 1.4940001
0.47060081 0.043018911 1.4870001
0.47129864 0.042845331 1.4810001
0.4742153 0.042874258 1.4820001
0.4774572 0.042932119 1.4840001
0.47844172 0.04278747 1.4790001
0.48103487 0.04278747 1.4790001
0.48559004 0.04296105 1.485
0.48819375 0.04296105 1.485
0.49046695 0.042932119 1.4840001
0.49539468 0.04313463 1.4910001
0.50068098 0.043366071 1.4990001
0.50398076 0.043423928 1.501
0.50593746 0.043366071 1.4990001
0.51094061 0.043568581 1.506
0.51187605 0.043423928 1.501
0.51450777 0.043423928 1.501
0.51679498 0.043395001 1.5000001
0.51700103 0.043192491 1.493
0.51961875 0.043192491 1.493
0.55328625 0.04296105 1.485
0.55626428 0.04298998 1.4860001
0.55924582 0.043018911 1.4870001
0.56185305 0.043018911 1.4870001
0.56218266 0.042845331 1.4810001
0.56516069 0.042874258 1.4820001
0.56775916 0.042874258 1.4820001
0.56997269 0.042845331 1.4810001
0.57488906 0.043018911 1.4870001
0.57749629 0.043018911 1.4870001
0.20878518 0.055782299 1.8180001
0.21162295 0.055690251 1.8150001
0.21362175 0.055383418 1.8050001
0.21666642 0.055352733 1.8040001
0.19175856 0.0456568 1.488
0.19423689 0.045626115 1.4870001
0.20314558 0.045871582 1.4950001
0.20562918 0.0458409 1.4940001
0.20838805 0.045871582 1.4950001
0.21100928 0.045871582 1.4950001
0.21363051 0.045871582 1.4950001
0.2152392 0.0456568 1.488
0.21784815 0.0456568 1.488
0.22164237 0.045902267 1.4960001
0.22321598 0.045687482 1.4890001
0.2258267 0.045687482 1.4890001
0.22935791 0.045871582 1.4950001
0.23182398 0.0458409 1.4940001
0.28291348 0.046055682 1.501
0.28573546 0.046086367 1.5020001
0.28952092 0.046270467 1.508
0.29061499 0.046025001 1.5000001
0.29344049 0.046055682 1.501
0.29646674 0.046117049 1.503
0.39341906 0.046362516 1.511
0.39449561 0.046178415 1.5050001
0.39634275 0.046086367 1.5020001
0.40057003 0.046270467 1.508
0.42899245 0.046485249 1.5150001
0.43164876 0.046485249 1.5150001
0.43229836 0.046270467 1.508
0.43494239 0.046270467 1.508
0.43961763 0.046485249 1.5150001
0.44227394 0.046485249 1.5150001
0.44111237 0.046086367 1.5020001
0.44637936 0.046086367 1.5020001
0.44901288 0.046086367 1.5020001
0.45164639 0.046086367 1.5020001
0.4542799 0.046086367 1.5020001
0.45691341 0.046086367 1.5020001
0.45924094 0.046055682 1.501
0.46371898 0.046239782 1.5070001
0.46264768 0.045871582 1.4950001
0.46526891 0.045871582 1.4950001
0.46789014 0.045871582 1.4950001
0.47019666 0.0458409 1.4940001
0.47060081 0.045626115 1.4870001
0.47320801 0.045626115 1.4870001
0.47613519 0.0456568 1.488
0.4790659 0.045687482 1.4890001
0.48038265 0.045564748 1.485
0.48298636 0.045564748 1.485
0.48526305 0.045534067 1.4840001
0.487865 0.045534067 1.4840001
0.49046695 0.045534067 1.4840001
0.49738821 0.045932949 1.4970001
0.50101501 0.046025001 1.5000001
0.50398076 0.046055682 1.501
0.506275 0.046025001 1.5000001
0.51094061 0.046209101 1.506
0.51153499 0.046025001 1.5000001
0.51450777 0.046055682 1.501
0.51713955 0.046055682 1.501
0.51700103 0.045810215 1.493
0.51927072 0.045779534 1.4920001
0.52188671 0.045779534 1.4920001
0.52450264 0.045779534 1.4920001
0.52711862 0.045779534 1.4920001
0.52973461 0.045779534 1.4920001
0.55328625 0.045564748 1.485
0.55364394 0.045380648 1.4790001
0.55698931 0.045442015 1.4810001
0.56185305 0.045626115 1.4870001
0.56218266 0.045442015 1.4810001
0.56477934 0.045442015 1.4810001
0.56737602 0.045442015 1.4810001
0.56997269 0.045442015 1.4810001
0.57488906 0.045626115 1.4870001
0.57749629 0.045626115 1.4870001
0.20878518 0.058969859 1.8180001
0.21185614 0.058937423 1.817
0.21385846 0.058613054 1.807
0.21678652 0.058548182 1.8050001
0.19175856 0.048265759 1.488
0.19423689 0.048233323 1.4870001
0.19697648 0.048265759 1.488
0.19958544 0.048265759 1.488
0.20328146 0.048525251 1.4960001
0.20590445 0.048525251 1.4960001
0.20852745 0.048525251 1.4960001
0.21016242 0.048298195 1.4890001
0.21263024 0.048265759 1.488
0.21538384 0.048298195 1.4890001
0.21799456 0.048298195 1.4890001
0.22075343 0.048330635 1.4900001
0.2233659 0.048330635 1.4900001
0.2258267 0.048298195 1.4890001
0.228284 0.048265759 1.488
0.23197915 0.048492815 1.4950001
0.24192844 0.048914492 1.508
0.24441028 0.048882056 1.5070001
0.24836405 0.049141549 1.5150001
0.25135171 0.049206425 1.5170001
0.27990827 0.048622563 1.4990001
0.28272501 0.048655 1.5000001
0.28573546 0.048719872 1.5020001
0.28702503 0.048492815 1.4950001
0.28964627 0.048492815 1.4950001
0.29363599 0.048719872 1.5020001
0.29646674 0.048752308 1.503
0.39397135 0.048752308 1.503
0.39634275 0.048719872 1.5020001
0.39897627 0.048719872 1.5020001
0.43229836 0.048914492 1.508
0.43321183 0.048719872 1.5020001
0.43584535 0.048719872 1.5020001
0.43847886 0.048719872 1.5020001
0.44111237 0.048719872 1.5020001
0.44374588 0.048719872 1.5020001
0.44637936 0.048719872 1.5020001
0.44901288 0.048719872 1.5020001
0.45164639 0.048719872 1.5020001
0.45216274 0.048492815 1.4950001
0.45478398 0.048492815 1.4950001
0.46077073 0.04884962 1.506
0.46341127 0.04884962 1.506
0.46450445 0.048687436 1.501
0.4671362 0.048687436 1.501
0.46882907 0.048590127 1.498
0.47145554 0.048590127 1.498
0.4721832 0.048395507 1.4920001
0.47543561 0.048460379 1.4940001
0.47613519 0.048265759 1.488
0.47842243 0.048233323 1.4870001
0.48200008 0.048330635 1.4900001
0.48461255 0.048330635 1.4900001
0.48722503 0.048330635 1.4900001
0.4898375 0.048330635 1.4900001
0.49244997 0.048330635 1.4900001
0.49772048 0.048590127 1.498
0.50134903 0.048687436 1.501
0.50398076 0.048687436 1.501
0.50796258 0.048817184 1.5050001
0.51060134 0.048817184 1.5050001
0.51358116 0.04884962 1.506
0.51656443 0.048882056 1.5070001
0.51886219 0.04884962 1.506
0.51942497 0.048655 1.5000001
0.51961875 0.048427943 1.493
0.52223647 0.048427943 1.493
0.52415109 0.048363071 1.4910001
0.52641201 0.048330635 1.4900001
0.52937955 0.048363071 1.4910001
0.55364394 0.04797383 1.4790001
0.55698931 0.048038702 1.4810001
0.56223089 0.048265759 1.488
0.56446022 0.048233323 1.4870001
0.56706744 0.048233323 1.4870001
0.56737602 0.048038702 1.4810001
0.56997269 0.048038702 1.4810001
0.57488906 0.048233323 1.4870001
0.57710791 0.048200887 1.4860001
0.20878518 0.062157419 1.8180001
0.21080677 0.061815519 1.8080001
0.2139768 0.061815519 1.8080001
0.21690662 0.061747141 1.8060001
0.18927671 0.050908908 1.4890001
0.19175856 0.050874721 1.488
0.19436751 0.050874721 1.488
0.19697648 0.050874721 1.488
0.19958544 0.050874721 1.488
0.20219439 0.050874721 1.488
0.20590445 0.05114824 1.4960001
0.20852745 0.05114824 1.4960001
0.21030356 0.050943099 1.4900001
0.21277313 0.050908908 1.4890001
0.21538384 0.050908908 1.4890001
0.21799456 0.050908908 1.4890001
0.22075343 0.050943099 1.4900001
0.2233659 0.050943099 1.4900001
0.22597836 0.050943099 1.4900001
0.228284 0.050874721 1.488
0.23197915 0.051114049 1.4950001
0.23460038 0.051114049 1.4950001
0.2373803 0.05114824 1.4960001
0.24000327 0.05114824 1.4960001
0.24441028 0.05152433 1.5070001
0.24836405 0.051797848 1.5150001
0.25118604 0.051832039 1.516
0.28009501 0.051284999 1.5000001
0.28272501 0.051284999 1.5000001
0.28573546 0.05135338 1.5020001
0.28702503 0.051114049 1.4950001
0.28964627 0.051114049 1.4950001
0.2922675 0.051114049 1.4950001
0.295086 0.05114824 1.4960001
0.39370924 0.05135338 1.5020001
0.39634275 0.05135338 1.5020001
0.39897627 0.05135338 1.5020001
0.42965433 0.051558521 1.508
0.43057835 0.05135338 1.5020001
0.43321183 0.05135338 1.5020001
0.43584535 0.05135338 1.5020001
0.43847886 0.05135338 1.5020001
0.44111237 0.05135338 1.5020001
0.44374588 0.05135338 1.5020001
0.44429904 0.051114049 1.4950001
0.44692028 0.051114049 1.4950001
0.44954151 0.051114049 1.4950001
0.45186031 0.051079858 1.4940001
0.45447978 0.051079858 1.4940001
0.45893499 0.051284999 1.5000001
0.46156499 0.051284999 1.5000001
0.46450445 0.051319189 1.501
0.4671362 0.051319189 1.501
0.46882907 0.051216621 1.498
0.47145554 0.051216621 1.498
0.47408205 0.051216621 1.498
0.47543561 0.051079858 1.4940001
0.47805509 0.051079858 1.4940001
0.48067456 0.051079858 1.4940001
0.48426452 0.05118243 1.4970001
0.48688927 0.05118243 1.4970001
0.48722503 0.050943099 1.4900001
0.48950875 0.050908908 1.4890001
0.49244997 0.050943099 1.4900001
0.49738821 0.05118243 1.4970001
0.50101501 0.051284999 1.5000001
0.50532383 0.051455949 1.5050001
0.50796258 0.051455949 1.5050001
0.51060134 0.051455949 1.5050001
0.5132401 0.051455949 1.5050001
0.51622164 0.051490139 1.506
0.51886219 0.051490139 1.506
0.52150267 0.051490139 1.506
0.52240306 0.051319189 1.501
0.52503479 0.051319189 1.501
0.52766657 0.051319189 1.501
0.52994502 0.051284999 1.5000001
0.53399521 0.051421762 1.5040001
0.55401826 0.050601199 1.48
0.55774146 0.050703771 1.483
0.56223089 0.050874721 1.488
0.56446022 0.050840531 1.4870001
0.56706744 0.050840531 1.4870001
0.56737602 0.05063539 1.4810001
0.56958789 0.050601199 1.48
0.57488906 0.050840531 1.4870001
0.57710791 0.05080634 1.4860001
0.57971334 0.05080634 1.4860001
0.58231884 0.05080634 1.4860001
0.58453065 0.050772149 1.485
0.59108812 0.051114049 1.4950001
0.59370935 0.051114049 1.4950001
0.59875631 0.050874721 1.488
0.60136527 0.050874721 1.488
0.20878518 0.065344982 1.8180001
0.21080677 0.064985543 1.8080001
0.2139768 0.064985543 1.8080001
0.21702673 0.064949602 1.807
0.18940383 0.053555567 1.4900001
0.19188742 0.053519621 1.4890001
0.19436751 0.05348368 1.488
0.19790311 0.053735282 1.4950001
0.19958544 0.05348368 1.488
0.20219439 0.05348368 1.488
0.20590445 0.053771228 1.4960001
0.20852745 0.053771228 1.4960001
0.21016242 0.053519621 1.4890001
0.21263024 0.05348368 1.488
0.21538384 0.053519621 1.4890001
0.21799456 0.053519621 1.4890001
0.22075343 0.053555567 1.4900001
0.22351581 0.053591508 1.4910001
0.22597836 0.053555567 1.4900001
0.228284 0.05348368 1.488
0.23213431 0.053771228 1.4960001
0.2347573 0.053771228 1.4960001
0.2373803 0.053771228 1.4960001
0.24000327 0.053771228 1.4960001
0.24359937 0.053986885 1.5020001
0.24983948 0.054777641 1.524
0.25251156 0.054777641 1.524
0.28009501 0.053915001 1.5000001
0.28272501 0.053915001 1.5000001
0.28573546 0.053986885 1.5020001
0.28836897 0.053986885 1.5020001
0.28984001 0.053771228 1.4960001
0.292463 0.053771228 1.4960001
0.29488873 0.053735282 1.4950001
0.39187437 0.053735282 1.4950001
0.39449561 0.053735282 1.4950001
0.39897627 0.053986885 1.5020001
0.42794484 0.053986885 1.5020001
0.43057835 0.053986885 1.5020001
0.43292341 0.053950943 1.501
0.43584535 0.053986885 1.5020001
0.43643534 0.053735282 1.4950001
0.43905658 0.053735282 1.4950001
0.44197324 0.053771228 1.4960001
0.44400185 0.053699341 1.4940001
0.44662133 0.053699341 1.4940001
0.4492408 0.053699341 1.4940001
0.45186031 0.053699341 1.4940001
0.45447978 0.053699341 1.4940001
0.45893499 0.053915001 1.5000001
0.46156499 0.053915001 1.5000001
0.46419498 0.053915001 1.5000001
0.46495768 0.053699341 1.4940001
0.46757719 0.053699341 1.4940001
0.47145554 0.053843115 1.498
0.47408205 0.053843115 1.498
0.47511739 0.053663395 1.493
0.47805509 0.053699341 1.4940001
0.48067456 0.053699341 1.4940001
0.48361754 0.053735282 1.4950001
0.48819023 0.053950943 1.501
0.49114898 0.053986885 1.5020001
0.49378249 0.053986885 1.5020001
0.496416 0.053986885 1.5020001
0.49904951 0.053986885 1.5020001
0.501683 0.053986885 1.5020001
0.50532383 0.054094717 1.5050001
0.50762504 0.054058772 1.5040001
0.51060134 0.054094717 1.5050001
0.5132401 0.054094717 1.5050001
0.51622164 0.054130659 1.506
0.51851767 0.054094717 1.5050001
0.52115643 0.054094717 1.5050001
0.52205497 0.053915001 1.5000001
0.52468503 0.053915001 1.5000001
0.52450264 0.053627454 1.4920001
0.5274719 0.053663395 1.493
0.53399521 0.054058772 1.5040001
0.5566386 0.053447735 1.4870001
0.56075019 0.053591508 1.4910001
0.56034166 0.053303964 1.483
0.56218266 0.053232078 1.4810001
0.56477934 0.053232078 1.4810001
0.56737602 0.053232078 1.4810001
0.56958789 0.053196132 1.48
0.57450247 0.053411793 1.4860001
0.57710791 0.053411793 1.4860001
0.57932323 0.053375851 1.485
0.58192694 0.053375851 1.485
0.58453065 0.053375851 1.485
0.59069276 0.053699341 1.4940001
0.5933122 0.053699341 1.4940001
0.59313953 0.053447735 1.4870001
0.59534609 0.053411793 1.4860001
0.59634197 0.053268019 1.4820001
0.59894043 0.053268019 1.4820001
0.20878518 0.068532541 1.8180001
0.21197274 0.068532541 1.8180001
0.21385846 0.068117879 1.807
0.21714683 0.068155572 1.8080001
0.18940383 0.056168035 1.4900001
0.1920163 0.056168035 1.4900001
0.19449814 0.056130335 1.4890001
0.19803549 0.056394212 1.4960001
0.20065849 0.056394212 1.4960001
0.20328146 0.056394212 1.4960001
0.20590445 0.056394212 1.4960001
0.20852745 0.056394212 1.4960001
0.21016242 0.056130335 1.4890001
0.21263024 0.056092639 1.488
0.21538384 0.056130335 1.4890001
0.21799456 0.056130335 1.4890001
0.22075343 0.056168035 1.4900001
0.22351581 0.056205731 1.4910001
0.22613002 0.056205731 1.4910001
0.22966474 0.056431908 1.4970001
0.23228949 0.056431908 1.4970001
0.23491423 0.056431908 1.4970001
0.23753896 0.056431908 1.4970001
0.24000327 0.056394212 1.4960001
0.24359937 0.056620393 1.5020001
0.24639681 0.056658089 1.503
0.24919775 0.056695785 1.5040001
0.27483499 0.056545001 1.5000001
0.27764997 0.056582697 1.501
0.28028172 0.056582697 1.501
0.28272501 0.056545001 1.5000001
0.285355 0.056545001 1.5000001
0.28817698 0.056582697 1.501
0.29119623 0.056658089 1.503
0.29265851 0.056431908 1.4970001
0.295086 0.056394212 1.4960001
0.29890302 0.056620393 1.5020001
0.39161226 0.05631882 1.4940001
0.39396787 0.056281123 1.493
0.42474499 0.056545001 1.5000001
0.42765993 0.056582697 1.501
0.42857164 0.056356516 1.4950001
0.43119287 0.056356516 1.4950001
0.43381411 0.056356516 1.4950001
0.43643534 0.056356516 1.4950001
0.43905658 0.056356516 1.4950001
0.44197324 0.056394212 1.4960001
0.44429904 0.056356516 1.4950001
0.44692028 0.056356516 1.4950001
0.44954151 0.056356516 1.4950001
0.45186031 0.05631882 1.4940001
0.45447978 0.05631882 1.4940001
0.45709926 0.05631882 1.4940001
0.45971873 0.05631882 1.4940001
0.46419498 0.056545001 1.5000001
0.46495768 0.05631882 1.4940001
0.46757719 0.05631882 1.4940001
0.472085 0.056545001 1.5000001
0.47471499 0.056545001 1.5000001
0.47543561 0.05631882 1.4940001
0.47805509 0.05631882 1.4940001
0.48067456 0.05631882 1.4940001
0.48588198 0.056620393 1.5020001
0.4885155 0.056620393 1.5020001
0.49114898 0.056620393 1.5020001
0.49148124 0.056356516 1.4950001
0.49410248 0.056356516 1.4950001
0.49672371 0.056356516 1.4950001
0.501683 0.056620393 1.5020001
0.50532383 0.056733482 1.5050001
0.50762504 0.056695785 1.5040001
0.51026207 0.056695785 1.5040001
0.5128991 0.056695785 1.5040001
0.51553613 0.056695785 1.5040001
0.51782858 0.056658089 1.503
0.52046382 0.056658089 1.503
0.52379519 0.056733482 1.5050001
0.52153689 0.056205731 1.4910001
0.52204186 0.05597955 1.485
0.52535212 0.056054942 1.4870001
0.53506035 0.056808878 1.5070001
0.54056054 0.056281123 1.493
0.54317826 0.056281123 1.493
0.54360259 0.056054942 1.4870001
0.54620981 0.056054942 1.4870001
0.55103147 0.056281123 1.493
0.55290753 0.056205731 1.4910001
0.55365884 0.056017246 1.4860001
0.55701298 0.056092639 1.488
0.56075019 0.056205731 1.4910001
0.56034166 0.055904157 1.483
0.56218266 0.055828761 1.4810001
0.56477934 0.055828761 1.4810001
0.56967467 0.056054942 1.4870001
0.57228184 0.056054942 1.4870001
0.57411587 0.05597955 1.485
0.57671952 0.05597955 1.485
0.57932323 0.05597955 1.485
0.58231884 0.056017246 1.4860001
0.58492428 0.056017246 1.4860001
0.59069276 0.05631882 1.4940001
0.5905323 0.056054942 1.4870001
0.59313953 0.056054942 1.4870001
0.59254164 0.055753369 1.4790001
0.59593958 0.055828761 1.4810001
0.59853625 0.055828761 1.4810001
0.60113299 0.055828761 1.4810001
0.20867033 0.07168065 1.817
0.21197274 0.071720101 1.8180001
0.21492361 0.071641199 1.8160001
0.21810766 0.071641199 1.8160001
0.18953095 0.05881995 1.4910001
0.1920163 0.058780499 1.4900001
0.19449814 0.058741048 1.4890001
0.19803549 0.0590172 1.4960001
0.20065849 0.0590172 1.4960001
0.20409676 0.059253901 1.5020001
0.20576681 0.058977749 1.4950001
0.20838805 0.058977749 1.4950001
0.21002127 0.058701601 1.488
0.21263024 0.058701601 1.488
0.2152392 0.058701601 1.488
0.21784815 0.058701601 1.488
0.22060527 0.058741048 1.4890001
0.2233659 0.058780499 1.4900001
0.22597836 0.058780499 1.4900001
0.22859083 0.058780499 1.4900001
0.2312033 0.058780499 1.4900001
0.23381576 0.058780499 1.4900001
0.23658691 0.05881995 1.4910001
0.24016371 0.059056651 1.4970001
0.24246408 0.058977749 1.4950001
0.24623287 0.059253901 1.5020001
0.24903207 0.059293348 1.503
0.27483499 0.059175 1.5000001
0.27764997 0.05921445 1.501
0.28028172 0.05921445 1.501
0.28272501 0.059175 1.5000001
0.28554523 0.05921445 1.501
0.28817698 0.05921445 1.501
0.29138997 0.059332799 1.5040001
0.29402697 0.059332799 1.5040001
0.29646674 0.059293348 1.503
0.29890302 0.059253901 1.5020001
0.3015365 0.059253901 1.5020001
0.37665018 0.059056651 1.4970001
0.37902158 0.0590172 1.4960001
0.39318499 0.059175 1.5000001
0.39555112 0.059135549 1.4990001
0.39817938 0.059135549 1.4990001
0.42446184 0.059135549 1.4990001
0.42737499 0.059175 1.5000001
0.42857164 0.058977749 1.4950001
0.43119287 0.058977749 1.4950001
0.43381411 0.058977749 1.4950001
0.43643534 0.058977749 1.4950001
0.43905658 0.058977749 1.4950001
0.44138238 0.058938298 1.4940001
0.44459623 0.0590172 1.4960001
0.44751817 0.059056651 1.4970001
0.45014292 0.059056651 1.4970001
0.45276764 0.059056651 1.4970001
0.45691341 0.059253901 1.5020001
0.45740521 0.058977749 1.4950001
0.46033415 0.0590172 1.4960001
0.4607909 0.058741048 1.4890001
0.4612231 0.0584649 1.4820001
0.46382153 0.0584649 1.4820001
0.46767887 0.058622699 1.4860001
0.47471499 0.059175 1.5000001
0.47734499 0.059175 1.5000001
0.47997499 0.059175 1.5000001
0.48260501 0.059175 1.5000001
0.48620546 0.059293348 1.503
0.48916596 0.059332799 1.5040001
0.49245697 0.059411701 1.506
0.49279624 0.059135549 1.4990001
0.49278048 0.05881995 1.4910001
0.49539468 0.05881995 1.4910001
0.49800891 0.05881995 1.4910001
