# .PCD v0.7 - Point Cloud Data file format
VERSION 0.7
FIELDS x y z
SIZE 4 4 4
TYPE F F F
COUNT 1 1 1
WIDTH 1379
HEIGHT 1
VIEWPOINT 0 0 0 1 0 0 0
POINTS 1379
DATA ascii
-0.45599815 0.3160997 1.01
-0.45999488 0.3181853 1.011
-0.45822227 0.3181853 1.011
-0.45811355 0.31742609 1.003
-0.45635498 0.31742609 1.003
-0.45459637 0.31742609 1.003
-0.4484334 0.32312268 1.021
-0.44664326 0.32312268 1.021
-0.4448531 0.32312268 1.021
-0.44306296 0.32312268 1.021
-0.44040841 0.32248971 1.0190001
-0.45987216 0.31918469 1.003
-0.45811355 0.31918469 1.003
-0.45453501 0.31791177 0.99900007
-0.45278344 0.31791177 0.99900007
-0.45058036 0.31759354 0.99800003
-0.44883054 0.31759354 0.99800003
-0.4470807 0.31759354 0.99800003
-0.45154646 0.3258675 1.024
-0.4484334 0.32491282 1.021
-0.44664326 0.32491282 1.021
-0.4448531 0.32491282 1.021
-0.44306296 0.32491282 1.021
-0.44040841 0.32427636 1.0190001
-0.44077396 0.3258675 1.024
-0.43897855 0.3258675 1.024
-0.43718314 0.3258675 1.024
-0.438364 0.32809514 1.031
-0.43655634 0.32809514 1.031
-0.43390527 0.32745868 1.029
-0.4321011 0.32745868 1.029
-0.45987216 0.3209433 1.003
-0.45811355 0.3209433 1.003
-0.45499 0.31998333 1
-0.45278344 0.31966335 0.99900007
-0.45012888 0.31902337 0.99700004
-0.4483808 0.31902337 0.99700004
-0.4470807 0.31934336 0.99800003
-0.45113179 0.32350314 1.011
-0.45202598 0.32542306 1.0170001
-0.4520137 0.32670298 1.021
-0.45022357 0.32670298 1.021
-0.44711578 0.32574302 1.018
-0.44533089 0.32574302 1.018
-0.4448531 0.32670298 1.021
-0.44306296 0.32670298 1.021
-0.4412728 0.32670298 1.021
-0.44077396 0.32766294 1.024
-0.43897855 0.32766294 1.024
-0.43718314 0.32766294 1.024
-0.43793884 0.32958284 1.0300001
-0.43613291 0.32958284 1.0300001
-0.43390527 0.32926285 1.029
-0.4321011 0.32926285 1.029
-0.42987877 0.32894287 1.028
-0.45895517 0.32205841 1.001
-0.45674333 0.32173666 1
-0.45499 0.32173666 1
-0.45278344 0.32141492 0.99900007
-0.45103183 0.32141492 0.99900007
-0.44928026 0.32141492 0.99900007
-0.44887263 0.32238013 1.0020001
-0.45023933 0.32463229 1.0090001
-0.45069256 0.32624099 1.0140001
-0.45024285 0.32720619 1.0170001
-0.44890067 0.32752791 1.018
-0.44711578 0.32752791 1.018
-0.44533089 0.32752791 1.018
-0.4448531 0.32849315 1.021
-0.44306296 0.32849315 1.021
-0.4412728 0.32849315 1.021
-0.44077396 0.32945836 1.024
-0.43897855 0.32945836 1.024
-0.43718314 0.32945836 1.024
-0.43623811 0.33010182 1.026
-0.43570948 0.33106703 1.029
-0.43390527 0.33106703 1.029
-0.4321011 0.33106703 1.029
-0.42862424 0.32978007 1.0250001
-0.42641068 0.32945836 1.024
-0.46236539 0.32251954 0.99700004
-0.46154132 0.32316652 0.99900007
-0.46071026 0.3238135 1.001
-0.45895517 0.3238135 1.001
-0.45674333 0.32348999 1
-0.45453501 0.32316652 0.99900007
-0.45278344 0.32316652 0.99900007
-0.45103183 0.32316652 0.99900007
-0.45107919 0.32446048 1.003
-0.44887263 0.32413697 1.0020001
-0.44979313 0.32607791 1.008
-0.44891471 0.32672489 1.01
-0.44891471 0.32801884 1.0140001
-0.44890067 0.32931283 1.018
-0.44711578 0.32931283 1.018
-0.44533089 0.32931283 1.018
-0.443546 0.32931283 1.018
-0.44306296 0.33028328 1.021
-0.4412728 0.33028328 1.021
-0.44034353 0.33093026 1.023
-0.43854988 0.33093026 1.023
-0.43761009 0.33157724 1.0250001
-0.43708846 0.33254772 1.028
-0.43570948 0.3328712 1.029
-0.43390527 0.3328712 1.029
-0.4321011 0.3328712 1.029
-0.42904243 0.33190075 1.026
-0.42682707 0.33157724 1.0250001
-0.42461526 0.33125377 1.024
-0.42281982 0.33125377 1.024
-0.46271694 0.32329187 0.99400002
-0.46061733 0.3242676 0.99700004
-0.45794874 0.3236171 0.99500006
-0.45620418 0.3236171 0.99500006
-0.45582983 0.32459286 0.99800003
-0.45544499 0.32556859 1.001
-0.45278344 0.32491809 0.99900007
-0.45193481 0.32556859 1.001
-0.45152891 0.32654431 1.0040001
-0.44932058 0.32621905 1.003
-0.44890067 0.32719478 1.006
-0.44802576 0.32784528 1.008
-0.44714382 0.32849577 1.01
-0.44713682 0.32979673 1.0140001
-0.44448051 0.32914627 1.0120001
-0.44489342 0.33077246 1.0170001
-0.44311029 0.33077246 1.0170001
-0.44132715 0.33077246 1.0170001
-0.43954399 0.33077246 1.0170001
-0.43905219 0.33174819 1.0200001
-0.43726379 0.33174819 1.0200001
-0.43632928 0.33239868 1.0220001
-0.43708846 0.33435014 1.028
-0.43443918 0.33369964 1.026
-0.43264025 0.33369964 1.026
-0.4321011 0.3346754 1.029
-0.42946059 0.33402491 1.0270001
-0.42682707 0.33337441 1.0250001
-0.42461526 0.33304918 1.024
-0.42158112 0.33207345 1.021
-0.41896865 0.33142295 1.0190001
-0.46385747 0.32339969 0.98900002
-0.46305797 0.3240537 0.99100006
-0.46143788 0.32536167 0.99500006
-0.45969331 0.32536167 0.99500006
-0.45794874 0.32536167 0.99500006
-0.45620418 0.32536167 0.99500006
-0.45537311 0.32601568 0.99700004
-0.45362502 0.32601568 0.99700004
-0.4514237 0.32568869 0.99600005
-0.45012888 0.32601568 0.99700004
-0.45017973 0.32732368 1.001
-0.44842464 0.32732368 1.001
-0.44800821 0.32830465 1.0040001
-0.44713682 0.32895863 1.006
-0.44670111 0.32993963 1.0090001
-0.44537297 0.33026662 1.01
-0.44360209 0.33026662 1.01
-0.44183123 0.33026662 1.01
-0.44180319 0.33157462 1.0140001
-0.4400253 0.33157462 1.0140001
-0.43824741 0.33157462 1.0140001
-0.43776086 0.33255562 1.0170001
-0.43769249 0.33386359 1.021
-0.43675619 0.3345176 1.023
-0.43623811 0.33549857 1.026
-0.43443918 0.33549857 1.026
-0.43264025 0.33549857 1.026
-0.43084133 0.33549857 1.026
-0.42904243 0.33549857 1.026
-0.42641068 0.33484459 1.024
-0.42420059 0.3345176 1.023
-0.42116821 0.3335366 1.0200001
-0.41896865 0.3332096 1.0190001
-0.41759139 0.3335366 1.0200001
-0.46417922 0.32414749 0.98600006
-0.46259069 0.32546249 0.99000007
-0.46085489 0.32546249 0.99000007
-0.46004662 0.32611999 0.99200004
-0.4583073 0.32611999 0.99200004
-0.456568 0.32611999 0.99200004
-0.4557457 0.32677749 0.99400002
-0.45445961 0.32710624 0.99500006
-0.45271504 0.32710624 0.99500006
-0.45051724 0.32677749 0.99400002
-0.45012888 0.32776374 0.99700004
-0.4483808 0.32776374 0.99700004
-0.44663274 0.32776374 0.99700004
-0.44577712 0.32842124 0.99900007
-0.4458034 0.32973626 1.003
-0.44670111 0.33170876 1.0090001
-0.44537297 0.33203751 1.01
-0.44360209 0.33203751 1.01
-0.44183123 0.33203751 1.01
-0.44006038 0.33203751 1.01
-0.4400253 0.33335251 1.0140001
-0.43824741 0.33335251 1.0140001
-0.43646953 0.33335251 1.0140001
-0.4364064 0.3346675 1.018
-0.43547541 0.335325 1.0200001
-0.43453735 0.3359825 1.0220001
-0.43359232 0.33664 1.024
-0.43264025 0.3372975 1.026
-0.43084133 0.3372975 1.026
-0.42862424 0.33696875 1.0250001
-0.42641068 0.33664 1.024
-0.42461526 0.33664 1.024
-0.42158112 0.33565375 1.021
-0.41896865 0.33499625 1.0190001
-0.41759139 0.335325 1.0200001
-0.41621065 0.33565375 1.021
-0.46449044 0.32488477 0.98300004
-0.46370846 0.32554579 0.98500007
-0.46198142 0.32554579 0.98500007
-0.46025437 0.32554579 0.98500007
-0.46038938 0.32686779 0.98900002
-0.45865533 0.32686779 0.98900002
-0.45692128 0.32686779 0.98900002
-0.45518726 0.32686779 0.98900002
-0.45482868 0.32785931 0.99200004
-0.45308939 0.32785931 0.99200004
-0.45135006 0.32785931 0.99200004
-0.44915754 0.3275288 0.99100006
-0.4492259 0.32885081 0.99500006
-0.44748133 0.32885081 0.99500006
-0.44528881 0.3285203 0.99400002
-0.44443843 0.32918131 0.99600005
-0.44402552 0.33017284 0.99900007
-0.44360209 0.33116433 1.0020001
-0.44316813 0.33215585 1.005
-0.44228446 0.33281687 1.0070001
-0.44051886 0.33281687 1.0070001
-0.43875325 0.33281687 1.0070001
-0.43828949 0.33380836 1.01
-0.43695083 0.33413887 1.011
-0.43517822 0.33413887 1.011
-0.43469167 0.33513036 1.0140001
-0.43419459 0.33612189 1.0170001
-0.43241146 0.33612189 1.0170001
-0.43147516 0.3367829 1.0190001
-0.43011019 0.33711341 1.0200001
-0.43126127 0.33942693 1.0270001
-0.42736974 0.3377744 1.0220001
-0.42516142 0.33744389 1.021
-0.42337126 0.33744389 1.021
-0.42158112 0.33744389 1.021
-0.41896865 0.3367829 1.0190001
-0.41759139 0.33711341 1.0200001
-0.41621065 0.33744389 1.021
-0.46631652 0.3242825 0.97600007
-0.46555734 0.32494703 0.97800004
-0.46260035 0.32527927 0.97900003
-0.46276692 0.3266083 0.98300004
-0.46151239 0.32694057 0.98400003
-0.46072164 0.32760507 0.98600006
-0.45945838 0.32793733 0.98700005
-0.45772782 0.32793733 0.98700005
-0.4573833 0.3289341 0.99000007
-0.4556475 0.3289341 0.99000007
-0.45345321 0.32860184 0.98900002
-0.45171916 0.32860184 0.98900002
-0.44998512 0.32860184 0.98900002
-0.44825107 0.32860184 0.98900002
-0.4469685 0.3289341 0.99000007
-0.4465819 0.32993087 0.99300003
-0.44349688 0.3289341 0.99000007
-0.44309977 0.32993087 0.99300003
-0.44180319 0.33026314 0.99400002
-0.44227394 0.33192441 0.99900007
-0.44184527 0.33292118 1.0020001
-0.44052762 0.33325344 1.003
-0.4370192 0.33192441 0.99900007
-0.43526763 0.33192441 0.99900007
-0.43611974 0.33391795 1.005
-0.43565422 0.33491471 1.008
-0.43388689 0.33491471 1.008
-0.43211952 0.33491471 1.008
-0.43120602 0.33557922 1.01
-0.42986035 0.33591148 1.011
-0.42893457 0.33657601 1.013
-0.4263151 0.33591148 1.011
-0.42748195 0.33823729 1.018
-0.42486072 0.33757278 1.016
-0.42391217 0.33823729 1.018
-0.42212728 0.33823729 1.018
-0.42034239 0.33823729 1.018
-0.4193798 0.33890179 1.0200001
-0.41759139 0.33890179 1.0200001
-0.41621065 0.33923405 1.021
-0.41604409 0.34056309 1.0250001
-0.46658918 0.32499173 0.97300005
-0.46460527 0.32599375 0.97600007
-0.46289402 0.32599375 0.97600007
-0.46118277 0.32599375 0.97600007
-0.46088383 0.32699579 0.97900003
-0.45963633 0.32732978 0.98000002
-0.45978713 0.32866585 0.98400003
-0.45945838 0.32966787 0.98700005
-0.45772782 0.32966787 0.98700005
-0.45599729 0.32966787 0.98700005
-0.45380649 0.32933387 0.98600006
-0.45207772 0.32933387 0.98600006
-0.45034891 0.32933387 0.98600006
-0.44862014 0.32933387 0.98600006
-0.4473446 0.32966787 0.98700005
-0.44561404 0.32966787 0.98700005
-0.44523269 0.33066991 0.99000007
-0.44394487 0.3310039 0.99100006
-0.44220731 0.3310039 0.99100006
-0.44180319 0.33200595 0.99400002
-0.4409458 0.33267397 0.99600005
-0.44008142 0.33334199 0.99800003
-0.43745315 0.33267397 0.99600005
-0.43570682 0.33267397 0.99600005
-0.43396053 0.33267397 0.99600005
-0.43351606 0.33367598 0.99900007
-0.43306106 0.33467802 1.0020001
-0.43302599 0.33601406 1.006
-0.43169084 0.33634806 1.0070001
-0.42992523 0.33634806 1.0070001
-0.42858478 0.33668208 1.008
-0.42766431 0.3373501 1.01
-0.42505008 0.33668208 1.008
-0.42622218 0.33902013 1.0150001
-0.42360622 0.33835211 1.013
-0.42307934 0.33935416 1.016
-0.42129794 0.33935416 1.016
-0.4207553 0.3403562 1.0190001
-0.41896865 0.3403562 1.0190001
-0.417182 0.3403562 1.0190001
-0.41661829 0.34135821 1.0220001
-0.41482639 0.34135821 1.0220001
-0.46685129 0.32569042 0.97000003
-0.46563011 0.3260262 0.97100008
-0.46536097 0.32703349 0.97400004
-0.46365321 0.32703349 0.97400004
-0.4633683 0.32804078 0.97700006
-0.46023771 0.32703349 0.97400004
-0.45947152 0.32770503 0.97600007
-0.45963633 0.32904807 0.98000002
-0.45931986 0.33005536 0.98300004
-0.45852736 0.33072689 0.98500007
-0.45680031 0.33072689 0.98500007
-0.45599729 0.3313984 0.98700005
-0.45426676 0.3313984 0.98700005
-0.4525362 0.3313984 0.98700005
-0.45034891 0.33106264 0.98600006
-0.44862014 0.33106264 0.98600006
-0.44689134 0.33106264 0.98600006
-0.44516256 0.33106264 0.98600006
-0.44343379 0.33106264 0.98600006
-0.44260094 0.33173418 0.98800004
-0.44086865 0.33173418 0.98800004
-0.44091424 0.33307722 0.99200004
-0.44006038 0.33374876 0.99400002
-0.43875852 0.33408451 0.99500006
-0.43789238 0.33475605 0.99700004
-0.43439448 0.33341298 0.99300003
-0.4326534 0.33341298 0.99300003
-0.4322142 0.33442026 0.99600005
-0.43176445 0.33542758 0.99900007
-0.43044332 0.33576334 1
-0.42911869 0.33609909 1.001
-0.42864442 0.33710638 1.0040001
-0.42688406 0.33710638 1.0040001
-0.42597058 0.33777791 1.006
-0.42505008 0.33844945 1.008
-0.42454249 0.33945674 1.011
-0.42360622 0.34012824 1.013
-0.42183009 0.34012824 1.013
-0.42129794 0.34113553 1.016
-0.41951656 0.34113553 1.016
-0.41896865 0.34214282 1.0190001
-0.417182 0.34214282 1.0190001
-0.41661829 0.34315014 1.0220001
-0.41482639 0.34315014 1.0220001
-0.46588871 0.32671613 0.96800005
-0.46563011 0.32772869 0.97100008
-0.46392763 0.32772869 0.97100008
-0.46222514 0.32772869 0.97100008
-0.46099693 0.3280662 0.97200006
-0.46023771 0.32874122 0.97400004
-0.45947152 0.32941628 0.97600007
-0.45776027 0.32941628 0.97600007
-0.45791808 0.33076632 0.98000002
-0.45713082 0.33144137 0.98200005
-0.45540905 0.33144137 0.98200005
-0.45368728 0.33144137 0.98200005
-0.45334625 0.33245391 0.98500007
-0.45207772 0.33279142 0.98600006
-0.44943544 0.3321164 0.98400003
-0.44771016 0.3321164 0.98400003
-0.44598487 0.3321164 0.98400003
-0.44425958 0.3321164 0.98400003
-0.44253433 0.3321164 0.98400003
-0.44260094 0.33346647 0.98800004
-0.44131488 0.33380398 0.98900002
-0.43958083 0.33380398 0.98900002
-0.43873221 0.334479 0.99100006
-0.43655369 0.33414149 0.99000007
-0.4356963 0.33481655 0.99200004
-0.43439448 0.33515406 0.99300003
-0.4326534 0.33515406 0.99300003
-0.4322142 0.33616659 0.99600005
-0.43090007 0.3365041 0.99700004
-0.43044332 0.33751667 1
-0.42868999 0.33751667 1
-0.42821747 0.33852923 1.003
-0.4264589 0.33852923 1.003
-0.42597058 0.33954176 1.006
-0.42547175 0.34055433 1.0090001
-0.4249624 0.34156686 1.0120001
-0.42318803 0.34156686 1.0120001
-0.42141366 0.34156686 1.0120001
-0.41963929 0.34156686 1.0120001
-0.41786492 0.34156686 1.0120001
-0.41896865 0.34392947 1.0190001
-0.417182 0.34392947 1.0190001
-0.41661829 0.34494203 1.0220001
-0.41482639 0.34494203 1.0220001
-0.47017035 0.32434213 0.95600003
-0.46947429 0.32502067 0.95800006
-0.4692595 0.32603848 0.96100003
-0.46854764 0.32671702 0.96300006
-0.46685919 0.32671702 0.96300006
-0.46661985 0.32773483 0.96600002
-0.46396357 0.32705629 0.96400005
-0.4641915 0.32841337 0.96800005
-0.46297204 0.32875264 0.96900004
-0.46222514 0.32943118 0.97100008
-0.46099693 0.32977045 0.97200006
-0.46023771 0.33044899 0.97400004
-0.45852998 0.33044899 0.97400004
-0.45822927 0.33146679 0.97700006
-0.45651627 0.33146679 0.97700006
-0.45713082 0.33316314 0.98200005
-0.4558728 0.33350241 0.98300004
-0.45414928 0.33350241 0.98300004
-0.45242575 0.33350241 0.98300004
-0.45070222 0.33350241 0.98300004
-0.44806522 0.33282387 0.98100007
-0.44634518 0.33282387 0.98100007
-0.44462517 0.33282387 0.98100007
-0.44290516 0.33282387 0.98100007
-0.44118512 0.33282387 0.98100007
-0.44036105 0.33350241 0.98300004
-0.43952999 0.33418095 0.98500007
-0.43780294 0.33418095 0.98500007
-0.43696135 0.33485949 0.98700005
-0.43523082 0.33485949 0.98700005
-0.43481791 0.3358773 0.99000007
-0.43351954 0.33621657 0.99100006
-0.4326534 0.33689511 0.99300003
-0.43091235 0.33689511 0.99300003
-0.43046787 0.33791292 0.99600005
-0.43044332 0.33927 1
-0.42868999 0.33927 1
-0.42821747 0.3402878 1.003
-0.42773443 0.34130561 1.006
-0.42597058 0.34130561 1.006
-0.42505008 0.34198415 1.008
-0.42622218 0.34435904 1.0150001
-0.42318803 0.34334123 1.0120001
-0.42141366 0.34334123 1.0120001
-0.41963929 0.34334123 1.0120001
-0.41827783 0.3436805 1.013
-0.41896865 0.34571612 1.0190001
-0.4167726 0.34537685 1.018
-0.41661829 0.34673393 1.0220001
-0.4152323 0.3470732 1.023
-0.47036585 0.32499522 0.95300007
-0.46967855 0.32567728 0.95500004
-0.46849418 0.3260183 0.95600003
-0.46681798 0.3260183 0.95600003
-0.46562836 0.32635933 0.95700002
-0.4639504 0.32635933 0.95700002
-0.4637216 0.32738239 0.96000004
-0.46348226 0.32840547 0.96300006
-0.46227333 0.3287465 0.96400005
-0.45962757 0.32806444 0.96200007
-0.46032101 0.32976955 0.96700007
-0.4590998 0.33011058 0.96800005
-0.45740259 0.33011058 0.96800005
-0.45570534 0.33011058 0.96800005
-0.45400813 0.33011058 0.96800005
-0.45417994 0.33147469 0.97200006
-0.45294124 0.33181569 0.97300005
-0.45309025 0.3331798 0.97700006
-0.45137724 0.3331798 0.97700006
-0.45104501 0.33420286 0.98000002
-0.44932672 0.33420286 0.98000002
-0.44715172 0.33386183 0.97900003
-0.4454352 0.33386183 0.97900003
-0.44462517 0.33454388 0.98100007
-0.44290516 0.33454388 0.98100007
-0.44118512 0.33454388 0.98100007
-0.43812117 0.33352083 0.97800004
-0.43863752 0.33522594 0.98300004
-0.43780294 0.335908 0.98500007
-0.43651864 0.33624899 0.98600006
-0.43434888 0.335908 0.98500007
-0.43393949 0.33693105 0.98800004
-0.43351954 0.33795413 0.99100006
-0.4326534 0.33863616 0.99300003
-0.43091235 0.33863616 0.99300003
-0.43090007 0.34000027 0.99700004
-0.43044332 0.34102333 1
-0.42868999 0.34102333 1
-0.42864442 0.34238744 1.0040001
-0.42815962 0.34341049 1.0070001
-0.42681745 0.34375152 1.008
-0.42589343 0.34443358 1.01
-0.42412257 0.34443358 1.01
-0.42235169 0.34443358 1.01
-0.42183009 0.34545663 1.013
-0.41963929 0.3451156 1.0120001
-0.41827783 0.34545663 1.013
-0.41896865 0.34750277 1.0190001
-0.41800079 0.34818482 1.021
-0.41284424 0.35295916 1.0350001
-0.41420659 0.35568732 1.0430001
-0.41094276 0.35602835 1.044
-0.47122237 0.32495227 0.94800007
-0.46956021 0.32495227 0.94800007
-0.4683916 0.32529506 0.94900006
-0.46869493 0.32666615 0.95300007
-0.467024 0.32666615 0.95300007
-0.46584138 0.32700893 0.95400006
-0.46611491 0.32838005 0.95800006
-0.46443519 0.32838005 0.95800006
-0.4627555 0.32838005 0.95800006
-0.46155712 0.32872283 0.95900005
-0.45987567 0.32872283 0.95900005
-0.45771644 0.32838005 0.95800006
-0.45603675 0.32838005 0.95800006
-0.45625415 0.32975116 0.96200007
-0.45456743 0.32975116 0.96200007
-0.45570534 0.33180782 0.96800005
-0.4530701 0.33112225 0.96600002
-0.45231089 0.33180782 0.96800005
-0.45107919 0.33215058 0.96900004
-0.45123523 0.33352169 0.97300005
-0.45137724 0.33489281 0.97700006
-0.4501245 0.33523557 0.97800004
-0.44840974 0.33523557 0.97800004
-0.44623822 0.33489281 0.97700006
-0.4454352 0.33557835 0.97900003
-0.44326547 0.33523557 0.97800004
-0.44109923 0.33489281 0.97700006
-0.43893647 0.33455002 0.97600007
-0.43901712 0.33592114 0.98000002
-0.43729886 0.33592114 0.98000002
-0.43780294 0.33763501 0.98500007
-0.43519047 0.33694947 0.98300004
-0.43478984 0.3379778 0.98600006
-0.43306106 0.3379778 0.98600006
-0.43264464 0.33900613 0.98900002
-0.43221772 0.34003446 0.99200004
-0.4313463 0.34072 0.99400002
-0.43090007 0.34174833 0.99700004
-0.42915201 0.34174833 0.99700004
-0.42826131 0.3424339 0.99900007
-0.42693666 0.34277666 1
-0.42688406 0.34414777 1.0040001
-0.42639402 0.3451761 1.0070001
-0.42462841 0.3451761 1.0070001
-0.42412257 0.34620443 1.01
-0.42235169 0.34620443 1.01
-0.42183009 0.34723276 1.013
-0.42005396 0.34723276 1.013
-0.41869074 0.34757555 1.0140001
-0.41814634 0.34860387 1.0170001
-0.41800079 0.34997496 1.021
-0.41906419 0.3523744 1.028
-0.41766766 0.35271719 1.029
-0.41546023 0.35545939 1.0370001
-0.41284424 0.35477385 1.0350001
-0.41182381 0.35545939 1.0370001
-0.41119173 0.35648772 1.0400001
-0.40897465 0.35614496 1.039
-0.47188687 0.32592538 0.94600004
-0.47022822 0.32592538 0.94600004
-0.46906489 0.32626989 0.94700003
-0.46740448 0.32626989 0.94700003
-0.4672195 0.3273035 0.95000005
-0.46604389 0.32764801 0.95100003
-0.46486476 0.32799256 0.95200002
-0.46368214 0.32833707 0.95300007
-0.4634656 0.32937068 0.95600003
-0.46178943 0.32937068 0.95600003
-0.46059453 0.32971522 0.95700002
-0.45699844 0.32833707 0.95300007
-0.45532751 0.32833707 0.95300007
-0.45460865 0.32902616 0.95500004
-0.45388275 0.32971522 0.95700002
-0.45220482 0.32971522 0.95700002
-0.4519392 0.3307488 0.96000004
-0.45166305 0.3317824 0.96300006
-0.4499746 0.3317824 0.96300006
-0.44968265 0.33281597 0.96600002
-0.44845268 0.33316052 0.96700007
-0.44952923 0.3352277 0.97300005
-0.44828349 0.33557221 0.97400004
-0.44840974 0.33695033 0.97800004
-0.44669497 0.33695033 0.97800004
-0.4454352 0.33729488 0.97900003
-0.44235897 0.33626127 0.97600007
-0.44064772 0.33626127 0.97600007
-0.43938622 0.33660582 0.97700006
-0.43946511 0.33798394 0.98100007
-0.43729886 0.33763939 0.98000002
-0.436914 0.338673 0.98300004
-0.43563318 0.33901751 0.98400003
-0.43346694 0.338673 0.98300004
-0.43306106 0.33970657 0.98600006
-0.43264464 0.34074017 0.98900002
-0.43221772 0.34177375 0.99200004
-0.43004444 0.34142923 0.99100006
-0.42960349 0.34246281 0.99400002
-0.42915201 0.34349641 0.99700004
-0.42826131 0.34418547 0.99900007
-0.42693666 0.34452999 1
-0.42688406 0.34590811 1.0040001
-0.42512372 0.34590811 1.0040001
-0.42462841 0.34694171 1.0070001
-0.42244288 0.34659716 1.006
-0.42109719 0.34694171 1.0070001
-0.42183009 0.34900889 1.013
-0.42005396 0.34900889 1.013
-0.41869074 0.34935343 1.0140001
-0.41814634 0.35038701 1.0170001
-0.41800079 0.35176513 1.021
-0.41906419 0.35417685 1.028
-0.41766766 0.35452136 1.029
-0.41707593 0.35555497 1.0320001
-0.41647366 0.35658854 1.0350001
-0.41546023 0.3572776 1.0370001
-0.41284424 0.35658854 1.0350001
-0.41182381 0.3572776 1.0370001
-0.41119173 0.35831121 1.0400001
-0.40936828 0.35831121 1.0400001
-0.47104263 0.3258526 0.94100004
-0.46939275 0.3258526 0.94100004
-0.46823993 0.32619891 0.94200003
-0.46757892 0.32689145 0.94400007
-0.46592379 0.32689145 0.94400007
-0.46623588 0.3282766 0.94800007
-0.46506378 0.32862288 0.94900006
-0.46339986 0.32862288 0.94900006
-0.46270904 0.32931545 0.95100003
-0.46201122 0.330008 0.95300007
-0.46082333 0.3303543 0.95400006
-0.45866936 0.330008 0.95300007
-0.45699844 0.330008 0.95300007
-0.45532751 0.330008 0.95300007
-0.45318055 0.32966173 0.95200002
-0.45293421 0.33070058 0.95500004
-0.45078725 0.3303543 0.95400006
-0.45052689 0.33139315 0.95700002
-0.44931796 0.33173943 0.95800006
-0.44857278 0.332432 0.96000004
-0.44828612 0.33347085 0.96300006
-0.44845268 0.33485597 0.96700007
-0.44768122 0.33554855 0.96900004
-0.44644248 0.33589482 0.97000003
-0.44520026 0.33624113 0.97100008
-0.444868 0.33727998 0.97400004
-0.44225028 0.3365874 0.97200006
-0.44235897 0.33797252 0.97600007
-0.44064772 0.33797252 0.97600007
-0.43983594 0.3386651 0.97800004
-0.43812117 0.3386651 0.97800004
-0.43685263 0.33901137 0.97900003
-0.43646953 0.34005022 0.98200005
-0.43474776 0.34005022 0.98200005
-0.43302599 0.34005022 0.98200005
-0.43174341 0.34039652 0.98300004
-0.43133226 0.34143537 0.98600006
-0.43047488 0.34212792 0.98800004
-0.42874259 0.34212792 0.98800004
-0.4287391 0.34351307 0.99200004
-0.42915201 0.34524447 0.99700004
-0.42868999 0.34628332 1
-0.42693666 0.34628332 1
-0.42518333 0.34628332 1
-0.42512372 0.34766847 1.0040001
-0.42462841 0.34870732 1.0070001
-0.42244288 0.34836105 1.006
-0.42109719 0.34870732 1.0070001
-0.42058083 0.34974617 1.01
-0.41880995 0.34974617 1.01
-0.41786492 0.35043874 1.0120001
-0.41732401 0.35147759 1.0150001
-0.419229 0.35459414 1.024
-0.41906419 0.35597926 1.028
-0.41766766 0.35632554 1.029
-0.4178842 0.35805696 1.034
-0.41687605 0.35874954 1.036
-0.4150596 0.35874954 1.036
-0.41443977 0.35978839 1.039
-0.41182381 0.35909581 1.0370001
-0.41119173 0.36013466 1.0400001
-0.46954092 0.32645839 0.93800002
-0.46789628 0.32645839 0.93800002
-0.46674871 0.32680643 0.93900007
-0.46658829 0.32785055 0.94200003
-0.46493664 0.32785055 0.94200003
-0.46476045 0.32889464 0.94500005
-0.46457371 0.32993877 0.94800007
-0.46291155 0.32993877 0.94800007
-0.46173593 0.3302868 0.94900006
-0.46055683 0.33063483 0.95000005
-0.45889115 0.33063483 0.95000005
-0.45770678 0.33098286 0.95100003
-0.45603937 0.33098286 0.95100003
-0.45389417 0.33063483 0.95000005
-0.45222849 0.33063483 0.95000005
-0.45103711 0.33098286 0.95100003
-0.4493697 0.33098286 0.95100003
-0.44911459 0.33202699 0.95400006
-0.44931796 0.33341911 0.95800006
-0.44763827 0.33341911 0.95800006
-0.44688961 0.33411521 0.96000004
-0.44659767 0.3351593 0.96300006
-0.44629523 0.33620343 0.96600002
-0.44644248 0.33759555 0.97000003
-0.44474176 0.33759555 0.97000003
-0.44441125 0.33863968 0.97300005
-0.44270527 0.33863968 0.97300005
-0.44235897 0.33968377 0.97600007
-0.44019625 0.33933574 0.97500002
-0.43848675 0.33933574 0.97500002
-0.43722522 0.33968377 0.97600007
-0.43551397 0.33968377 0.97600007
-0.43380272 0.33968377 0.97600007
-0.43341962 0.3407279 0.97900003
-0.43082118 0.34003183 0.97700006
-0.43218264 0.34246808 0.98400003
-0.43045735 0.34246808 0.98400003
-0.42916778 0.34281611 0.98500007
-0.42744073 0.34281611 0.98500007
-0.4270103 0.34386024 0.98800004
-0.42829111 0.34629649 0.99500006
-0.42740393 0.34699255 0.99700004
-0.42693666 0.34803668 1
-0.42560852 0.34838471 1.001
-0.42385343 0.34838471 1.001
-0.42336336 0.3494288 1.0040001
-0.42160302 0.3494288 1.0040001
-0.42026085 0.34977683 1.005
-0.41933158 0.35047293 1.0070001
-0.41756597 0.35047293 1.0070001
-0.41662619 0.35116899 1.0090001
-0.41732401 0.35325721 1.0150001
-0.419229 0.35638955 1.024
-0.41906419 0.35778168 1.028
-0.41766766 0.35812974 1.029
-0.4178842 0.3598699 1.034
-0.41687605 0.36056599 1.036
-0.41465893 0.36021796 1.0350001
-0.41364202 0.36091402 1.0370001
-0.41182381 0.36091402 1.0370001
-0.4100056 0.36091402 1.0370001
-0.46853974 0.32740343 0.93600005
-0.46789628 0.32810301 0.93800002
-0.46625167 0.32810301 0.93800002
-0.46510234 0.3284528 0.93900007
-0.46493664 0.32950217 0.94200003
-0.46426862 0.33020175 0.94400007
-0.46310353 0.33055153 0.94500005
-0.46144664 0.33055153 0.94500005
-0.46027631 0.33090132 0.94600004
-0.46055683 0.33230048 0.95000005
-0.45889115 0.33230048 0.95000005
-0.45578164 0.33125111 0.94700003
-0.45412123 0.33125111 0.94700003
-0.45246083 0.33125111 0.94700003
-0.45175245 0.33195069 0.94900006
-0.44961429 0.3316009 0.94800007
-0.44795212 0.3316009 0.94800007
-0.44911459 0.33369964 0.95400006
-0.44697288 0.33334985 0.95300007
-0.44576922 0.33369964 0.95400006
-0.44549307 0.33474901 0.95700002
-0.4452064 0.33579841 0.96000004
-0.44259918 0.3350988 0.95800006
-0.44506174 0.33824694 0.96700007
-0.44382477 0.33859673 0.96800005
-0.44167081 0.33824694 0.96700007
-0.43997532 0.33824694 0.96700007
-0.44054604 0.33999589 0.97200006
-0.44019625 0.34104526 0.97500002
-0.43848675 0.34104526 0.97500002
-0.43722522 0.34139505 0.97600007
-0.43506774 0.34104526 0.97500002
-0.4342472 0.34174484 0.97700006
-0.43253419 0.34174484 0.97700006
-0.43082118 0.34174484 0.97700006
-0.43042579 0.34279421 0.98000002
-0.43089482 0.34454316 0.98500007
-0.42873207 0.34419337 0.98400003
-0.42613891 0.34349379 0.98200005
-0.42528152 0.34419337 0.98400003
-0.42484757 0.34524274 0.98700005
-0.42526048 0.34699169 0.99200004
-0.42608279 0.34909043 0.99800003
-0.42433298 0.34909043 0.99800003
-0.42385343 0.3501398 1.001
-0.42336336 0.35118917 1.0040001
-0.42202294 0.35153896 1.005
-0.42026085 0.35153896 1.005
-0.41974801 0.35258833 1.008
-0.41798064 0.35258833 1.008
-0.41538745 0.35188875 1.006
-0.41732401 0.35503685 1.0150001
-0.42209482 0.36063349 1.031
-0.42110243 0.36133307 1.033
-0.41969717 0.36168286 1.034
-0.4178842 0.36168286 1.034
-0.41808322 0.36343181 1.039
-0.41666213 0.3637816 1.0400001
-0.41443977 0.36343181 1.039
-0.41420659 0.36483097 1.0430001
-0.47068322 0.3293961 0.93700004
-0.46853974 0.32904455 0.93600005
-0.46739745 0.3293961 0.93700004
-0.46625167 0.32974765 0.93800002
-0.46559766 0.33045074 0.94000006
-0.46345598 0.3300992 0.93900007
-0.46328503 0.33115381 0.94200003
-0.46212342 0.33150536 0.94300002
-0.46047005 0.33150536 0.94300002
-0.4593032 0.33185691 0.94400007
-0.45910245 0.33291152 0.94700003
-0.45744205 0.33291152 0.94700003
-0.45578164 0.33291152 0.94700003
-0.45460075 0.33326307 0.94800007
-0.45246083 0.33291152 0.94700003
-0.45032439 0.33256 0.94600004
-0.44961429 0.33326307 0.94800007
-0.44795212 0.33326307 0.94800007
-0.44628996 0.33326307 0.94800007
-0.44415879 0.33291152 0.94700003
-0.4434329 0.33361462 0.94900006
-0.44409654 0.33537233 0.95400006
-0.44213718 0.33642697 0.95700002
-0.44183999 0.33748159 0.96000004
-0.44054604 0.34170011 0.97200006
-0.4392933 0.34205166 0.97300005
-0.43848675 0.34275475 0.97500002
-0.43677723 0.34275475 0.97500002
-0.43551397 0.3431063 0.97600007
-0.43469167 0.34380937 0.97800004
-0.4329769 0.34380937 0.97800004
-0.43126214 0.34380937 0.97800004
-0.43042579 0.34451246 0.98000002
-0.43089482 0.34627017 0.98500007
-0.42916778 0.34627017 0.98500007
-0.42613891 0.34521556 0.98200005
-0.42528152 0.34591863 0.98400003
-0.42484757 0.34697327 0.98700005
-0.42397439 0.34767637 0.98900002
-0.42522892 0.35013714 0.99600005
-0.42433298 0.35084024 0.99800003
-0.42385343 0.35189489 1.001
-0.42209834 0.35189489 1.001
-0.42076316 0.3522464 1.0020001
-0.41900635 0.3522464 1.0020001
-0.41891515 0.3536526 1.006
-0.4171513 0.3536526 1.006
-0.41456163 0.3529495 1.0040001
-0.4136236 0.3536526 1.006
-0.46967855 0.33033237 0.93500006
-0.46803918 0.33033237 0.93500006
-0.46639982 0.33033237 0.93500006
-0.46476045 0.33033237 0.93500006
-0.46312109 0.33033237 0.93500006
-0.46246883 0.33103898 0.93700004
-0.4623014 0.33209887 0.94000006
-0.46065328 0.33209887 0.94000006
-0.45900512 0.33209887 0.94000006
-0.45833009 0.33280545 0.94200003
-0.45910245 0.33457193 0.94700003
-0.45695898 0.33421865 0.94600004
-0.45530033 0.33421865 0.94600004
-0.45364168 0.33421865 0.94600004
-0.45198303 0.33421865 0.94600004
-0.45032439 0.33421865 0.94600004
-0.44866574 0.33421865 0.94600004
-0.44700706 0.33421865 0.94600004
-0.44534841 0.33421865 0.94600004
-0.43848675 0.34446424 0.97500002
-0.43677723 0.34446424 0.97500002
-0.43551397 0.34481755 0.97600007
-0.43469167 0.34552413 0.97800004
-0.4329769 0.34552413 0.97800004
-0.43126214 0.34552413 0.97800004
-0.42910817 0.34517086 0.97700006
-0.42870754 0.34623075 0.98000002
-0.42916778 0.34799722 0.98500007
-0.42613891 0.34693733 0.98200005
-0.42398492 0.34658402 0.98100007
-0.4222649 0.34658402 0.98100007
-0.42140228 0.34729064 0.98300004
-0.42309424 0.350117 0.99100006
-0.42305741 0.35153019 0.99500006
-0.42258313 0.35259008 0.99800003
-0.42083332 0.35259008 0.99800003
-0.41950342 0.35294336 0.99900007
-0.41817001 0.35329667 1
-0.41600025 0.35294336 0.99900007
-0.41424868 0.35294336 0.99900007
-0.41208419 0.35259008 0.99800003
-0.41115665 0.35329667 1
-0.40981275 0.35364997 1.001
-0.4691762 0.3316167 0.93400002
-0.46703804 0.33126163 0.93300003
-0.46639982 0.33197173 0.93500006
-0.46476045 0.33197173 0.93500006
-0.46312109 0.33197173 0.93500006
-0.46148172 0.33197173 0.93500006
-0.46131778 0.3330369 0.93800002
-0.46016321 0.33339193 0.93900007
-0.45949343 0.33410203 0.94100004
-0.45833009 0.3344571 0.94200003
-0.45813283 0.33552223 0.94500005
-0.45695898 0.3358773 0.94600004
-0.45433775 0.3351672 0.94400007
-0.45316213 0.33552223 0.94500005
-0.45150524 0.33552223 0.94500005
-0.44937232 0.3351672 0.94400007
-0.44771716 0.3351672 0.94400007
-0.44558951 0.33481213 0.94300002
-0.43417531 0.34546363 0.97300005
-0.43469167 0.3472389 0.97800004
-0.4329769 0.3472389 0.97800004
-0.43126214 0.3472389 0.97800004
-0.42910817 0.34688383 0.97700006
-0.42870754 0.347949 0.98000002
-0.42698926 0.347949 0.98000002
-0.42483705 0.34759393 0.97900003
-0.42398492 0.34830403 0.98100007
-0.4222649 0.34830403 0.98100007
-0.42225966 0.34972423 0.98500007
-0.42352116 0.3522096 0.99200004
-0.42220706 0.35256463 0.99300003
-0.42173627 0.3536298 0.99600005
-0.42041165 0.35398486 0.99700004
-0.41866356 0.35398486 0.99700004
-0.41817001 0.35505 1
-0.41600025 0.35469496 0.99900007
-0.41424868 0.35469496 0.99900007
-0.41290998 0.35505 1
-0.41156781 0.35540506 1.001
-0.46703804 0.33289751 0.93300003
-0.46540216 0.33289751 0.93300003
-0.46376631 0.33289751 0.93300003
-0.46213046 0.33289751 0.93300003
-0.46148172 0.3336111 0.93500006
-0.45984235 0.3336111 0.93500006
-0.46016321 0.33503833 0.93900007
-0.45851684 0.33503833 0.93900007
-0.45735699 0.33539513 0.94000006
-0.45813283 0.33717915 0.94500005
-0.45599291 0.33682233 0.94400007
-0.45433775 0.33682233 0.94400007
-0.45316213 0.33717915 0.94500005
-0.45150524 0.33717915 0.94500005
-0.44937232 0.33682233 0.94400007
-0.44724289 0.33646554 0.94300002
-0.43380272 0.34824005 0.97600007
-0.43164876 0.34788325 0.97500002
-0.43082118 0.34859684 0.97700006
-0.42866895 0.34824005 0.97600007
-0.42827007 0.34931046 0.97900003
-0.42568216 0.34859684 0.97700006
-0.425271 0.34966725 0.98000002
-0.42355272 0.34966725 0.98000002
-0.42269534 0.35038087 0.98200005
-0.42225966 0.35145128 0.98500007
-0.42181343 0.35252169 0.98800004
-0.42305741 0.3550193 0.99500006
-0.4221597 0.35573292 0.99700004
-0.42041165 0.35573292 0.99700004
-0.41866356 0.35573292 0.99700004
-0.41691548 0.35573292 0.99700004
-0.41600025 0.35644653 0.99900007
-0.41424868 0.35644653 0.99900007
-0.41249707 0.35644653 0.99900007
-0.41115665 0.35680333 1
-0.40940332 0.35680333 1
-0.40752026 0.35823053 1.0040001
-0.46766922 0.33381626 0.93100005
-0.46603689 0.33381626 0.93100005
-0.46440452 0.33381626 0.93100005
-0.46227509 0.33345771 0.93000007
-0.46213046 0.33453336 0.93300003
-0.46049458 0.33453336 0.93300003
-0.45885873 0.33453336 0.93300003
-0.45869303 0.33560905 0.93600005
-0.4570519 0.33560905 0.93600005
-0.45589736 0.3359676 0.93700004
-0.45667845 0.33776039 0.94200003
-0.45502681 0.33776039 0.94200003
-0.45337519 0.33776039 0.94200003
-0.45172355 0.33776039 0.94200003
-0.4500719 0.33776039 0.94200003
-0.44842026 0.33776039 0.94200003
-0.43417531 0.34887564 0.97300005
-0.43246931 0.34887564 0.97300005
-0.43209147 0.3499513 0.97600007
-0.43126214 0.35066843 0.97800004
-0.42910817 0.35030985 0.97700006
-0.42608279 0.34923419 0.97400004
-0.42350364 0.34851709 0.97200006
-0.42396915 0.35030985 0.97700006
-0.42355272 0.35138553 0.98000002
-0.42269534 0.35210264 0.98200005
-0.42183095 0.35281977 0.98400003
-0.42010567 0.35281977 0.98400003
-0.42135668 0.35532966 0.99100006
-0.42173627 0.35712245 0.99600005
-0.42041165 0.357481 0.99700004
-0.41908348 0.35783955 0.99800003
-0.41691548 0.357481 0.99700004
-0.41558382 0.35783955 0.99800003
-0.41341934 0.357481 0.99700004
-0.41290998 0.35855666 1
-0.41115665 0.35855666 1
-0.40940332 0.35855666 1
-0.40887296 0.35963234 1.003
-0.46666455 0.334728 0.92900002
-0.46503571 0.334728 0.92900002
-0.46340686 0.334728 0.92900002
-0.46128097 0.33436769 0.92800003
-0.46064448 0.33508831 0.93000007
-0.45852032 0.334728 0.92900002
-0.45885873 0.33616921 0.93300003
-0.45771292 0.33652952 0.93400002
-0.45607531 0.33652952 0.93400002
-0.45492426 0.33688983 0.93500006
-0.45570886 0.33869138 0.94000006
-0.45406073 0.33869138 0.94000006
-0.45337519 0.339412 0.94200003
-0.45172355 0.339412 0.94200003
-0.4500719 0.339412 0.94200003
-0.43246931 0.35058162 0.97300005
-0.43032059 0.35022131 0.97200006
-0.42993924 0.35130224 0.97500002
-0.42866895 0.35166255 0.97600007
-0.42608279 0.35094193 0.97400004
-0.42437506 0.35094193 0.97400004
-0.42396915 0.35202286 0.97700006
-0.42355272 0.35310379 0.98000002
-0.42269534 0.35382441 0.98200005
-0.42183095 0.35454503 0.98400003
-0.42053261 0.35490534 0.98500007
-0.42050633 0.35634658 0.98900002
-0.42131284 0.35850844 0.99500006
-0.41998994 0.35886875 0.99600005
-0.41866356 0.35922906 0.99700004
-0.41691548 0.35922906 0.99700004
-0.41766593 0.36139092 1.003
-0.41424868 0.35994968 0.99900007
-0.41290998 0.36030999 1
-0.41115665 0.36030999 1
-0.40940332 0.36030999 1
-0.40887296 0.36139092 1.003
-0.46264592 0.33346033 0.92100006
-0.46203226 0.33418447 0.92300004
-0.46141157 0.33490857 0.92500007
-0.46128097 0.33599478 0.92800003
-0.46014917 0.33635685 0.92900002
-0.45802677 0.33599478 0.92800003
-0.45689148 0.33635685 0.92900002
-0.45771292 0.33816716 0.93400002
-0.455587 0.33780509 0.93300003
-0.45492426 0.33852923 0.93500006
-0.45425448 0.33925334 0.93700004
-0.4535777 0.33997747 0.93900007
-0.4519313 0.33997747 0.93900007
-0.45076448 0.34033954 0.94000006
-0.42949829 0.35264969 0.97400004
-0.42866895 0.35337383 0.97600007
-0.42652026 0.35301176 0.97500002
-0.42393935 0.35228762 0.97300005
-0.42396915 0.35373586 0.97700006
-0.42355272 0.35482207 0.98000002
-0.42269534 0.35554618 0.98200005
-0.42140228 0.35590824 0.98300004
-0.42010567 0.35627031 0.98400003
-0.41923076 0.35699445 0.98600006
-0.42004254 0.35916683 0.99200004
-0.4191466 0.35989094 0.99400002
-0.41866356 0.36097714 0.99700004
-0.41817001 0.36206332 1
-0.41766593 0.36314952 1.003
-0.41590732 0.36314952 1.003
-0.41290998 0.36206332 1
-0.46164128 0.33434752 0.91900003
-0.46103111 0.33507514 0.92100006
-0.4599151 0.33543897 0.92200005
-0.46028683 0.33689424 0.92600006
-0.45915854 0.33725804 0.92700005
-0.45802677 0.33762187 0.92800003
-0.45639968 0.33762187 0.92800003
-0.45624274 0.33871332 0.93100005
-0.45461041 0.33871332 0.93100005
-0.4534646 0.33907714 0.93200004
-0.45376968 0.34053239 0.93600005
-0.45164552 0.3401686 0.93500006
-0.44952485 0.33980477 0.93400002
-0.44788724 0.33980477 0.93400002
-0.42652026 0.35472125 0.97500002
-0.42393935 0.35399362 0.97300005
-0.42570496 0.35690415 0.98100007
-0.42398492 0.35690415 0.98100007
-0.4231258 0.35763177 0.98300004
-0.42140228 0.35763177 0.98300004
-0.41967875 0.35763177 0.98300004
-0.41923076 0.35872322 0.98600006
-0.42004254 0.36090612 0.99200004
-0.4191466 0.36163378 0.99400002
-0.41908348 0.36308903 0.99800003
-0.41858816 0.36418048 1.001
-0.41808233 0.36527193 1.0040001
-0.41590732 0.36490813 1.003
-0.41414872 0.36490813 1.003
-0.45862728 0.33376542 0.91300005
-0.45702648 0.33376542 0.91300005
-0.45841864 0.33595884 0.91900003
-0.45929268 0.33778667 0.92400002
-0.45866323 0.33851781 0.92600006
-0.45703965 0.33851781 0.92600006
-0.45639968 0.33924896 0.92800003
-0.45673281 0.34071124 0.93200004
-0.4541221 0.3399801 0.93000007
-0.45249149 0.3399801 0.93000007
-0.45328489 0.34180796 0.93500006
-0.45019639 0.34071124 0.93200004
-0.44808099 0.34034568 0.93100005
-0.44644862 0.34034568 0.93100005
-0.42570496 0.35862416 0.98100007
-0.42528152 0.35972089 0.98400003
-0.42355624 0.35972089 0.98400003
-0.42268834 0.36045203 0.98600006
-0.42095956 0.36045203 0.98600006
-0.42050633 0.36154872 0.98900002
-0.42088941 0.36337659 0.99400002
-0.4191466 0.36337659 0.99400002
-0.41866356 0.36447328 0.99700004
-0.41817001 0.36557001 1
-0.41766593 0.3666667 1.003
-0.41549265 0.36630115 1.0020001
-0.4571203 0.33426422 0.91000003
-0.45552477 0.33426422 0.91000003
-0.45492688 0.33499888 0.91200006
-0.45730439 0.33793747 0.92000002
-0.45717728 0.33903944 0.92300004
-0.45407826 0.33793747 0.92000002
-0.452957 0.33830479 0.92100006
-0.45330241 0.33977407 0.92500007
-0.45168057 0.33977407 0.92500007
-0.44957221 0.33940676 0.92400002
-0.45183048 0.34234536 0.93200004
-0.44923028 0.3416107 0.93000007
-0.4471184 0.34124339 0.92900002
-0.42657286 0.36107883 0.98300004
-0.42528152 0.36144617 0.98400003
-0.42484757 0.36254811 0.98700005
-0.42268834 0.3621808 0.98600006
-0.42095956 0.3621808 0.98600006
-0.42050633 0.36328277 0.98900002
-0.42088941 0.3651194 0.99400002
-0.45821175 0.33549067 0.90900004
-0.45611563 0.3351216 0.90800005
-0.45452362 0.3351216 0.90800005
-0.45392922 0.33585978 0.91000003
-0.45531613 0.33807424 0.91600007
-0.45618665 0.3399196 0.92100006
-0.45457181 0.3399196 0.92100006
-0.4534488 0.3402887 0.92200005
-0.45330241 0.34139591 0.92500007
-0.45168057 0.34139591 0.92500007
-0.45054531 0.34176499 0.92600006
-0.45037609 0.34287223 0.92900002
-0.42787468 0.3639096 0.98600006
-0.42571372 0.3635405 0.98500007
-0.42527801 0.36464775 0.98800004
-0.42480198 0.36723128 0.99500006
-0.42475814 0.3687076 0.99900007
-0.45821175 0.33708447 0.90900004
-0.45611563 0.33671364 0.90800005
-0.45452362 0.33671364 0.90800005
-0.45392922 0.3374553 0.91000003
-0.45382491 0.33856779 0.91300005
-0.45519602 0.34079278 0.91900003
-0.45555896 0.3422761 0.92300004
-0.4534488 0.34190527 0.92200005
-0.4523223 0.3422761 0.92300004
-0.45119229 0.34264693 0.92400002
-0.45005876 0.34301776 0.92500007
-0.43087378 0.37120083 1.001
-0.42868999 0.37083 1
-0.45980552 0.33867824 0.90900004
-0.45669949 0.3375605 0.90600002
-0.45511097 0.3375605 0.90600002
-0.45352244 0.3375605 0.90600002
-0.45343041 0.33867824 0.90900004
-0.45183662 0.33867824 0.90900004
-0.45172879 0.33979601 0.91200006
-0.45457181 0.34314924 0.92100006
-0.45394063 0.34389442 0.92300004
-0.45281234 0.34426701 0.92400002
-0.45119229 0.34426701 0.92400002
-0.43083346 0.37444624 1.005
-0.45879385 0.33952335 0.90700006
-0.45669949 0.33914903 0.90600002
-0.45511097 0.33914903 0.90600002
-0.45452362 0.33989769 0.90800005
-0.45293158 0.33989769 0.90800005
-0.45133954 0.33989769 0.90800005
-0.45024285 0.34027204 0.90900004
-0.45259759 0.34326673 0.91700006
-0.45148158 0.34364107 0.91800004
-0.4513422 0.34476405 0.92100006
-0.44972736 0.34476405 0.92100006
-0.42821747 0.37545967 1.003
-0.42639402 0.37695703 1.0070001
-0.45879385 0.34111363 0.90700006
-0.45669949 0.34073755 0.90600002
-0.45511097 0.34073755 0.90600002
-0.45452362 0.34148973 0.90800005
-0.45293158 0.34148973 0.90800005
-0.45133954 0.34148973 0.90800005
-0.45024285 0.34186581 0.90900004
-0.44766194 0.34111363 0.90700006
-0.44705528 0.34186581 0.90900004
-0.44693169 0.34299406 0.91200006
-0.44826245 0.34525061 0.91800004
-0.42821747 0.37721828 1.003
-0.42597058 0.37834653 1.006
-0.46089172 0.34308174 0.90800005
-0.45879385 0.34270391 0.90700006
-0.45619541 0.34194821 0.90500003
-0.45460865 0.34194821 0.90500003
-0.45352244 0.34232605 0.90600002
-0.45193395 0.34232605 0.90600002
-0.45034543 0.34232605 0.90600002
-0.44925222 0.34270391 0.90700006
-0.44618124 0.34157038 0.90400004
-0.44607165 0.34270391 0.90700006
-0.44497144 0.34308174 0.90800005
-0.42779052 0.37859902 1.0020001
-0.42688406 0.37935472 1.0040001
-0.42512372 0.37935472 1.0040001
-0.45936894 0.34353498 0.90500003
-0.45727634 0.34315538 0.90400004
-0.45669949 0.34391457 0.90600002
-0.45460865 0.34353498 0.90500003
-0.45352244 0.34391457 0.90600002
-0.45193395 0.34391457 0.90600002
-0.4508425 0.34429416 0.90700006
-0.44925222 0.34429416 0.90700006
-0.44667482 0.34353498 0.90500003
-0.44557986 0.34391457 0.90600002
-0.4444814 0.34429416 0.90700006
-0.44484434 0.34581256 0.91100007
-0.43044332 0.37959665 1
-0.42868999 0.37959665 1
-0.42378506 0.38149464 1.005
-0.45993704 0.34435904 0.90300006
-0.45936894 0.34512174 0.90500003
-0.45727634 0.34474039 0.90400004
-0.45619541 0.34512174 0.90500003
-0.45460865 0.34512174 0.90500003
-0.45302188 0.34512174 0.90500003
-0.45193395 0.34550309 0.90600002
-0.4508425 0.34588444 0.90700006
-0.44826159 0.34512174 0.90500003
-0.44618124 0.34474039 0.90400004
-0.44508806 0.34512174 0.90500003
-0.44497144 0.34626579 0.90800005
-0.43046787 0.37982461 0.99600005
-0.42915201 0.38020596 0.99700004
-0.45993704 0.34594232 0.90300006
-0.45835376 0.34594232 0.90300006
-0.45727634 0.3463254 0.90400004
-0.45468315 0.34555921 0.90200007
-0.45511097 0.34709162 0.90600002
-0.45352244 0.34709162 0.90600002
-0.45093629 0.3463254 0.90400004
-0.44935128 0.3463254 0.90400004
-0.44677565 0.34555921 0.90200007
-0.44470057 0.3451761 0.90100002
-0.44508806 0.34670851 0.90500003
-0.43090007 0.38195401 0.99700004
-0.4584879 0.34406185 0.89400005
-0.4594759 0.34598613 0.89900005
-0.45789966 0.34598613 0.89900005
-0.45632342 0.34598613 0.89900005
-0.45525301 0.346371 0.90000004
-0.45317093 0.34598613 0.89900005
-0.45360398 0.34752557 0.90300006
-0.45252129 0.34791043 0.90400004
-0.44993865 0.3471407 0.90200007
-0.44835714 0.3471407 0.90200007
-0.44727096 0.34752557 0.90300006
-0.44568768 0.34752557 0.90300006
-0.44459623 0.34791043 0.90400004
-0.45799696 0.34408289 0.89000005
-0.45746219 0.34485611 0.89200002
-0.45589823 0.34485611 0.89200002
-0.45535293 0.34562933 0.89400005
-0.45530823 0.34678918 0.89700001
-0.45424134 0.34717578 0.89800006
-0.45317093 0.3475624 0.89900005
-0.45159468 0.3475624 0.89900005
-0.450519 0.347949 0.90000004
-0.44993865 0.34872222 0.90200007
-0.44835714 0.34872222 0.90200007
-0.44727096 0.34910882 0.90300006
-0.44568768 0.34910882 0.90300006
-0.45594293 0.34292483 0.88300002
-0.45799696 0.34564337 0.89000005
-0.45643649 0.34564337 0.89000005
-0.45589823 0.34642008 0.89200002
-0.45382491 0.34603173 0.89100003
-0.45480064 0.34797356 0.89600003
-0.45424134 0.34875026 0.89800006
-0.45317093 0.34913865 0.89900005
-0.45159468 0.34913865 0.89900005
-0.45001841 0.34913865 0.89900005
-0.44943982 0.34991536 0.90100002
-0.44786006 0.34991536 0.90100002
-0.4462803 0.34991536 0.90100002
-0.45594293 0.344473 0.88300002
-0.45799696 0.34720382 0.89000005
-0.45643649 0.34720382 0.89000005
-0.45692042 0.3487643 0.89400005
-0.45484358 0.34837419 0.89300007
-0.45530823 0.34993464 0.89700001
-0.45322964 0.34954453 0.89600003
-0.45266682 0.35032475 0.89800006
-0.45059001 0.34993464 0.89700001
-0.44901726 0.34993464 0.89700001
-0.44844216 0.35071489 0.89900005
-0.44686592 0.35071489 0.89900005
-0.45541868 0.34445372 0.87900007
-0.45594293 0.34602121 0.88300002
-0.45851156 0.34915617 0.89100003
-0.45746219 0.34954804 0.89200002
-0.45692042 0.35033178 0.89400005
-0.45637164 0.35111552 0.89600003
-0.45530823 0.3515074 0.89700001
-0.45322964 0.35111552 0.89600003
-0.45266682 0.35189927 0.89800006
-0.45109233 0.35189927 0.89800006
-0.44951785 0.35189927 0.89800006
-0.45593679 0.34638852 0.88000005
-0.45542657 0.34717578 0.88200003
-0.45645314 0.34914389 0.88700002
-0.45694935 0.35071838 0.89100003
-0.45640934 0.35150564 0.89300007
-0.45535293 0.35189927 0.89400005
-0.45378545 0.35189927 0.89400005
-0.4537355 0.35308012 0.89700001
-0.45266682 0.35347375 0.89800006
-0.45109233 0.35347375 0.89800006
-0.45695987 0.34753609 0.87900007
-0.45593679 0.34793147 0.88000005
-0.45542657 0.34872222 0.88200003
-0.45645314 0.3506991 0.88700002
-0.45694935 0.35228062 0.89100003
-0.45640934 0.35307136 0.89300007
-0.45535293 0.35346675 0.89400005
-0.45378545 0.35346675 0.89400005
-0.4537355 0.35465288 0.89700001
-0.41571096 0.37125868 0.93900007
