# .PCD v0.7 - Point Cloud Data file format
VERSION 0.7
FIELDS x y z
SIZE 4 4 4
TYPE F F F
COUNT 1 1 1
WIDTH 1544
HEIGHT 1
VIEWPOINT 0 0 0 1 0 0 0
POINTS 1544
DATA ascii
-0.40686101 0.3207022 1.8200001
-0.40366992 0.3207022 1.8200001
-0.4022392 0.32211187 1.8280001
-0.39837924 0.32158324 1.825
-0.39517942 0.32158324 1.825
-0.39090568 0.3207022 1.8200001
-0.38771459 0.3207022 1.8200001
-0.38241076 0.3189401 1.8100001
-0.37923723 0.3189401 1.8100001
-0.3760637 0.3189401 1.8100001
-0.37289017 0.3189401 1.8100001
-0.36971664 0.3189401 1.8100001
-0.36674562 0.31911629 1.8110001
-0.36477485 0.32017356 1.817
-0.36158904 0.32017356 1.817
-0.35840324 0.32017356 1.817
-0.35443544 0.31946874 1.8130001
-0.35086918 0.31911629 1.8110001
-0.3494218 0.3207022 1.8200001
-0.34604049 0.32052597 1.8190001
-0.34285119 0.32052597 1.8190001
-0.33947513 0.32034978 1.8180001
-0.33517772 0.31929252 1.812
-0.3329168 0.32017356 1.817
-0.32973099 0.32017356 1.817
-0.44466463 0.32353735 1.8180001
-0.44244841 0.32424918 1.8220001
-0.43708408 0.32264751 1.8130001
-0.43414462 0.32282549 1.8140001
-0.43310225 0.32442716 1.8230001
-0.43014175 0.32460511 1.8240001
-0.42600739 0.32389328 1.8200001
-0.4237456 0.32460511 1.8240001
-0.42031696 0.32442716 1.8230001
-0.41574776 0.32335937 1.817
-0.41256195 0.32335937 1.817
-0.40937614 0.32335937 1.817
-0.40686101 0.32389328 1.8200001
-0.40366992 0.32389328 1.8200001
-0.4022392 0.32531697 1.8280001
-0.39837924 0.32478309 1.825
-0.39517942 0.32478309 1.825
-0.39112043 0.32407123 1.8210001
-0.38792762 0.32407123 1.8210001
-0.38241076 0.32211363 1.8100001
-0.37923723 0.32211363 1.8100001
-0.3760637 0.32211363 1.8100001
-0.37289017 0.32211363 1.8100001
-0.36971664 0.32211363 1.8100001
-0.36654308 0.32211363 1.8100001
-0.36477485 0.32335937 1.817
-0.36158904 0.32335937 1.817
-0.35840324 0.32335937 1.817
-0.35678142 0.32478309 1.825
-0.35261285 0.32389328 1.8200001
-0.3494218 0.32389328 1.8200001
-0.34604049 0.3237153 1.8190001
-0.34285119 0.3237153 1.8190001
-0.33966187 0.3237153 1.8190001
-0.33517772 0.32246956 1.812
-0.33200067 0.32246956 1.812
-0.32882363 0.32246956 1.812
-0.44466463 0.32672489 1.8180001
-0.44220558 0.32726404 1.8210001
-0.43708408 0.32582632 1.8130001
-0.43390527 0.32582632 1.8130001
-0.4307265 0.32582632 1.8130001
-0.42990592 0.32762349 1.8230001
-0.42577332 0.32690462 1.8190001
-0.42328095 0.32744378 1.8220001
-0.4193947 0.32690462 1.8190001
-0.41574776 0.32654518 1.817
-0.41210786 0.32618573 1.8150001
-0.40937614 0.32654518 1.817
-0.40641388 0.32672489 1.8180001
-0.40322635 0.32672489 1.8180001
-0.39981875 0.32654518 1.817
-0.39837924 0.3279829 1.825
-0.39474633 0.32762349 1.8230001
-0.3891874 0.32564661 1.812
-0.38601035 0.32564661 1.812
-0.38241076 0.32528716 1.8100001
-0.37923723 0.32528716 1.8100001
-0.3760637 0.32528716 1.8100001
-0.37289017 0.32528716 1.8100001
-0.36971664 0.32528716 1.8100001
-0.36654308 0.32528716 1.8100001
-0.36477485 0.32654518 1.817
-0.36158904 0.32654518 1.817
-0.358206 0.32636547 1.8160001
-0.3569769 0.32816264 1.8260001
-0.3528066 0.32726404 1.8210001
-0.34961379 0.32726404 1.8210001
-0.34680143 0.32762349 1.8230001
-0.3436051 0.32762349 1.8230001
-0.33966187 0.32690462 1.8190001
-0.33628759 0.32672489 1.8180001
-0.33200067 0.32564661 1.812
-0.32882363 0.32564661 1.812
-0.44393083 0.32936805 1.8150001
-0.44123423 0.32973099 1.817
-0.43684301 0.32882363 1.812
-0.43390527 0.32900512 1.8130001
-0.4307265 0.32900512 1.8130001
-0.42990592 0.33081982 1.8230001
-0.42600739 0.33027539 1.8200001
-0.42328095 0.33063835 1.8220001
-0.41962525 0.33027539 1.8200001
-0.41597658 0.32991245 1.8180001
-0.41233489 0.32954952 1.8160001
-0.40824965 0.32882363 1.812
-0.4028371 0.32700893 1.802
-0.3996776 0.32700893 1.802
-0.39871851 0.32882363 1.812
-0.39532319 0.32864216 1.8110001
-0.39388019 0.33009392 1.8190001
-0.38875782 0.32846069 1.8100001
-0.38558429 0.32846069 1.8100001
-0.38241076 0.32846069 1.8100001
-0.37923723 0.32846069 1.8100001
-0.3760637 0.32846069 1.8100001
-0.37289017 0.32846069 1.8100001
-0.36971664 0.32846069 1.8100001
-0.36654308 0.32846069 1.8100001
-0.36336955 0.32846069 1.8100001
-0.36139005 0.32954952 1.8160001
-0.35840324 0.32973099 1.817
-0.3569769 0.33136421 1.8260001
-0.35300034 0.33063835 1.8220001
-0.34961379 0.33045688 1.8210001
-0.34680143 0.33081982 1.8230001
-0.3436051 0.33081982 1.8230001
-0.33966187 0.33009392 1.8190001
-0.33647254 0.33009392 1.8190001
-0.3329168 0.32973099 1.817
-0.32936805 0.32936805 1.8150001
-0.44393083 0.33255035 1.8150001
-0.44099137 0.33273357 1.8160001
-0.43611974 0.331451 1.8090001
-0.43318731 0.33163422 1.8100001
-0.4307265 0.3321839 1.8130001
-0.42778352 0.33236712 1.8140001
-0.42530519 0.3329168 1.817
-0.42235169 0.33310002 1.8180001
-0.4028371 0.33016846 1.802
-0.3996776 0.33016846 1.802
-0.39871851 0.33200067 1.812
-0.39510489 0.33163422 1.8100001
-0.39388019 0.33328325 1.8190001
-0.39069089 0.33328325 1.8190001
-0.38750157 0.33328325 1.8190001
-0.38431224 0.33328325 1.8190001
-0.37923723 0.33163422 1.8100001
-0.3760637 0.33163422 1.8100001
-0.37289017 0.33163422 1.8100001
-0.371555 0.33328325 1.8190001
-0.36836568 0.33328325 1.8190001
-0.3545503 0.33529869 1.83
-0.3494218 0.33346647 1.8200001
-0.34680143 0.33401614 1.8230001
-0.34530148 0.33566514 1.8320001
-0.33966187 0.33328325 1.8190001
-0.33647254 0.33328325 1.8190001
-0.3329168 0.3329168 1.817
-0.33009392 0.33328325 1.8190001
-0.44197413 0.33425283 1.807
-0.43953437 0.33480775 1.8100001
-0.43660191 0.33499274 1.8110001
-0.43342662 0.33499274 1.8110001
-0.43025133 0.33499274 1.8110001
-0.42778352 0.33554769 1.8140001
-0.40145198 0.33480775 1.8100001
-0.39827845 0.33480775 1.8100001
-0.39510489 0.33480775 1.8100001
-0.39388019 0.33647254 1.8190001
-0.39069089 0.33647254 1.8190001
-0.38750157 0.33647254 1.8190001
-0.38431224 0.33647254 1.8190001
-0.37923723 0.33480775 1.8100001
-0.3760637 0.33480775 1.8100001
-0.37289017 0.33480775 1.8100001
-0.34813309 0.33850729 1.83
-0.34492451 0.33850729 1.83
-0.34134245 0.33813736 1.8280001
-0.33813736 0.33813736 1.8280001
-0.3329168 0.3361026 1.817
-0.33009392 0.33647254 1.8190001
-0.44246331 0.33779457 1.8090001
-0.44002002 0.33835477 1.812
-0.43684301 0.33835477 1.812
-0.43390527 0.33854148 1.8130001
-0.43025133 0.33816803 1.8110001
-0.39827845 0.33798128 1.8100001
-0.39510489 0.33798128 1.8100001
-0.39388019 0.33966187 1.8190001
-0.39069089 0.33966187 1.8190001
-0.38750157 0.33966187 1.8190001
-0.38431224 0.33966187 1.8190001
-0.34511298 0.34190261 1.8310001
-0.34134245 0.34134245 1.8280001
-0.33813736 0.34134245 1.8280001
-0.33328325 0.33966187 1.8190001
-0.33009392 0.33966187 1.8190001
-0.44246331 0.34096634 1.8090001
-0.44002002 0.34153178 1.812
-0.43684301 0.34153178 1.812
-0.43390527 0.34172028 1.8130001
-0.39388019 0.34285119 1.8190001
-0.39069089 0.34285119 1.8190001
-0.34492451 0.34492451 1.83
-0.34134245 0.34454754 1.8280001
-0.33813736 0.34454754 1.8280001
-0.33328325 0.34285119 1.8190001
-0.33045688 0.34322816 1.8210001
-0.44344166 0.34489909 1.8130001
-0.44026288 0.34489909 1.8130001
-0.43708408 0.34489909 1.8130001
-0.43414462 0.34508932 1.8140001
-0.43120164 0.34527954 1.8150001
-0.34492451 0.34813309 1.83
-0.34134245 0.34775263 1.8280001
-0.33813736 0.34775263 1.8280001
-0.33328325 0.34604049 1.8190001
-0.33045688 0.34642097 1.8210001
-0.44344166 0.34807786 1.8130001
-0.44026288 0.34807786 1.8130001
-0.43708408 0.34807786 1.8130001
-0.43414462 0.34826985 1.8140001
-0.43120164 0.34846184 1.8150001
-0.34454754 0.35095772 1.8280001
-0.34134245 0.35095772 1.8280001
-0.33647254 0.34922981 1.8190001
-0.33328325 0.34922981 1.8190001
-0.33009392 0.34922981 1.8190001
-0.44344166 0.35125667 1.8130001
-0.44026288 0.35125667 1.8130001
-0.43708408 0.35125667 1.8130001
-0.43390527 0.35125667 1.8130001
-0.34775263 0.35416281 1.8280001
-0.34454754 0.35416281 1.8280001
-0.34134245 0.35416281 1.8280001
-0.33647254 0.35241911 1.8190001
-0.33328325 0.35241911 1.8190001
-0.33009392 0.35241911 1.8190001
-0.44344166 0.35443544 1.8130001
-0.44026288 0.35443544 1.8130001
-0.43708408 0.35443544 1.8130001
-0.43390527 0.35443544 1.8130001
-0.34775263 0.3573679 1.8280001
-0.34285119 0.35560843 1.8190001
-0.33966187 0.35560843 1.8190001
-0.33647254 0.35560843 1.8190001
-0.33328325 0.35560843 1.8190001
-0.33009392 0.35560843 1.8190001
-0.44344166 0.35761425 1.8130001
-0.44026288 0.35761425 1.8130001
-0.43708408 0.35761425 1.8130001
-0.34775263 0.36057299 1.8280001
-0.34285119 0.35879776 1.8190001
-0.33966187 0.35879776 1.8190001
-0.33647254 0.35879776 1.8190001
-0.33200067 0.35741699 1.812
-0.32882363 0.35741699 1.812
-0.44344166 0.36079305 1.8130001
-0.44002002 0.36059403 1.812
-0.43708408 0.36079305 1.8130001
-0.34775263 0.36377808 1.8280001
-0.34285119 0.36198705 1.8190001
-0.33966187 0.36198705 1.8190001
-0.33480775 0.36019602 1.8100001
-0.33255035 0.36119103 1.8150001
-0.32954952 0.36139005 1.8160001
-0.44344166 0.36397183 1.8130001
-0.44026288 0.36397183 1.8130001
-0.33966187 0.36517638 1.8190001
-0.33480775 0.36336955 1.8100001
-0.33236712 0.36417258 1.8140001
-0.32954952 0.3645741 1.8160001
-0.43854988 0.36310044 1.7930001
-0.44026288 0.36715063 1.8130001
-0.34134245 0.37018827 1.8280001
-0.33628759 0.36816317 1.8180001
-0.33310002 0.36816317 1.8180001
-0.32809776 0.36613807 1.8080001
-0.43854988 0.36624417 1.7930001
-0.33647254 0.371555 1.8190001
-0.33163422 0.36971664 1.8100001
-0.32846069 0.36971664 1.8100001
-0.44344166 0.37350821 1.8130001
-0.33163422 0.37289017 1.8100001
-0.32846069 0.37289017 1.8100001
-0.32846069 0.3760637 1.8100001
-0.22938772 0.23726369 1.123
-0.22762124 0.23747498 1.1240001
-0.22565049 0.23747498 1.1240001
-0.22938772 0.23923269 1.123
-0.22762124 0.23944572 1.1240001
-0.22565049 0.23944572 1.1240001
-0.22288373 0.23859359 1.12
-0.22092 0.23859359 1.12
-0.21817428 0.23774149 1.1160001
-0.21621756 0.23774149 1.1160001
-0.21426083 0.23774149 1.1160001
-0.21154317 0.23688936 1.1120001
-0.20883954 0.23603724 1.108
-0.20671012 0.23582421 1.107
-0.22938772 0.24120168 1.123
-0.2268112 0.24055733 1.12
-0.22484747 0.24055733 1.12
-0.22288373 0.24055733 1.12
-0.22013099 0.2396982 1.1160001
-0.21797878 0.23948342 1.115
-0.21602382 0.23948342 1.115
-0.21406884 0.23948342 1.115
-0.21154317 0.23883906 1.1120001
-0.20883954 0.23797993 1.108
-0.20671012 0.23776515 1.107
-0.22775361 0.24143839 1.115
-0.22579865 0.24143839 1.115
-0.22384368 0.24143839 1.115
-0.22188872 0.24143839 1.115
-0.2197365 0.24122185 1.1140001
-0.21719679 0.24057223 1.1110001
-0.21524884 0.24057223 1.1110001
-0.21387686 0.24122185 1.1140001
-0.21135293 0.24057223 1.1110001
-0.20865105 0.23970608 1.107
-0.20614992 0.23905648 1.1040001
-0.20402926 0.23883994 1.103
-0.23732418 0.23924583 1.0960001
-0.23540252 0.23924583 1.0960001
-0.22754936 0.24317506 1.1140001
-0.22559614 0.24317506 1.1140001
-0.22364293 0.24317506 1.1140001
-0.22168972 0.24317506 1.1140001
-0.2197365 0.24317506 1.1140001
-0.21719679 0.24252018 1.1110001
-0.21524884 0.24252018 1.1110001
-0.21387686 0.24317506 1.1140001
-0.21135293 0.24252018 1.1110001
-0.20865105 0.24164703 1.107
-0.20614992 0.24099216 1.1040001
-0.20402926 0.24077387 1.103
-0.25138769 0.2345662 1.0660001
-0.24951862 0.2345662 1.0660001
-0.2481142 0.23500627 1.0680001
-0.24601108 0.23478624 1.067
-0.24414027 0.23478624 1.067
-0.23968242 0.24160758 1.098
-0.23710765 0.24094746 1.095
-0.23518775 0.24094746 1.095
-0.23326784 0.24094746 1.095
-0.23113666 0.24072741 1.0940001
-0.229009 0.24050736 1.0930001
-0.22792369 0.24138753 1.097
-0.22682434 0.24226771 1.1010001
-0.22489393 0.24226771 1.1010001
-0.22498861 0.24446814 1.1110001
-0.22304066 0.24446814 1.1110001
-0.22168972 0.24512827 1.1140001
-0.2197365 0.24512827 1.1140001
-0.21719679 0.24446814 1.1110001
-0.21524884 0.24446814 1.1110001
-0.21387686 0.24512827 1.1140001
-0.21154317 0.24468818 1.1120001
-0.20978194 0.24490823 1.113
-0.20783049 0.24490823 1.113
-0.25162348 0.23665704 1.067
-0.24975269 0.23665704 1.067
-0.2481142 0.23687884 1.0680001
-0.24601108 0.23665704 1.067
-0.24414027 0.23665704 1.067
-0.2432224 0.24131477 1.0880001
-0.24064939 0.24064939 1.085
-0.23852697 0.24042758 1.0840001
-0.23880926 0.24264555 1.0940001
-0.23689111 0.24264555 1.0940001
-0.23497297 0.24264555 1.0940001
-0.23305482 0.24264555 1.0940001
-0.2309254 0.24242376 1.0930001
-0.229009 0.24242376 1.0930001
-0.22792369 0.24331094 1.097
-0.22682434 0.24419813 1.1010001
-0.22489393 0.24419813 1.1010001
-0.22498861 0.24641609 1.1110001
-0.22304066 0.24641609 1.1110001
-0.22168972 0.24708149 1.1140001
-0.2197365 0.24708149 1.1140001
-0.21719679 0.24641609 1.1110001
-0.21524884 0.24641609 1.1110001
-0.21387686 0.24708149 1.1140001
-0.21230412 0.24752508 1.1160001
-0.2103474 0.24752508 1.1160001
-0.2560831 0.23919851 1.0700001
-0.25325674 0.2383043 1.0660001
-0.25091603 0.23785719 1.064
-0.24905048 0.23785719 1.064
-0.2481142 0.2387514 1.0680001
-0.24693333 0.23942205 1.0710001
-0.24505551 0.23942205 1.0710001
-0.24544826 0.24165756 1.0810001
-0.24445412 0.24255174 1.085
-0.2432224 0.2432224 1.0880001
-0.24064939 0.24255174 1.085
-0.23852697 0.2423282 1.0840001
-0.23793609 0.24366949 1.09
-0.23754072 0.24523436 1.097
-0.23561731 0.24523436 1.097
-0.23305482 0.2445637 1.0940001
-0.2309254 0.24434015 1.0930001
-0.229009 0.24434015 1.0930001
-0.22792369 0.24523436 1.097
-0.22600028 0.24523436 1.097
-0.22407688 0.24523436 1.097
-0.22215347 0.24523436 1.097
-0.22023006 0.24523436 1.097
-0.2210927 0.24836405 1.1110001
-0.21914475 0.24836405 1.1110001
-0.21641481 0.24746984 1.107
-0.21447387 0.24746984 1.107
-0.21426083 0.2494818 1.1160001
-0.21230412 0.2494818 1.1160001
-0.2103474 0.2494818 1.1160001
-0.2560831 0.24107456 1.0700001
-0.25230643 0.23927213 1.062
-0.24926527 0.23814562 1.057
-0.24741198 0.23814562 1.057
-0.24904346 0.24152517 1.072
-0.24785559 0.24220107 1.075
-0.24597076 0.24220107 1.075
-0.24544826 0.24355291 1.0810001
-0.24445412 0.24445412 1.085
-0.2432224 0.24513003 1.0880001
-0.24131477 0.24513003 1.0880001
-0.23940715 0.24513003 1.0880001
-0.23793609 0.24558063 1.09
-0.23754072 0.24715775 1.097
-0.23561731 0.24715775 1.097
-0.23305482 0.24648185 1.0940001
-0.23113666 0.24648185 1.0940001
-0.229009 0.24625655 1.0930001
-0.22792369 0.24715775 1.097
-0.22600028 0.24715775 1.097
-0.22407688 0.24715775 1.097
-0.22215347 0.24715775 1.097
-0.2075824 0.23296365 1.034
-0.2210927 0.250312 1.1110001
-0.21914475 0.250312 1.1110001
-0.21641481 0.24941079 1.107
-0.21447387 0.24941079 1.107
-0.21291691 0.24986139 1.1090001
-0.1976559 0.23409016 1.039
-0.24826762 0.23727421 1.0450001
-0.24502045 0.23591188 1.039
-0.24319872 0.23591188 1.039
-0.24137701 0.23591188 1.039
-0.25569475 0.25180584 1.1090001
-0.25375029 0.25180584 1.1090001
-0.25180584 0.25180584 1.1090001
-0.24850957 0.25044349 1.103
-0.24501079 0.2488541 1.0960001
-0.24286735 0.24862705 1.095
-0.24094746 0.24862705 1.095
-0.23946413 0.24908116 1.097
-0.23754072 0.24908116 1.097
-0.23561731 0.24908116 1.097
-0.23305482 0.24839999 1.0940001
-0.2309254 0.24817294 1.0930001
-0.229009 0.24817294 1.0930001
-0.22709261 0.24817294 1.0930001
-0.22517622 0.24817294 1.0930001
-0.22325982 0.24817294 1.0930001
-0.20939533 0.23477659 1.034
-0.2075824 0.23477659 1.034
-0.20616744 0.2352307 1.036
-0.20435099 0.2352307 1.036
-0.20312104 0.23591188 1.039
-0.20129932 0.23591188 1.039
-0.19947761 0.23591188 1.039
-0.1976559 0.23591188 1.039
-0.19526874 0.2352307 1.036
-0.19345228 0.2352307 1.036
-0.25193208 0.23910645 1.0450001
-0.25009984 0.23910645 1.0450001
-0.24684216 0.23773359 1.039
-0.24431297 0.23704717 1.036
-0.24249652 0.23704717 1.036
-0.24068007 0.23704717 1.036
-0.25661698 0.25466552 1.113
-0.25375029 0.25375029 1.1090001
-0.23386836 0.23567429 1.0300001
-0.23206243 0.23567429 1.0300001
-0.22936229 0.23475906 1.026
-0.22689798 0.23407263 1.023
-0.22488429 0.23384382 1.0220001
-0.22309238 0.23384382 1.0220001
-0.23754072 0.25100458 1.097
-0.23561731 0.25100458 1.097
-0.23284179 0.25008932 1.0930001
-0.2309254 0.25008932 1.0930001
-0.229009 0.25008932 1.0930001
-0.22709261 0.25008932 1.0930001
-0.22517622 0.25008932 1.0930001
-0.21120828 0.23658954 1.034
-0.20939533 0.23658954 1.034
-0.2075824 0.23658954 1.034
-0.20616744 0.23704717 1.036
-0.20435099 0.23704717 1.036
-0.20253454 0.23704717 1.036
-0.20071809 0.23704717 1.036
-0.19947761 0.23773359 1.039
-0.1976559 0.23773359 1.039
-0.19526874 0.23704717 1.036
-0.19345228 0.23704717 1.036
-0.25303581 0.240247 1.0420001
-0.25120884 0.240247 1.0420001
-0.24938186 0.240247 1.0420001
-0.24684216 0.2395553 1.039
-0.24431297 0.23886362 1.036
-0.24249652 0.23886362 1.036
-0.2397508 0.23794135 1.0320001
-0.23794135 0.23794135 1.0320001
-0.23613192 0.23794135 1.0320001
-0.23386836 0.23748024 1.0300001
-0.23206243 0.23748024 1.0300001
-0.22936229 0.23655798 1.026
-0.22689798 0.23586629 1.023
-0.22488429 0.23563573 1.0220001
-0.22309238 0.23563573 1.0220001
-0.22130047 0.23563573 1.0220001
-0.21950856 0.23563573 1.0220001
-0.21835575 0.23632741 1.0250001
-0.21655858 0.23632741 1.0250001
-0.21476142 0.23632741 1.0250001
-0.21358755 0.23701911 1.028
-0.21178514 0.23701911 1.028
-0.21120828 0.23840249 1.034
-0.20939533 0.23840249 1.034
-0.2075824 0.23840249 1.034
-0.20616744 0.23886362 1.036
-0.20435099 0.23886362 1.036
-0.20233905 0.23863305 1.0350001
-0.20052435 0.23863305 1.0350001
-0.19928561 0.23932473 1.0380001
-0.1976559 0.2395553 1.039
-0.19621114 0.24001643 1.041
-0.19438593 0.24001643 1.041
-0.1925607 0.24001643 1.041
-0.19183482 0.24139981 1.0470001
-0.25327864 0.24230628 1.0430001
-0.25120884 0.24207397 1.0420001
-0.2489032 0.24160933 1.0400001
-0.24636701 0.24091238 1.0370001
-0.2445488 0.24091238 1.0370001
-0.24249652 0.24068007 1.036
-0.2397508 0.2397508 1.0320001
-0.23794135 0.2397508 1.0320001
-0.23613192 0.2397508 1.0320001
-0.23364131 0.23905385 1.029
-0.23206243 0.23928617 1.0300001
-0.22936229 0.2383569 1.026
-0.22734158 0.23812458 1.0250001
-0.22554441 0.23812458 1.0250001
-0.22309238 0.23742764 1.0220001
-0.22130047 0.23742764 1.0220001
-0.21950856 0.23742764 1.0220001
-0.21835575 0.23812458 1.0250001
-0.21655858 0.23812458 1.0250001
-0.21476142 0.23812458 1.0250001
-0.21358755 0.23882154 1.028
-0.21178514 0.23882154 1.028
-0.21141255 0.24044774 1.0350001
-0.20959786 0.24044774 1.0350001
-0.20778315 0.24044774 1.0350001
-0.20596845 0.24044774 1.0350001
-0.20415375 0.24044774 1.0350001
-0.20292553 0.2411447 1.0380001
-0.20110558 0.2411447 1.0380001
-0.19928561 0.2411447 1.0380001
-0.19746566 0.2411447 1.0380001
-0.19621114 0.24184164 1.041
-0.1941992 0.24160933 1.0400001
-0.1925607 0.24184164 1.041
-0.19128516 0.2425386 1.044
-0.18945467 0.2425386 1.044
-0.25327864 0.24413501 1.0430001
-0.25072667 0.2434328 1.0400001
-0.2489032 0.2434328 1.0400001
-0.24636701 0.24273059 1.0370001
-0.2445488 0.24273059 1.0370001
-0.24249652 0.24249652 1.036
-0.23998311 0.2417943 1.033
-0.23794135 0.24156024 1.0320001
-0.23613192 0.24156024 1.0320001
-0.23364131 0.24085803 1.029
-0.23183712 0.24085803 1.029
-0.23003295 0.24085803 1.029
-0.22734158 0.23992175 1.0250001
-0.22554441 0.23992175 1.0250001
-0.22374725 0.23992175 1.0250001
-0.22195008 0.23992175 1.0250001
-0.22015291 0.23992175 1.0250001
-0.21835575 0.23992175 1.0250001
-0.21719241 0.24062397 1.028
-0.21538998 0.24062397 1.028
-0.21441863 0.24156024 1.0320001
-0.2126092 0.24156024 1.0320001
-0.21161681 0.24249652 1.036
-0.20980036 0.24249652 1.036
-0.20798391 0.24249652 1.036
-0.20596845 0.24226245 1.0350001
-0.20454825 0.24273059 1.0370001
-0.20292553 0.24296466 1.0380001
-0.20110558 0.24296466 1.0380001
-0.19928561 0.24296466 1.0380001
-0.19746566 0.24296466 1.0380001
-0.19602266 0.2434328 1.0400001
-0.1941992 0.2434328 1.0400001
-0.19311564 0.24436907 1.044
-0.19128516 0.24436907 1.044
-0.18945467 0.24436907 1.044
-0.25584114 0.2466712 1.046
-0.25400716 0.2466712 1.046
-0.25072667 0.24525626 1.0400001
-0.24866387 0.24502045 1.039
-0.24612942 0.24431297 1.036
-0.24431297 0.24431297 1.036
-0.2417943 0.24360549 1.033
-0.23998311 0.24360549 1.033
-0.23794135 0.24336968 1.0320001
-0.23613192 0.24336968 1.0320001
-0.23386836 0.24289803 1.0300001
-0.23206243 0.24289803 1.0300001
-0.23003295 0.24266221 1.029
-0.22800697 0.24242638 1.028
-0.22642459 0.24266221 1.029
-0.2246204 0.24266221 1.029
-0.22173354 0.24148309 1.024
-0.21993813 0.24148309 1.024
-0.21814272 0.24148309 1.024
-0.21719241 0.24242638 1.028
-0.21538998 0.24242638 1.028
-0.21379533 0.24266221 1.029
-0.2126092 0.24336968 1.0320001
-0.21161681 0.24431297 1.036
-0.20980036 0.24431297 1.036
-0.20798391 0.24431297 1.036
-0.20616744 0.24431297 1.036
-0.2047455 0.24478462 1.0380001
-0.20292553 0.24478462 1.0380001
-0.20110558 0.24478462 1.0380001
-0.19928561 0.24478462 1.0380001
-0.19746566 0.24478462 1.0380001
-0.19602266 0.24525626 1.0400001
-0.1941992 0.24525626 1.0400001
-0.19311564 0.24619956 1.044
-0.19183482 0.24690703 1.0470001
-0.18999909 0.24690703 1.0470001
-0.25535196 0.24803004 1.044
-0.25279295 0.24731731 1.041
-0.25048557 0.24684216 1.039
-0.24866387 0.24684216 1.039
-0.24612942 0.24612942 1.036
-0.24431297 0.24612942 1.036
-0.24156024 0.24517912 1.0320001
-0.2397508 0.24517912 1.0320001
-0.23794135 0.24517912 1.0320001
-0.23544548 0.24446639 1.029
-0.23386836 0.24470396 1.0300001
-0.23206243 0.24470396 1.0300001
-0.23003295 0.24446639 1.029
-0.22822876 0.24446639 1.029
-0.22642459 0.24446639 1.029
-0.2246204 0.24446639 1.029
-0.22238316 0.24399124 1.0270001
-0.22058249 0.24399124 1.0270001
-0.21878181 0.24399124 1.0270001
-0.21719241 0.24422881 1.028
-0.21538998 0.24422881 1.028
-0.21379533 0.24446639 1.029
-0.2126092 0.24517912 1.0320001
-0.21161681 0.24612942 1.036
-0.20980036 0.24612942 1.036
-0.20798391 0.24612942 1.036
-0.20616744 0.24612942 1.036
-0.20415375 0.24589185 1.0350001
-0.20292553 0.24660458 1.0380001
-0.20110558 0.24660458 1.0380001
-0.19928561 0.24660458 1.0380001
-0.19727542 0.24636701 1.0370001
-0.19602266 0.24707973 1.0400001
-0.19475938 0.24779247 1.0430001
-0.19293067 0.24779247 1.0430001
-0.19183482 0.24874277 1.0470001
-0.18999909 0.24874277 1.0470001
-0.25510737 0.24962118 1.0430001
-0.25255013 0.2489032 1.0400001
-0.25048557 0.24866387 1.039
-0.24866387 0.24866387 1.039
-0.24612942 0.24794587 1.036
-0.24431297 0.24794587 1.036
-0.24156024 0.24698856 1.0320001
-0.2397508 0.24698856 1.0320001
-0.23794135 0.24698856 1.0320001
-0.23544548 0.24627057 1.029
-0.23386836 0.24650989 1.0300001
-0.23206243 0.24650989 1.0300001
-0.23003295 0.24627057 1.029
-0.22822876 0.24627057 1.029
-0.22576445 0.24555258 1.026
-0.22396554 0.24555258 1.026
-0.22195008 0.24531324 1.0250001
-0.21993813 0.24507391 1.024
-0.21814272 0.24507391 1.024
-0.21698113 0.24579191 1.0270001
-0.21538998 0.24603124 1.028
-0.21358755 0.24603124 1.028
-0.2126092 0.24698856 1.0320001
-0.21161681 0.24794587 1.036
-0.20980036 0.24794587 1.036
-0.20798391 0.24794587 1.036
-0.20596845 0.24770655 1.0350001
-0.2039565 0.24746722 1.034
-0.20292553 0.24842454 1.0380001
-0.20110558 0.24842454 1.0380001
-0.19928561 0.24842454 1.0380001
-0.19727542 0.2481852 1.0370001
-0.19602266 0.2489032 1.0400001
-0.19475938 0.24962118 1.0430001
-0.19293067 0.24962118 1.0430001
-0.19183482 0.25057852 1.0470001
-0.18999909 0.25057852 1.0470001
-0.25559655 0.25193208 1.0450001
-0.2537643 0.25193208 1.0450001
-0.25048557 0.25048557 1.039
-0.24866387 0.25048557 1.039
-0.24612942 0.24976233 1.036
-0.24360549 0.24903908 1.033
-0.24156024 0.248798 1.0320001
-0.2397508 0.248798 1.0320001
-0.23724967 0.24807476 1.029
-0.23544548 0.24807476 1.029
-0.2331872 0.24759258 1.0270001
-0.23116122 0.2473515 1.026
-0.22936229 0.2473515 1.026
-0.22734158 0.24711041 1.0250001
-0.22576445 0.2473515 1.026
-0.22396554 0.2473515 1.026
-0.22195008 0.24711041 1.0250001
-0.22015291 0.24711041 1.0250001
-0.21814272 0.24686933 1.024
-0.21698113 0.24759258 1.0270001
-0.21518046 0.24759258 1.0270001
-0.21337979 0.24759258 1.0270001
-0.21178514 0.24783367 1.028
-0.21141255 0.24952126 1.0350001
-0.20939533 0.24928017 1.034
-0.2075824 0.24928017 1.034
-0.20576945 0.24928017 1.034
-0.2039565 0.24928017 1.034
-0.20292553 0.2502445 1.0380001
-0.20110558 0.2502445 1.0380001
-0.19928561 0.2502445 1.0380001
-0.19746566 0.2502445 1.0380001
-0.19621114 0.25096774 1.041
-0.19494613 0.25169098 1.044
-0.19311564 0.25169098 1.044
-0.19183482 0.25241426 1.0470001
-0.25559655 0.2537643 1.0450001
-0.2537643 0.2537643 1.0450001
-0.25120884 0.25303581 1.0420001
-0.24866387 0.2523073 1.039
-0.24612942 0.25157878 1.036
-0.24360549 0.25085026 1.033
-0.24156024 0.25060743 1.0320001
-0.2397508 0.25060743 1.0320001
-0.23724967 0.24987893 1.029
-0.23544548 0.24987893 1.029
-0.2331872 0.24939325 1.0270001
-0.23116122 0.24915043 1.026
-0.22936229 0.24915043 1.026
-0.22756338 0.24915043 1.026
-0.22576445 0.24915043 1.026
-0.22396554 0.24915043 1.026
-0.22195008 0.24890758 1.0250001
-0.22015291 0.24890758 1.0250001
-0.21814272 0.24866475 1.024
-0.21698113 0.24939325 1.0270001
-0.21538998 0.2496361 1.028
-0.21358755 0.2496361 1.028
-0.21199115 0.24987893 1.029
-0.21079975 0.25060743 1.0320001
-0.20878781 0.2503646 1.031
-0.2075824 0.25109312 1.034
-0.20576945 0.25109312 1.034
-0.2039565 0.25109312 1.034
-0.20273004 0.25182161 1.0370001
-0.2003306 0.25109312 1.034
-0.19870965 0.25133595 1.0350001
-0.19746566 0.25206447 1.0380001
-0.19602266 0.25255013 1.0400001
-0.19475938 0.25327864 1.0430001
-0.19311564 0.25352147 1.044
-0.19183482 0.25424999 1.0470001
-0.25633031 0.25633031 1.0480001
-0.2537643 0.25559655 1.0450001
-0.25120884 0.25486279 1.0420001
-0.24842454 0.2538844 1.0380001
-0.24517912 0.25241688 1.0320001
-0.24336968 0.25241688 1.0320001
-0.24085803 0.25168312 1.029
-0.23905385 0.25168312 1.029
-0.23724967 0.25168312 1.029
-0.23544548 0.25168312 1.029
-0.2331872 0.25119394 1.0270001
-0.23138653 0.25119394 1.0270001
-0.22936229 0.25094935 1.026
-0.22756338 0.25094935 1.026
-0.22576445 0.25094935 1.026
-0.22396554 0.25094935 1.026
-0.22195008 0.25070474 1.0250001
-0.21993813 0.25046015 1.024
-0.21835575 0.25070474 1.0250001
-0.21655858 0.25070474 1.0250001
-0.21476142 0.25070474 1.0250001
-0.21379533 0.25168312 1.029
-0.21199115 0.25168312 1.029
-0.21079975 0.25241688 1.0320001
-0.20899032 0.25241688 1.0320001
-0.20798391 0.25339523 1.036
-0.20616744 0.25339523 1.036
-0.2039565 0.25290605 1.034
-0.20273004 0.25363982 1.0370001
-0.2003306 0.25290605 1.034
-0.19851767 0.25290605 1.034
-0.19746566 0.2538844 1.0380001
-0.19602266 0.25437361 1.0400001
-0.19475938 0.25510737 1.0430001
-0.19367057 0.25608572 1.0470001
-0.1923845 0.25681949 1.0500001
-0.25559655 0.2574288 1.0450001
-0.2537643 0.2574288 1.0450001
-0.25048557 0.25595072 1.039
-0.24770655 0.25496534 1.0350001
-0.24517912 0.25422633 1.0320001
-0.24266221 0.25348729 1.029
-0.24015582 0.25274825 1.026
-0.2383569 0.25274825 1.026
-0.23655798 0.25274825 1.026
-0.23475906 0.25274825 1.026
-0.2331872 0.2529946 1.0270001
-0.23138653 0.2529946 1.0270001
-0.22869165 0.25200924 1.023
-0.22689798 0.25200924 1.023
-0.22510433 0.25200924 1.023
-0.22331066 0.25200924 1.023
-0.22151701 0.25200924 1.023
-0.21950856 0.2517629 1.0220001
-0.21771666 0.2517629 1.0220001
-0.21655858 0.2525019 1.0250001
-0.21497093 0.25274825 1.026
-0.21317202 0.25274825 1.026
-0.21199115 0.25348729 1.029
-0.21079975 0.25422633 1.0320001
-0.20899032 0.25422633 1.0320001
-0.20798391 0.25521168 1.036
-0.20616744 0.25521168 1.036
-0.2039565 0.25471902 1.034
-0.20214355 0.25471902 1.034
-0.2003306 0.25471902 1.034
-0.19851767 0.25471902 1.034
-0.19727542 0.25545803 1.0370001
-0.19602266 0.25619707 1.0400001
-0.19494613 0.25718245 1.044
-0.19311564 0.25718245 1.044
-0.19183482 0.25792146 1.0470001
-0.25486279 0.25851673 1.0420001
-0.25303581 0.25851673 1.0420001
-0.25048557 0.25777245 1.039
-0.24698856 0.25603575 1.0320001
-0.24304093 0.2538029 1.023
-0.24124727 0.2538029 1.023
-0.23945361 0.2538029 1.023
-0.23765995 0.2538029 1.023
-0.23655798 0.25454718 1.026
-0.23475906 0.25454718 1.026
-0.23227897 0.2538029 1.023
-0.23048531 0.2538029 1.023
-0.22869165 0.2538029 1.023
-0.22689798 0.2538029 1.023
-0.22510433 0.2538029 1.023
-0.22331066 0.2538029 1.023
-0.22151701 0.2538029 1.023
-0.21950856 0.25355479 1.0220001
-0.21771666 0.25355479 1.0220001
-0.21592475 0.25355479 1.0220001
-0.21497093 0.25454718 1.026
-0.21317202 0.25454718 1.026
-0.21199115 0.25529146 1.029
-0.21079975 0.25603575 1.0320001
-0.20899032 0.25603575 1.0320001
-0.20738164 0.25628385 1.033
-0.20616744 0.25702813 1.036
-0.2039565 0.25653195 1.034
-0.20214355 0.25653195 1.034
-0.2003306 0.25653195 1.034
-0.19851767 0.25653195 1.034
-0.19746566 0.25752434 1.0380001
-0.19639963 0.25851673 1.0420001
-0.19513285 0.25926101 1.0450001
-0.19311564 0.25901291 1.044
-0.19183482 0.25975722 1.0470001
-0.25412902 0.25959414 1.039
-0.2523073 0.25959414 1.039
-0.25048557 0.25959414 1.039
-0.24555258 0.25634611 1.026
-0.24304093 0.25559655 1.023
-0.24124727 0.25559655 1.023
-0.23945361 0.25559655 1.023
-0.23765995 0.25559655 1.023
-0.23655798 0.25634611 1.026
-0.23521668 0.2568458 1.028
-0.23296013 0.25634611 1.026
-0.23048531 0.25559655 1.023
-0.22869165 0.25559655 1.023
-0.22689798 0.25559655 1.023
-0.22510433 0.25559655 1.023
-0.22331066 0.25559655 1.023
-0.22151701 0.25559655 1.023
-0.21972334 0.25559655 1.023
-0.21792969 0.25559655 1.023
-0.21613602 0.25559655 1.023
-0.21497093 0.25634611 1.026
-0.21296425 0.25609624 1.0250001
-0.21199115 0.25709563 1.029
-0.21079975 0.25784519 1.0320001
-0.20878781 0.25759536 1.031
-0.20718087 0.25784519 1.0320001
-0.20576945 0.25834489 1.034
-0.2039565 0.25834489 1.034
-0.20214355 0.25834489 1.034
-0.19974938 0.25759536 1.031
-0.19851767 0.25834489 1.034
-0.19689494 0.25859475 1.0350001
-0.19602266 0.25984401 1.0400001
-0.19457266 0.2603437 1.0420001
-0.19367057 0.26159295 1.0470001
-0.1923845 0.26234251 1.0500001
-0.25412902 0.26141587 1.039
-0.2523073 0.26141587 1.039
-0.25048557 0.26141587 1.039
-0.24555258 0.258145 1.026
-0.24304093 0.2573902 1.023
-0.2405398 0.2566354 1.0200001
-0.2387514 0.2566354 1.0200001
-0.23765995 0.2573902 1.023
-0.23563573 0.25713861 1.0220001
-0.23453026 0.25789341 1.0250001
-0.23296013 0.258145 1.026
-0.23048531 0.2573902 1.023
-0.22869165 0.2573902 1.023
-0.22689798 0.2573902 1.023
-0.22510433 0.2573902 1.023
-0.22331066 0.2573902 1.023
-0.22151701 0.2573902 1.023
-0.21972334 0.2573902 1.023
-0.21792969 0.2573902 1.023
-0.21613602 0.2573902 1.023
-0.21434237 0.2573902 1.023
-0.21296425 0.25789341 1.0250001
-0.21116708 0.25789341 1.0250001
-0.21059549 0.25940302 1.031
-0.20878781 0.25940302 1.031
-0.20718087 0.25965464 1.0320001
-0.20596845 0.26040944 1.0350001
-0.20415375 0.26040944 1.0350001
-0.20214355 0.26015785 1.034
-0.19994313 0.25965464 1.0320001
-0.19870965 0.26040944 1.0350001
-0.19689494 0.26040944 1.0350001
-0.19602266 0.26166746 1.0400001
-0.19457266 0.26217067 1.0420001
-0.19330062 0.26292548 1.0450001
-0.2538844 0.26298422 1.0380001
-0.25206447 0.26298422 1.0380001
-0.24483459 0.25918385 1.023
-0.2423282 0.25842381 1.0200001
-0.2405398 0.25842381 1.0200001
-0.2387514 0.25842381 1.0200001
-0.236963 0.25842381 1.0200001
-0.23563573 0.2589305 1.0220001
-0.23384382 0.2589305 1.0220001
-0.23227897 0.25918385 1.023
-0.23048531 0.25918385 1.023
-0.22869165 0.25918385 1.023
-0.22689798 0.25918385 1.023
-0.22510433 0.25918385 1.023
-0.22331066 0.25918385 1.023
-0.22151701 0.25918385 1.023
-0.21972334 0.25918385 1.023
-0.21792969 0.25918385 1.023
-0.21613602 0.25918385 1.023
-0.21434237 0.25918385 1.023
-0.21296425 0.25969058 1.0250001
-0.21137311 0.25994393 1.026
-0.21079975 0.26146409 1.0320001
-0.20878781 0.26121071 1.031
-0.20718087 0.26146409 1.0320001
-0.20537144 0.26146409 1.0320001
-0.20356199 0.26146409 1.0320001
-0.20233905 0.26222414 1.0350001
-0.20052435 0.26222414 1.0350001
-0.19870965 0.26222414 1.0350001
-0.19727542 0.26273087 1.0370001
-0.19602266 0.26349095 1.0400001
-0.19475938 0.26425099 1.0430001
-0.19311564 0.26450437 1.044
-0.24507391 0.26123264 1.024
-0.24256578 0.26046732 1.021
-0.24077561 0.26046732 1.021
-0.2387514 0.26021221 1.0200001
-0.236963 0.26021221 1.0200001
-0.23494403 0.25995708 1.0190001
-0.23384382 0.26072243 1.0220001
-0.23227897 0.26097754 1.023
-0.23048531 0.26097754 1.023
-0.228021 0.26021221 1.0200001
-0.2262326 0.26021221 1.0200001
-0.2244442 0.26021221 1.0200001
-0.2226558 0.26021221 1.0200001
-0.2208674 0.26021221 1.0200001
-0.21972334 0.26097754 1.023
-0.21792969 0.26097754 1.023
-0.21613602 0.26097754 1.023
-0.21434237 0.26097754 1.023
-0.21317202 0.26174286 1.026
-0.21137311 0.26174286 1.026
-0.21079975 0.26327351 1.0320001
-0.20878781 0.2630184 1.031
-0.20718087 0.26327351 1.0320001
-0.20537144 0.26327351 1.0320001
-0.20356199 0.26327351 1.0320001
-0.20233905 0.26403886 1.0350001
-0.20052435 0.26403886 1.0350001
-0.19870965 0.26403886 1.0350001
-0.19727542 0.26454908 1.0370001
-0.19602266 0.2653144 1.0400001
-0.19475938 0.26607972 1.0430001
-0.19311564 0.26633483 1.044
-0.19220127 0.2676104 1.049
-0.24256578 0.26225746 1.021
-0.24077561 0.26225746 1.021
-0.2387514 0.26200059 1.0200001
-0.236963 0.26200059 1.0200001
-0.2351746 0.26200059 1.0200001
-0.23407263 0.26277119 1.023
-0.23227897 0.26277119 1.023
-0.2298094 0.26200059 1.0200001
-0.228021 0.26200059 1.0200001
-0.2262326 0.26200059 1.0200001
-0.2244442 0.26200059 1.0200001
-0.2226558 0.26200059 1.0200001
-0.2208674 0.26200059 1.0200001
-0.21972334 0.26277119 1.023
-0.21792969 0.26277119 1.023
-0.21613602 0.26277119 1.023
-0.21434237 0.26277119 1.023
-0.2125487 0.26277119 1.023
-0.21137311 0.26354179 1.026
-0.20998271 0.26405549 1.028
-0.20878781 0.26482609 1.031
-0.20718087 0.26508296 1.0320001
-0.20537144 0.26508296 1.0320001
-0.20356199 0.26508296 1.0320001
-0.20175256 0.26508296 1.0320001
-0.20052435 0.26585355 1.0350001
-0.19870965 0.26585355 1.0350001
-0.19727542 0.26636729 1.0370001
-0.19583417 0.26688099 1.039
-0.19438593 0.26739472 1.041
-0.19311564 0.26816532 1.044
-0.19220127 0.26944962 1.049
-0.23804919 0.26301315 1.0170001
-0.23626605 0.26301315 1.0170001
-0.23448291 0.26301315 1.0170001
-0.2333862 0.263789 1.0200001
-0.23227897 0.26456484 1.023
-0.2298094 0.263789 1.0200001
-0.228021 0.263789 1.0200001
-0.2262326 0.263789 1.0200001
-0.2244442 0.263789 1.0200001
-0.22331066 0.26456484 1.023
-0.22151701 0.26456484 1.023
-0.21972334 0.26456484 1.023
-0.21792969 0.26456484 1.023
-0.21613602 0.26456484 1.023
-0.21434237 0.26456484 1.023
-0.21275648 0.26482347 1.024
-0.21137311 0.26534069 1.026
-0.20998271 0.26585793 1.028
-0.20899032 0.2668924 1.0320001
-0.20718087 0.2668924 1.0320001
-0.20537144 0.2668924 1.0320001
-0.20356199 0.2668924 1.0320001
-0.20175256 0.2668924 1.0320001
-0.20052435 0.26766825 1.0350001
-0.19870965 0.26766825 1.0350001
-0.19746566 0.26844409 1.0380001
-0.19602266 0.26896134 1.0400001
-0.19438593 0.26921993 1.041
-0.19367057 0.27077165 1.0470001
-0.19183482 0.27077165 1.0470001
-0.23804919 0.26479629 1.0170001
-0.23626605 0.26479629 1.0170001
-0.23448291 0.26479629 1.0170001
-0.2333862 0.26557741 1.0200001
-0.23227897 0.26635849 1.023
-0.23048531 0.26635849 1.023
-0.228021 0.26557741 1.0200001
-0.2262326 0.26557741 1.0200001
-0.2244442 0.26557741 1.0200001
-0.22331066 0.26635849 1.023
-0.22151701 0.26635849 1.023
-0.21972334 0.26635849 1.023
-0.21814272 0.26661888 1.024
-0.21634731 0.26661888 1.024
-0.2145519 0.26661888 1.024
-0.2125487 0.26635849 1.023
-0.21075505 0.26635849 1.023
-0.21039124 0.26818109 1.0300001
-0.20838279 0.26792073 1.029
-0.20657861 0.26792073 1.029
-0.20557044 0.2689622 1.033
-0.20356199 0.26870185 1.0320001
-0.20175256 0.26870185 1.0320001
-0.20052435 0.26948294 1.0350001
-0.19870965 0.26948294 1.0350001
-0.19746566 0.27026406 1.0380001
-0.19658811 0.27156591 1.0430001
-0.19513285 0.27208665 1.0450001
-0.19385554 0.27286777 1.0480001
-0.23626605 0.26657942 1.0170001
-0.23425235 0.26631731 1.016
-0.23315738 0.26710367 1.0190001
-0.23205191 0.26789004 1.0220001
-0.23026 0.26789004 1.0220001
-0.22869165 0.26815218 1.023
-0.22689798 0.26815218 1.023
-0.22510433 0.26815218 1.023
-0.22331066 0.26815218 1.023
-0.22151701 0.26815218 1.023
-0.21972334 0.26815218 1.023
-0.21814272 0.26841429 1.024
-0.21634731 0.26841429 1.024
-0.2145519 0.26841429 1.024
-0.2125487 0.26815218 1.023
-0.21075505 0.26815218 1.023
-0.21039124 0.26998702 1.0300001
-0.20858529 0.26998702 1.0300001
-0.20677936 0.26998702 1.0300001
-0.20557044 0.27077341 1.033
-0.20336474 0.27024916 1.031
-0.20194806 0.27077341 1.033
-0.20071809 0.27155977 1.036
-0.19928561 0.27208403 1.0380001
-0.19841684 0.27339464 1.0430001
-0.19639963 0.2731325 1.0420001
-0.19513285 0.27391887 1.0450001
-0.19330062 0.27391887 1.0450001
-0.23580141 0.26783481 1.0150001
-0.23402178 0.26783481 1.0150001
-0.23292857 0.26862645 1.018
-0.23205191 0.26968196 1.0220001
-0.23026 0.26968196 1.0220001
-0.22869165 0.26994583 1.023
-0.22689798 0.26994583 1.023
-0.22510433 0.26994583 1.023
-0.22331066 0.26994583 1.023
-0.22151701 0.26994583 1.023
-0.21993813 0.2702097 1.024
-0.21750362 0.26941806 1.021
-0.21571347 0.26941806 1.021
-0.2145519 0.2702097 1.024
-0.21275648 0.2702097 1.024
-0.21096106 0.2702097 1.024
-0.21039124 0.27179298 1.0300001
-0.20858529 0.27179298 1.0300001
-0.20738164 0.27258459 1.033
-0.20557044 0.27258459 1.033
-0.20336474 0.27205685 1.031
-0.20194806 0.27258459 1.033
-0.20071809 0.27337623 1.036
-0.20005357 0.27495947 1.0420001
-0.19784613 0.27443174 1.0400001
-0.1956457 0.27390397 1.0380001
-0.19382574 0.27390397 1.0380001
-0.19311564 0.27548724 1.044
-0.23361501 0.27120823 1.021
-0.23182486 0.27120823 1.021
-0.23003471 0.27120823 1.021
-0.22869165 0.27173948 1.023
-0.22689798 0.27173948 1.023
-0.22510433 0.27173948 1.023
-0.22331066 0.27173948 1.023
-0.22151701 0.27173948 1.023
-0.21929379 0.27120823 1.021
-0.21750362 0.27120823 1.021
-0.21571347 0.27120823 1.021
-0.21392332 0.27120823 1.021
-0.21275648 0.27200511 1.024
-0.21096106 0.27200511 1.024
-0.20977844 0.272802 1.0270001
-0.20858529 0.27359891 1.0300001
-0.20738164 0.27439579 1.033
-0.20616744 0.27519268 1.036
-0.20454825 0.27545831 1.0370001
-0.20312104 0.27598956 1.039
-0.20129932 0.27598956 1.039
-0.20005357 0.27678645 1.0420001
-0.1976559 0.27598956 1.039
-0.19545722 0.27545831 1.0370001
-0.19363901 0.27545831 1.0370001
-0.22869165 0.27353314 1.023
-0.22689798 0.27353314 1.023
-0.22510433 0.27353314 1.023
-0.22331066 0.27353314 1.023
-0.22151701 0.27353314 1.023
-0.21929379 0.27299839 1.021
-0.21750362 0.27299839 1.021
-0.21571347 0.27299839 1.021
-0.21392332 0.27299839 1.021
-0.21213317 0.27299839 1.021
-0.21096106 0.27380052 1.024
-0.20977844 0.27460268 1.0270001
-0.20858529 0.27540484 1.0300001
-0.20798391 0.27700913 1.036
-0.20676446 0.27781129 1.039
-0.2047455 0.2775439 1.0380001
-0.20351203 0.27834606 1.041
-0.20149307 0.27807868 1.0400001
-0.20024557 0.2788808 1.0430001
-0.1982266 0.27861342 1.0420001
-0.19621114 0.27834606 1.041
-0.22756338 0.27613422 1.026
-0.22576445 0.27613422 1.026
-0.22331066 0.27532682 1.023
-0.22173354 0.27559593 1.024
-0.21929379 0.27478853 1.021
-0.21771666 0.27505767 1.0220001
-0.21592475 0.27505767 1.0220001
-0.21392332 0.27478853 1.021
-0.21213317 0.27478853 1.021
-0.21096106 0.27559593 1.024
-0.20977844 0.27640337 1.0270001
-0.20797777 0.27640337 1.0270001
-0.20999147 0.28151694 1.046
-0.20736147 0.28044039 1.0420001
-0.20533724 0.28017128 1.041
-0.20331652 0.27990213 1.0400001
-0.20129932 0.27963299 1.039
-0.19986159 0.28017128 1.041
-0.19803637 0.28017128 1.041
-0.19621114 0.28017128 1.041
-0.34470358 0.49682629 1.8460001
-0.34146693 0.49682629 1.8460001
-0.23521668 0.28280917 1.044
-0.23360975 0.28308004 1.0450001
-0.22331066 0.27712047 1.023
-0.22173354 0.27739134 1.024
-0.219079 0.27630779 1.0200001
-0.21750362 0.27657869 1.021
-0.21571347 0.27657869 1.021
-0.36127785 0.48326775 1.784
-0.35935444 0.48489308 1.7900001
-0.35601696 0.48462221 1.789
-0.20612624 0.28308004 1.0450001
-0.20390302 0.28253826 1.0430001
-0.20188056 0.28226739 1.0420001
-0.20005357 0.28226739 1.0420001
-0.19803637 0.28199649 1.041
-0.19621114 0.28199649 1.041
-0.34470358 0.50006294 1.8460001
-0.34146693 0.50006294 1.8460001
-0.23544198 0.28491229 1.0450001
-0.23360975 0.28491229 1.0450001
-0.22396554 0.27973205 1.026
-0.22151701 0.27891412 1.023
-0.21886422 0.27782357 1.0190001
-0.2172906 0.2780962 1.0200001
-0.36127785 0.48639572 1.784
-0.35935444 0.48803157 1.7900001
-0.35780799 0.49021271 1.7980001
-0.2055345 0.28409436 1.0420001
-0.20370753 0.28409436 1.0420001
-0.20188056 0.28409436 1.0420001
-0.20005357 0.28409436 1.0420001
-0.19803637 0.2838217 1.041
-0.19621114 0.2838217 1.041
-0.34470358 0.50329959 1.8460001
-0.34146693 0.50329959 1.8460001
-0.22108394 0.280159 1.021
-0.219079 0.27988461 1.0200001
-0.36168286 0.49007243 1.7860001
-0.35955518 0.49144444 1.7910001
-0.35800698 0.49363959 1.7990001
-0.35347199 0.49171883 1.7920001
-0.20351203 0.28564692 1.041
-0.20188056 0.28592134 1.0420001
-0.20005357 0.28592134 1.0420001
-0.19803637 0.28564692 1.041
-0.19639963 0.28592134 1.0420001
-0.34283629 0.50379229 1.8360001
-0.33961716 0.50379229 1.8360001
-0.3626954 0.49458465 1.7910001
-0.35955518 0.49458465 1.7910001
-0.35780799 0.49651769 1.7980001
-0.35426101 0.49596539 1.7960001
-0.20409852 0.2883006 1.044
-0.20246178 0.28857675 1.0450001
-0.20120552 0.2894052 1.0480001
-0.19803637 0.28747216 1.041
-0.19639963 0.28774831 1.0420001
-0.34246281 0.50645912 1.8340001
-0.33961716 0.50701141 1.8360001
-0.35780799 0.49967018 1.7980001
-0.35426101 0.49911439 1.7960001
-0.20429401 0.29040897 1.0450001
-0.20265552 0.29068688 1.046
-0.20139751 0.2915206 1.049
-0.20031922 0.29263222 1.0530001
-0.34605539 0.51023054 1.8360001
-0.33984861 0.50578403 1.8200001
-0.33684251 0.50606197 1.8210001
-0.35780799 0.5028227 1.7980001
-0.3546555 0.5028227 1.7980001
-0.20488051 0.29308018 1.0480001
-0.20323676 0.29335985 1.049
-0.34961379 0.50925481 1.8210001
-0.34927452 0.51344961 1.8360001
-0.34605539 0.51344961 1.8360001
-0.34078225 0.51037341 1.825
-0.33758241 0.51037341 1.825
-0.35800698 0.50625658 1.7990001
-0.3546555 0.50597519 1.7980001
-0.35150301 0.50597519 1.7980001
-0.3500942 0.50850785 1.807
-0.34865382 0.51104057 1.8160001
-0.34927452 0.51666874 1.8360001
-0.34454754 0.51441747 1.8280001
-0.34134245 0.51441747 1.8280001
-0.33776739 0.51385468 1.8260001
-0.35682526 0.5122425 1.8090001
-0.35345796 0.51195931 1.8080001
-0.35222536 0.51479095 1.8180001
-0.34884584 0.51450777 1.817
-0.34927452 0.51988786 1.8360001
-0.34454754 0.51762259 1.8280001
-0.34134245 0.51762259 1.8280001
-0.35222536 0.51797849 1.8180001
-0.34884584 0.51769358 1.817
-0.35098666 0.52567124 1.845
-0.34812871 0.52624106 1.8470001
-0.34675762 0.52909023 1.8570001
-0.32334799 0.39520308 1.322
-0.32103008 0.39520308 1.322
-0.32334799 0.39752099 1.322
-0.32103008 0.39752099 1.322
-0.3231034 0.40185261 1.3210001
-0.32334799 0.40447471 1.322
-0.32481551 0.40863886 1.3280001
-0.32345843 0.40986973 1.332
-0.32628307 0.41282409 1.3340001
-0.32345843 0.41220516 1.332
-0.32750601 0.41671911 1.3390001
-0.32467261 0.41609669 1.337
-0.20997393 0.35665429 1.146
-0.20796461 0.35665429 1.146
-0.32897356 0.42094466 1.345
-0.32637247 0.42063168 1.3440001
-0.21272317 0.35991549 1.1500001
-0.20997393 0.35866362 1.146
-0.20796461 0.35866362 1.146
-0.2147395 0.36193183 1.1500001
-0.21198326 0.36067295 1.146
-0.20997393 0.36067295 1.146
-0.20796461 0.36067295 1.146
-0.21877216 0.36394817 1.1500001
-0.21675584 0.36394817 1.1500001
-0.21436603 0.36331522 1.148
-0.21216823 0.36299872 1.1470001
-0.20997393 0.36268225 1.146
-0.2081461 0.36299872 1.1470001
-0.21350427 0.32427636 1.0190001
-0.2119254 0.32459459 1.0200001
-0.21801122 0.36469159 1.146
-0.21543644 0.3637369 1.143
-0.21305893 0.36310044 1.141
-0.2108734 0.36278221 1.1400001
-0.20869137 0.36246398 1.1390001
-0.20760168 0.36405513 1.1440001
-0.2315978 0.32638299 1.0200001
-0.2295841 0.32606301 1.0190001
-0.22712679 0.32510307 1.016
-0.22334924 0.32222322 1.0070001
-0.22158363 0.32222322 1.0070001
-0.22065087 0.32606301 1.0190001
-0.21886422 0.32606301 1.0190001
-0.2172906 0.32638299 1.0200001
-0.2155022 0.32638299 1.0200001
-0.21350427 0.32606301 1.0190001
-0.21171764 0.32606301 1.0190001
-0.20993099 0.32606301 1.0190001
-0.22726181 0.36542097 1.1420001
-0.2244705 0.36414102 1.138
-0.22169322 0.3628611 1.1340001
-0.21970494 0.3628611 1.1340001
-0.21771666 0.3628611 1.1340001
-0.21591862 0.36318108 1.1350001
-0.21336313 0.36222112 1.1320001
-0.21137837 0.36222112 1.1320001
-0.21013349 0.36350107 1.136
-0.20869137 0.364461 1.1390001
-0.20760168 0.36606094 1.1440001
-0.2315978 0.3281714 1.0200001
-0.22935879 0.32752791 1.018
-0.2266797 0.32624099 1.0140001
-0.22290565 0.32334533 1.005
-0.2209235 0.32302362 1.0040001
-0.22134607 0.32624099 1.0140001
-0.21956818 0.32624099 1.0140001
-0.21864943 0.32752791 1.018
-0.21686454 0.32752791 1.018
-0.21529092 0.32784966 1.0190001
-0.21350427 0.32784966 1.0190001
-0.21171764 0.32784966 1.0190001
-0.20993099 0.32784966 1.0190001
-0.20875713 0.32881486 1.0220001
-0.22846109 0.36613631 1.138
-0.22646579 0.36613631 1.138
-0.22368149 0.36484939 1.1340001
-0.22169322 0.36484939 1.1340001
-0.2195112 0.36452764 1.133
-0.21733268 0.3642059 1.1320001
-0.2153479 0.3642059 1.1320001
-0.21317466 0.36388418 1.131
-0.21137837 0.3642059 1.1320001
-0.21013349 0.36549285 1.136
-0.20869137 0.36645806 1.1390001
-0.20651285 0.36613631 1.138
-0.2262326 0.32737187 1.0120001
-0.22357103 0.32607791 1.008
-0.22180368 0.32607791 1.008
-0.22069119 0.32704839 1.011
-0.21956818 0.32801884 1.0140001
-0.21864943 0.32931283 1.018
-0.21643847 0.32866585 1.016
-0.21507965 0.32931283 1.018
-0.21350427 0.32963631 1.0190001
-0.21150985 0.32931283 1.018
-0.20993099 0.32963631 1.0190001
-0.20875713 0.33060679 1.0220001
-0.20696522 0.33060679 1.0220001
-0.22765806 0.36683765 1.1340001
-0.22566977 0.36683765 1.1340001
-0.22368149 0.36683765 1.1340001
-0.22169322 0.36683765 1.1340001
-0.21970494 0.36683765 1.1340001
-0.21733268 0.36619067 1.1320001
-0.21496743 0.36554369 1.13
-0.21298617 0.36554369 1.13
-0.21119162 0.3658672 1.131
-0.20994851 0.36716115 1.1350001
-0.20777526 0.36683765 1.1340001
-0.20651285 0.36813161 1.138
-0.22600906 0.328821 1.011
-0.22357103 0.32784528 1.008
-0.22180368 0.32784528 1.008
-0.22090948 0.32914627 1.0120001
-0.21978472 0.33012199 1.0150001
-0.21843465 0.33077246 1.0170001
-0.21643847 0.33044723 1.016
-0.21486837 0.33077246 1.0170001
-0.21350427 0.33142295 1.0190001
-0.21150985 0.33109772 1.018
-0.20993099 0.33142295 1.0190001
-0.20875713 0.33239868 1.0220001
-0.2067627 0.33207345 1.021
-0.22765806 0.36882594 1.1340001
-0.22566977 0.36882594 1.1340001
-0.22368149 0.36882594 1.1340001
-0.22169322 0.36882594 1.1340001
-0.21931745 0.36817545 1.1320001
-0.21733268 0.36817545 1.1320001
-0.21496743 0.36752495 1.13
-0.21279769 0.36719972 1.1290001
-0.2110049 0.36752495 1.13
-0.20902362 0.36752495 1.13
-0.20759204 0.36850068 1.133
-0.20578697 0.36882594 1.1340001
-0.22578549 0.33026662 1.01
-0.22401462 0.33026662 1.01
-0.2224638 0.33059362 1.011
-0.2204729 0.33026662 1.01
-0.21935165 0.33124763 1.013
-0.21821986 0.3322286 1.016
-0.21622545 0.33190161 1.0150001
-0.21529092 0.3332096 1.0190001
-0.21350427 0.3332096 1.0190001
-0.21150985 0.33288261 1.018
-0.20993099 0.3332096 1.0190001
-0.20896138 0.3345176 1.023
-0.2067627 0.33386359 1.021
-0.22002931 0.35838833 1.0960001
-0.21810766 0.35838833 1.0960001
-0.22269525 0.36917925 1.1290001
-0.22091123 0.36950624 1.13
-0.21873622 0.36917925 1.1290001
-0.2167567 0.36917925 1.1290001
-0.21439672 0.36852524 1.1270001
-0.21279769 0.36917925 1.1290001
-0.2110049 0.36950624 1.13
-0.20902362 0.36950624 1.13
-0.20685914 0.36917925 1.1290001
-0.20506109 0.36950624 1.13
-0.22578549 0.33203751 1.01
-0.22401462 0.33203751 1.01
-0.22224377 0.33203751 1.01
-0.2204729 0.33203751 1.01
-0.21935165 0.33302376 1.013
-0.21757552 0.33302376 1.013
-0.21558636 0.33269501 1.0120001
-0.21486837 0.33433875 1.0170001
-0.21308523 0.33433875 1.0170001
-0.21088655 0.33368126 1.0150001
-0.20972496 0.3346675 1.018
-0.22407688 0.36063874 1.097
-0.22215347 0.36063874 1.097
-0.22023006 0.36063874 1.097
-0.21790865 0.35998124 1.095
-0.222498 0.37083 1.128
-0.22052024 0.37083 1.128
-0.21873622 0.37115875 1.1290001
-0.2167567 0.37115875 1.1290001
-0.21420649 0.3701725 1.126
