# .PCD v0.7 - Point Cloud Data file format
VERSION 0.7
FIELDS x y z
SIZE 4 4 4
TYPE F F F
COUNT 1 1 1
WIDTH 1524
HEIGHT 1
VIEWPOINT 0 0 0 1 0 0 0
POINTS 1524
DATA ascii
-0.01693983 0.25409746 1.0170001
-0.01515669 0.25409746 1.0170001
-0.013413 0.25484699 1.0200001
-0.011613203 0.25459716 1.0190001
-0.0098265568 0.25459716 1.0190001
-0.0080714701 0.25559655 1.023
-0.0062778099 0.25559655 1.023
-0.0044841501 0.25559655 1.023
-0.0026904899 0.25559655 1.023
-0.00089770666 0.25584641 1.024
0.00089770666 0.25584641 1.024
0.0026931199 0.25584641 1.024
0.0045016832 0.25659594 1.0270001
0.0063023567 0.25659594 1.0270001
0.0081030298 0.25659594 1.0270001
0.0098844171 0.25609624 1.0250001
0.011681584 0.25609624 1.0250001
0.0134656 0.25584641 1.024
0.015261013 0.25584641 1.024
0.017073084 0.25609624 1.0250001
0.018870249 0.25609624 1.0250001
0.02074807 0.25709563 1.029
0.02255225 0.25709563 1.029
0.024380099 0.2573455 1.0300001
0.026186034 0.2573455 1.0300001
0.028073497 0.25809506 1.033
0.030000409 0.25909445 1.0370001
0.031818617 0.25909445 1.0370001
0.033701696 0.25959414 1.039
0.035591789 0.26009384 1.041
0.037488896 0.26059353 1.0430001
0.039393015 0.26109326 1.0450001
0.04138305 0.26209265 1.049
0.043222297 0.26209265 1.049
0.045190413 0.26284221 1.052
0.04707963 0.26309204 1.0530001
0.048879426 0.26284221 1.052
0.050916798 0.2638416 1.056
0.05276832 0.2638416 1.056
0.054671563 0.26409146 1.057
-0.10913448 0.26770595 1.064
-0.10696648 0.26695114 1.0610001
-0.10480901 0.26619631 1.0580001
-0.10266205 0.26544151 1.0550001
-0.10052561 0.2646867 1.052
-0.098305896 0.26368028 1.0480001
-0.096468396 0.26368028 1.0480001
-0.094089128 0.26217067 1.0420001
-0.092173606 0.26191908 1.041
-0.090088017 0.26116425 1.0380001
-0.088268057 0.26116425 1.0380001
-0.086114965 0.26015785 1.034
-0.084465079 0.26066107 1.036
-0.082648627 0.26066107 1.036
-0.080832176 0.26066107 1.036
-0.079015717 0.26066107 1.036
-0.077199265 0.26066107 1.036
-0.075164519 0.25990623 1.033
-0.073424339 0.26015785 1.034
-0.071403623 0.25940302 1.031
-0.069393426 0.25864822 1.028
-0.06739375 0.25789341 1.0250001
-0.065532587 0.25764182 1.024
-0.063737176 0.25764182 1.024
-0.0616998 0.2566354 1.0200001
-0.0599114 0.2566354 1.0200001
-0.05795205 0.25588059 1.0170001
-0.056113679 0.25562897 1.016
-0.054332294 0.25562897 1.016
-0.052550908 0.25562897 1.016
-0.050769519 0.25562897 1.016
-0.048843484 0.25487417 1.013
-0.047020894 0.25462258 1.0120001
-0.045246519 0.25462258 1.0120001
-0.043472145 0.25462258 1.0120001
-0.041821383 0.25537738 1.0150001
-0.0399234 0.25462258 1.0120001
-0.038149025 0.25462258 1.0120001
-0.036374655 0.25462258 1.0120001
-0.03460028 0.25462258 1.0120001
-0.032825906 0.25462258 1.0120001
-0.031051533 0.25462258 1.0120001
-0.029277159 0.25462258 1.0120001
-0.027502786 0.25462258 1.0120001
-0.025728414 0.25462258 1.0120001
-0.02397771 0.25487417 1.013
-0.022311166 0.25613219 1.018
-0.02050611 0.25588059 1.0170001
-0.01872297 0.25588059 1.0170001
-0.01693983 0.25588059 1.0170001
-0.01515669 0.25588059 1.0170001
-0.013413 0.2566354 1.0200001
-0.011613203 0.25638381 1.0190001
-0.0098361997 0.2566354 1.0200001
-0.0080714701 0.2573902 1.023
-0.0062778099 0.2573902 1.023
-0.0044841501 0.2573902 1.023
-0.0026904899 0.2573902 1.023
-0.00089770666 0.25764182 1.024
0.00089770666 0.25764182 1.024
0.0026931199 0.25764182 1.024
0.0045016832 0.25839663 1.0270001
0.0062962198 0.258145 1.026
0.0080951396 0.258145 1.026
0.0098844171 0.25789341 1.0250001
0.011681584 0.25789341 1.0250001
0.01347875 0.25789341 1.0250001
0.015275917 0.25789341 1.0250001
0.017073084 0.25789341 1.0250001
0.018870249 0.25789341 1.0250001
0.02074807 0.25889984 1.029
0.02255225 0.25889984 1.029
0.02435643 0.25889984 1.029
0.026262304 0.25990623 1.033
0.028073497 0.25990623 1.033
0.02997148 0.26066107 1.036
0.031910665 0.26166746 1.0400001
0.033799008 0.26217067 1.0420001
0.035694361 0.26267388 1.044
0.037596725 0.2631771 1.046
0.0395815 0.26418349 1.0500001
0.04154085 0.26493829 1.0530001
0.043345906 0.2646867 1.052
0.045233369 0.26493829 1.0530001
0.047213759 0.26569313 1.056
0.049018815 0.26544151 1.0550001
0.050916798 0.26569313 1.056
-0.10736975 0.26982486 1.0650001
-0.10480901 0.26805136 1.0580001
-0.10275936 0.26754463 1.056
-0.10062117 0.26678458 1.0530001
-0.098305896 0.26551777 1.0480001
-0.095824048 0.26374429 1.041
-0.093998827 0.26374429 1.041
-0.091907978 0.26298422 1.0380001
-0.090001233 0.26273087 1.0370001
-0.088268057 0.26298422 1.0380001
-0.086198248 0.26222414 1.0350001
-0.084465079 0.26247752 1.036
-0.082648627 0.26247752 1.036
-0.080910198 0.26273087 1.0370001
-0.078863181 0.26197079 1.034
-0.076975718 0.26171744 1.033
-0.074946232 0.26095736 1.0300001
-0.073211312 0.26121071 1.031
-0.071126595 0.26019728 1.0270001
-0.069393426 0.26045066 1.028
-0.06739375 0.25969058 1.0250001
-0.065532587 0.25943723 1.024
-0.0634882 0.25842381 1.0200001
-0.0616998 0.25842381 1.0200001
-0.05973519 0.25766373 1.0170001
-0.05795205 0.25766373 1.0170001
-0.056113679 0.25741038 1.016
-0.054278817 0.25715703 1.0150001
-0.052550908 0.25741038 1.016
-0.05061961 0.2566503 1.013
-0.048843484 0.2566503 1.013
-0.047020894 0.25639695 1.0120001
-0.04529123 0.2566503 1.013
-0.043558061 0.25690365 1.0140001
-0.041780181 0.25690365 1.0140001
-0.039962851 0.2566503 1.013
-0.038186722 0.2566503 1.013
-0.036410596 0.2566503 1.013
-0.034634471 0.2566503 1.013
-0.032858342 0.2566503 1.013
-0.031051533 0.25639695 1.0120001
-0.029277159 0.25639695 1.0120001
-0.027502786 0.25639695 1.0120001
-0.025728414 0.25639695 1.0120001
-0.02397771 0.2566503 1.013
-0.02228925 0.25766373 1.0170001
-0.02050611 0.25766373 1.0170001
-0.01872297 0.25766373 1.0170001
-0.016923172 0.25741038 1.016
-0.01515669 0.25766373 1.0170001
-0.0133867 0.25791708 1.018
-0.0116246 0.25842381 1.0200001
-0.0098361997 0.25842381 1.0200001
-0.0080477996 0.25842381 1.0200001
-0.0062778099 0.25918385 1.023
-0.0044841501 0.25918385 1.023
-0.0026904899 0.25918385 1.023
-0.00089770666 0.25943723 1.024
0.00089770666 0.25943723 1.024
0.0026931199 0.25943723 1.024
0.0045016832 0.26019728 1.0270001
0.0062962198 0.25994393 1.026
0.0080951396 0.25994393 1.026
0.0098844171 0.25969058 1.0250001
0.011681584 0.25969058 1.0250001
0.01347875 0.25969058 1.0250001
0.015320627 0.26045066 1.028
0.017073084 0.25969058 1.0250001
0.018870249 0.25969058 1.0250001
0.02074807 0.26070401 1.029
0.02255225 0.26070401 1.029
0.02435643 0.26070401 1.029
0.026262304 0.26171744 1.033
0.028073497 0.26171744 1.033
0.02997148 0.26247752 1.036
0.031879984 0.26323757 1.039
0.033766571 0.26374429 1.041
0.035762738 0.26501107 1.046
0.037740499 0.2660245 1.0500001
0.039694589 0.26678458 1.0530001
0.04154085 0.26678458 1.0530001
0.043469515 0.26729128 1.0550001
0.045319282 0.26729128 1.0550001
0.047347888 0.26830471 1.059
0.049158208 0.26805136 1.0580001
0.051061451 0.26830471 1.059
-0.11152164 0.27271259 1.069
-0.10923705 0.27169216 1.0650001
-0.10736975 0.27169216 1.0650001
-0.10490807 0.27016148 1.059
-0.10275936 0.26939616 1.056
-0.10062117 0.26863083 1.0530001
-0.098399699 0.2676104 1.049
-0.096008152 0.26607972 1.0430001
-0.094269723 0.26633483 1.044
-0.092085063 0.2653144 1.0400001
-0.090174809 0.26505929 1.039
-0.08809799 0.26429397 1.036
-0.086281531 0.26429397 1.036
-0.084465079 0.26429397 1.036
-0.082648627 0.26429397 1.036
-0.080598101 0.26352862 1.033
-0.07878691 0.26352862 1.033
-0.07667765 0.26250818 1.029
-0.074946232 0.26276329 1.0300001
-0.073211312 0.2630184 1.031
-0.071126595 0.26199797 1.0270001
-0.069190919 0.26148775 1.0250001
-0.06739375 0.26148775 1.0250001
-0.065468587 0.26097754 1.023
-0.0634882 0.26021221 1.0200001
-0.0616998 0.26021221 1.0200001
-0.059793927 0.25970197 1.018
-0.057895068 0.25919175 1.016
-0.056113679 0.25919175 1.016
-0.054171864 0.25842643 1.013
-0.052344013 0.25817132 1.0120001
-0.050569639 0.25817132 1.0120001
-0.048795268 0.25817132 1.0120001
-0.047020894 0.25817132 1.0120001
-0.04529123 0.25842643 1.013
-0.043558061 0.25868154 1.0140001
-0.041780181 0.25868154 1.0140001
-0.039962851 0.25842643 1.013
-0.038186722 0.25842643 1.013
-0.036446542 0.25868154 1.0140001
-0.034668658 0.25868154 1.0140001
-0.032890778 0.25868154 1.0140001
-0.031082217 0.25842643 1.013
-0.029277159 0.25817132 1.0120001
-0.027502786 0.25817132 1.0120001
-0.025728414 0.25817132 1.0120001
-0.02397771 0.25842643 1.013
-0.022223501 0.25868154 1.0140001
-0.020445621 0.25868154 1.0140001
-0.01870456 0.25919175 1.016
-0.016923172 0.25919175 1.016
-0.01515669 0.25944686 1.0170001
-0.0133867 0.25970197 1.018
-0.0116246 0.26021221 1.0200001
-0.0098361997 0.26021221 1.0200001
-0.0080477996 0.26021221 1.0200001
-0.0062655364 0.26046732 1.021
-0.0044753831 0.26046732 1.021
-0.0026931199 0.26123264 1.024
-0.00089507666 0.26046732 1.021
0.00089507666 0.26046732 1.021
0.00268523 0.26046732 1.021
0.0044885334 0.26123264 1.024
0.0062962198 0.26174286 1.026
0.0080951396 0.26174286 1.026
0.0098844171 0.26148775 1.0250001
0.011681584 0.26148775 1.0250001
0.0135182 0.26225308 1.028
0.015320627 0.26225308 1.028
0.017123053 0.26225308 1.028
0.018943889 0.26250818 1.029
0.02074807 0.26250818 1.029
0.02255225 0.26250818 1.029
0.02442744 0.26327351 1.0320001
0.026236881 0.26327351 1.0320001
0.028127849 0.26403886 1.0350001
0.03005827 0.26505929 1.039
0.031972032 0.26582462 1.0420001
0.03386388 0.26633483 1.044
0.035933688 0.26812062 1.051
0.037848331 0.26863083 1.0530001
0.039769985 0.26914105 1.0550001
0.0417381 0.26990637 1.0580001
0.043593127 0.26990637 1.0580001
0.045577023 0.2706717 1.0610001
0.04743731 0.2706717 1.0610001
0.049297597 0.2706717 1.0610001
0.051157884 0.2706717 1.0610001
-0.11371419 0.27535748 1.072
-0.11152164 0.27458692 1.069
-0.10923705 0.27355945 1.0650001
-0.10736975 0.27355945 1.0650001
-0.10490807 0.27201825 1.059
-0.10275936 0.27124768 1.056
-0.10062117 0.27047709 1.0530001
-0.098399699 0.26944962 1.049
-0.096008152 0.26790845 1.0430001
-0.094179422 0.26790845 1.0430001
-0.092085063 0.26713786 1.0400001
-0.090261601 0.26713786 1.0400001
-0.088183023 0.26636729 1.0370001
-0.086364813 0.26636729 1.0370001
-0.084546611 0.26636729 1.0370001
-0.082489073 0.26559669 1.034
-0.080598101 0.26533982 1.033
-0.078558102 0.26456922 1.0300001
-0.07667765 0.26431236 1.029
-0.074800707 0.26405549 1.028
-0.072998278 0.26405549 1.028
-0.071126595 0.26379865 1.0270001
-0.069190919 0.26328492 1.0250001
-0.06739375 0.26328492 1.0250001
-0.065468587 0.26277119 1.023
-0.0634882 0.26200059 1.0200001
-0.06151833 0.26123002 1.0170001
-0.059793927 0.26148686 1.018
-0.057895068 0.26097316 1.016
-0.056113679 0.26097316 1.016
-0.054171864 0.26020256 1.013
-0.052344013 0.25994569 1.0120001
-0.050569639 0.25994569 1.0120001
-0.048795268 0.25994569 1.0120001
-0.047020894 0.25994569 1.0120001
-0.045246519 0.25994569 1.0120001
-0.043515105 0.26020256 1.013
-0.041738976 0.26020256 1.013
-0.040002301 0.26045942 1.0140001
-0.038224421 0.26045942 1.0140001
-0.036446542 0.26045942 1.0140001
-0.034668658 0.26045942 1.0140001
-0.032890778 0.26045942 1.0140001
-0.031082217 0.26020256 1.013
-0.02930609 0.26020256 1.013
-0.027502786 0.25994569 1.0120001
-0.025728414 0.25994569 1.0120001
-0.02397771 0.26020256 1.013
-0.022223501 0.26045942 1.0140001
-0.020445621 0.26045942 1.0140001
-0.01864933 0.26020256 1.013
-0.016873203 0.26020256 1.013
-0.01515669 0.26123002 1.0170001
-0.0133867 0.26148686 1.018
-0.01159041 0.26123002 1.0170001
-0.00980727 0.26123002 1.0170001
-0.0080477996 0.26200059 1.0200001
-0.0062655364 0.26225746 1.021
-0.0044753831 0.26225746 1.021
-0.0026931199 0.26302806 1.024
-0.00089595333 0.26251432 1.0220001
0.0008942 0.26200059 1.0200001
0.00268523 0.26225746 1.021
0.0044885334 0.26302806 1.024
0.0063023567 0.26379865 1.0270001
0.0080951396 0.26354179 1.026
0.0098844171 0.26328492 1.0250001
0.011681584 0.26328492 1.0250001
0.0135182 0.26405549 1.028
0.015320627 0.26405549 1.028
0.017123053 0.26405549 1.028
0.018943889 0.26431236 1.029
0.020808561 0.26508296 1.0320001
0.022617999 0.26508296 1.0320001
0.02449845 0.26585355 1.0350001
0.02631315 0.26585355 1.0350001
0.028209379 0.26662415 1.0380001
0.03011613 0.26739472 1.041
0.031910665 0.26713786 1.0400001
0.033831444 0.26790845 1.0430001
0.035899501 0.26970649 1.0500001
0.03795616 0.27124768 1.056
0.0417381 0.27176142 1.0580001
0.045577023 0.27253199 1.0610001
0.04743731 0.27253199 1.0610001
0.049297597 0.27253199 1.0610001
0.051206101 0.27278885 1.062
-0.11591725 0.2780129 1.075
-0.11371419 0.27723706 1.072
-0.11152164 0.27646121 1.069
-0.10923705 0.27542675 1.0650001
-0.1070673 0.2746509 1.062
-0.10490807 0.27387506 1.059
-0.10275936 0.27309918 1.056
-0.10062117 0.27232334 1.0530001
-0.098399699 0.27128887 1.049
-0.096008152 0.26973718 1.0430001
-0.093908533 0.26896134 1.0400001
-0.092262156 0.26947856 1.0420001
-0.090435177 0.26947856 1.0420001
-0.088183023 0.2681855 1.0370001
-0.086364813 0.2681855 1.0370001
-0.084546611 0.2681855 1.0370001
-0.082489073 0.26740962 1.034
-0.080364034 0.26637515 1.0300001
-0.078558102 0.26637515 1.0300001
-0.07660313 0.26585793 1.028
-0.074800707 0.26585793 1.028
-0.072998278 0.26585793 1.028
-0.071126595 0.26559931 1.0270001
-0.069190919 0.26508209 1.0250001
-0.06739375 0.26508209 1.0250001
-0.065468587 0.26456484 1.023
-0.0634882 0.263789 1.0200001
-0.061578821 0.26327178 1.018
-0.059793927 0.26327178 1.018
-0.057895068 0.26275453 1.016
-0.056113679 0.26275453 1.016
-0.054171864 0.26197869 1.013
-0.052344013 0.26172006 1.0120001
-0.050569639 0.26172006 1.0120001
-0.048795268 0.26172006 1.0120001
-0.047067355 0.26197869 1.013
-0.04529123 0.26197869 1.013
-0.043515105 0.26197869 1.013
-0.041738976 0.26197869 1.013
-0.040002301 0.26223731 1.0140001
-0.038224421 0.26223731 1.0140001
-0.036482483 0.26249591 1.0150001
-0.034668658 0.26223731 1.0140001
-0.032890778 0.26223731 1.0140001
-0.031082217 0.26197869 1.013
-0.02930609 0.26197869 1.013
-0.027502786 0.26172006 1.0120001
-0.025728414 0.26172006 1.0120001
-0.023954039 0.26172006 1.0120001
-0.022201583 0.26197869 1.013
-0.020425456 0.26197869 1.013
-0.01864933 0.26197869 1.013
-0.016873203 0.26197869 1.013
-0.01515669 0.26301315 1.0170001
-0.0133867 0.26327178 1.018
-0.01159041 0.26301315 1.0170001
-0.00980727 0.26301315 1.0170001
-0.0080477996 0.263789 1.0200001
-0.0062716734 0.26430622 1.0220001
-0.0044929166 0.26508209 1.0250001
-0.00269575 0.26508209 1.0250001
-0.00089683 0.26456484 1.023
0.00089595333 0.26430622 1.0220001
0.00269575 0.26508209 1.0250001
0.0044885334 0.26482347 1.024
0.0063023567 0.26559931 1.0270001
0.0080951396 0.26534069 1.026
0.0098844171 0.26508209 1.0250001
0.011681584 0.26508209 1.0250001
0.0135182 0.26585793 1.028
0.015320627 0.26585793 1.028
0.017123053 0.26585793 1.028
0.01899912 0.2668924 1.0320001
0.020808561 0.2668924 1.0320001
0.022617999 0.2668924 1.0320001
0.02449845 0.26766825 1.0350001
0.026287727 0.26740962 1.034
0.028182203 0.2681855 1.0370001
0.030087199 0.26896134 1.0400001
0.031910665 0.26896134 1.0400001
0.033831444 0.26973718 1.0430001
0.035899501 0.2715475 1.0500001
0.037812386 0.27206475 1.052
0.04743731 0.27439228 1.0610001
0.051206101 0.2746509 1.062
-0.11791167 0.28015813 1.0760001
-0.11559376 0.27911663 1.072
-0.11371419 0.27911663 1.072
-0.11152164 0.27833554 1.069
-0.10923705 0.27729404 1.0650001
-0.1070673 0.27651295 1.062
-0.10490807 0.27573183 1.059
-0.10275936 0.27495071 1.056
-0.10062117 0.27416959 1.0530001
-0.098399699 0.27312812 1.049
-0.096008152 0.27156591 1.0430001
-0.093908533 0.2707848 1.0400001
-0.092262156 0.27130553 1.0420001
-0.090435177 0.27130553 1.0420001
-0.088183023 0.27000368 1.0370001
-0.086364813 0.27000368 1.0370001
-0.084302023 0.26922259 1.034
-0.082489073 0.26922259 1.034
-0.080364034 0.26818109 1.0300001
-0.078329287 0.2674 1.0270001
-0.07660313 0.26766035 1.028
-0.074800707 0.26766035 1.028
-0.072998278 0.26766035 1.028
-0.071126595 0.2674 1.0270001
-0.06912341 0.26661888 1.024
-0.067327999 0.26661888 1.024
-0.065468587 0.26635849 1.023
-0.0634882 0.26557741 1.0200001
-0.0616998 0.26557741 1.0200001
-0.059793927 0.26505667 1.018
-0.057895068 0.2645359 1.016
-0.056113679 0.2645359 1.016
-0.054171864 0.26375481 1.013
-0.052344013 0.26349443 1.0120001
-0.050569639 0.26349443 1.0120001
-0.048795268 0.26349443 1.0120001
-0.047113821 0.26401517 1.0140001
-0.045335941 0.26401517 1.0140001
-0.043558061 0.26401517 1.0140001
-0.041738976 0.26375481 1.013
-0.040002301 0.26401517 1.0140001
-0.038224421 0.26401517 1.0140001
-0.036482483 0.26427555 1.0150001
-0.034668658 0.26401517 1.0140001
-0.032890778 0.26401517 1.0140001
-0.031082217 0.26375481 1.013
-0.02930609 0.26375481 1.013
-0.027502786 0.26349443 1.0120001
-0.025728414 0.26349443 1.0120001
-0.023954039 0.26349443 1.0120001
-0.022201583 0.26375481 1.013
-0.020425456 0.26375481 1.013
-0.01863092 0.26349443 1.0120001
-0.016873203 0.26375481 1.013
-0.01515669 0.26479629 1.0170001
-0.01337355 0.26479629 1.0170001
-0.01159041 0.26479629 1.0170001
-0.00980727 0.26479629 1.0170001
-0.0080477996 0.26557741 1.0200001
-0.0062655364 0.26583776 1.021
-0.0044753831 0.26583776 1.021
-0.00268786 0.26609814 1.0220001
-0.00089595333 0.26609814 1.0220001
0.00089595333 0.26609814 1.0220001
0.00269575 0.26687926 1.0250001
0.0044885334 0.26661888 1.024
0.0062839468 0.26661888 1.024
0.0080951396 0.26713961 1.026
0.0098844171 0.26687926 1.0250001
0.011681584 0.26687926 1.0250001
0.0135182 0.26766035 1.028
0.015320627 0.26766035 1.028
0.017123053 0.26766035 1.028
0.01899912 0.26870185 1.0320001
0.020808561 0.26870185 1.0320001
0.022617999 0.26870185 1.0320001
0.02449845 0.26948294 1.0350001
0.026363997 0.27000368 1.0370001
0.028182203 0.27000368 1.0370001
0.030087199 0.2707848 1.0400001
0.031879984 0.27052444 1.039
0.033799008 0.27130553 1.0420001
0.035865311 0.27312812 1.049
0.037812386 0.27390924 1.052
0.039769985 0.27469036 1.0550001
-0.11791167 0.28204471 1.0760001
-0.11559376 0.2809962 1.072
-0.11371419 0.2809962 1.072
-0.11152164 0.28020984 1.069
-0.10923705 0.27916133 1.0650001
-0.1070673 0.27837497 1.062
-0.10490807 0.27758861 1.059
-0.10275936 0.27680224 1.056
-0.10062117 0.27601588 1.0530001
-0.098399699 0.27496737 1.049
-0.096008152 0.27339464 1.0430001
-0.094179422 0.27339464 1.0430001
-0.092085063 0.27260825 1.0400001
-0.090261601 0.27260825 1.0400001
-0.088012949 0.27129763 1.0350001
-0.086281531 0.27155977 1.036
-0.08413896 0.27051127 1.0320001
-0.082329519 0.27051127 1.0320001
-0.080286011 0.26972491 1.029
-0.078253016 0.26893854 1.026
-0.076528616 0.26920065 1.0270001
-0.074727945 0.26920065 1.0270001
-0.072714239 0.26841429 1.024
-0.070849568 0.26815218 1.023
-0.069055907 0.26815218 1.023
-0.067262247 0.26815218 1.023
-0.065468587 0.26815218 1.023
-0.0634882 0.26736578 1.0200001
-0.0616998 0.26736578 1.0200001
-0.05973519 0.26657942 1.0170001
-0.057895068 0.26631731 1.016
-0.05616891 0.26657942 1.0170001
-0.05438577 0.26657942 1.0170001
-0.052447461 0.26579306 1.0140001
-0.050669581 0.26579306 1.0140001
-0.048843484 0.26553094 1.013
-0.047113821 0.26579306 1.0140001
-0.045335941 0.26579306 1.0140001
-0.043515105 0.26553094 1.013
-0.041780181 0.26579306 1.0140001
-0.040002301 0.26579306 1.0140001
-0.038262118 0.2660552 1.0150001
-0.036482483 0.2660552 1.0150001
-0.034668658 0.26579306 1.0140001
-0.032890778 0.26579306 1.0140001
-0.0311129 0.26579306 1.0140001
-0.02930609 0.26553094 1.013
-0.027502786 0.2652688 1.0120001
-0.025728414 0.2652688 1.0120001
-0.023954039 0.2652688 1.0120001
-0.022179667 0.2652688 1.0120001
-0.020425456 0.26553094 1.013
-0.01870456 0.26631731 1.016
-0.016906517 0.2660552 1.0150001
-0.015141787 0.26631731 1.016
-0.0133867 0.26684156 1.018
-0.01159041 0.26657942 1.0170001
-0.00980727 0.26657942 1.0170001
-0.0080477996 0.26736578 1.0200001
-0.0062593999 0.26736578 1.0200001
-0.0044753831 0.26762792 1.021
-0.00268786 0.26789004 1.0220001
-0.00089595333 0.26789004 1.0220001
0.00089507666 0.26762792 1.021
0.00269575 0.2686764 1.0250001
0.0044885334 0.26841429 1.024
0.0062839468 0.26841429 1.024
0.0080951396 0.26893854 1.026
0.0098844171 0.2686764 1.0250001
0.011681584 0.2686764 1.0250001
0.0135182 0.26946279 1.028
0.015320627 0.26946279 1.028
0.017123053 0.26946279 1.028
0.01899912 0.27051127 1.0320001
0.020788396 0.27024916 1.031
0.022596084 0.27024916 1.031
0.024474779 0.27103552 1.034
0.026363997 0.27182189 1.0370001
0.028182203 0.27182189 1.0370001
0.030087199 0.27260825 1.0400001
0.031972032 0.2731325 1.0420001
0.033799008 0.2731325 1.0420001
0.035865311 0.27496737 1.049
0.037812386 0.27575374 1.052
0.039769985 0.2765401 1.0550001
-0.11791167 0.28393129 1.0760001
-0.11602508 0.28393129 1.0760001
-0.11371419 0.28287578 1.072
-0.11110435 0.28102866 1.0650001
-0.10923705 0.28102866 1.0650001
-0.1070673 0.28023702 1.062
-0.10490807 0.27944538 1.059
-0.10275936 0.27865377 1.056
-0.10062117 0.27786213 1.0530001
-0.098399699 0.27680662 1.049
-0.0966525 0.27707049 1.0500001
-0.094269723 0.27548724 1.044
-0.092173606 0.27469561 1.041
-0.090261601 0.27443174 1.0400001
-0.08809799 0.27337623 1.036
-0.086281531 0.27337623 1.036
-0.08413896 0.27232072 1.0320001
-0.082329519 0.27232072 1.0320001
-0.080286011 0.27152908 1.029
-0.078253016 0.27073747 1.026
-0.076454103 0.27073747 1.026
-0.074655183 0.27073747 1.026
-0.072572216 0.26968196 1.0220001
-0.070780315 0.26968196 1.0220001
-0.068988405 0.26968196 1.0220001
-0.067196503 0.26968196 1.0220001
-0.065404594 0.26968196 1.0220001
-0.063363716 0.26862645 1.018
-0.0616998 0.26915419 1.0200001
-0.059793927 0.26862645 1.018
-0.058009032 0.26862645 1.018
-0.05616891 0.26836258 1.0170001
-0.05438577 0.26836258 1.0170001
-0.052499183 0.26783481 1.0150001
-0.050669581 0.26757094 1.0140001
-0.048891701 0.26757094 1.0140001
-0.047160283 0.26783481 1.0150001
-0.045380648 0.26783481 1.0150001
-0.043601017 0.26783481 1.0150001
-0.041780181 0.26757094 1.0140001
-0.040002301 0.26757094 1.0140001
-0.038262118 0.26783481 1.0150001
-0.036482483 0.26783481 1.0150001
-0.034702849 0.26783481 1.0150001
-0.032890778 0.26757094 1.0140001
-0.0311129 0.26757094 1.0140001
-0.02930609 0.26730707 1.013
-0.027502786 0.26704317 1.0120001
-0.025728414 0.26704317 1.0120001
-0.023954039 0.26704317 1.0120001
-0.022245416 0.26783481 1.0150001
-0.020485947 0.26809868 1.016
-0.01870456 0.26809868 1.016
-0.016923172 0.26809868 1.016
-0.01515669 0.26836258 1.0170001
-0.0133867 0.26862645 1.018
-0.011601807 0.26862645 1.018
-0.0098265568 0.26889032 1.0190001
-0.0080399103 0.26889032 1.0190001
-0.00624099 0.26836258 1.0170001
-0.0044709998 0.26915419 1.0200001
-0.0026825999 0.26915419 1.0200001
-0.00089507666 0.26941806 1.021
0.00089507666 0.26941806 1.021
0.0026931199 0.2702097 1.024
0.0044885334 0.2702097 1.024
0.0062839468 0.2702097 1.024
0.0080793602 0.2702097 1.024
0.0098844171 0.27047357 1.0250001
0.011681584 0.27047357 1.0250001
0.01347875 0.27047357 1.0250001
0.015320627 0.27126521 1.028
0.017123053 0.27126521 1.028
0.01899912 0.27232072 1.0320001
0.020788396 0.27205685 1.031
0.022661833 0.27284846 1.034
0.024474779 0.27284846 1.034
0.026363997 0.2736401 1.0370001
0.028263733 0.27443174 1.0400001
0.030087199 0.27443174 1.0400001
0.031879984 0.27416787 1.039
0.033799008 0.27495947 1.0420001
0.035728551 0.27575111 1.0450001
0.037812386 0.27759826 1.052
0.039769985 0.27838987 1.0550001
-0.11791167 0.28581789 1.0760001
-0.11602508 0.28581789 1.0760001
-0.11382026 0.28502098 1.0730001
-0.11110435 0.28289595 1.0650001
-0.10923705 0.28289595 1.0650001
-0.1070673 0.28209907 1.062
-0.10490807 0.28130215 1.059
-0.10275936 0.28050527 1.056
-0.10062117 0.27970839 1.0530001
-0.098399699 0.27864587 1.049
-0.096376352 0.27811462 1.0470001
-0.094269723 0.27731773 1.044
-0.092173606 0.27652082 1.041
-0.090348393 0.27652082 1.041
-0.08809799 0.27519268 1.036
-0.086281531 0.27519268 1.036
-0.08413896 0.27413017 1.0320001
-0.082329519 0.27413017 1.0320001
-0.080286011 0.27333328 1.029
-0.078253016 0.27253637 1.026
-0.076379582 0.27227074 1.0250001
-0.074582413 0.27227074 1.0250001
-0.072501212 0.27120823 1.021
-0.070711054 0.27120823 1.021
-0.068920903 0.27120823 1.021
-0.067130752 0.27120823 1.021
-0.065340593 0.27120823 1.021
-0.063425958 0.27067697 1.0190001
-0.061760291 0.27120823 1.021
-0.059970137 0.27120823 1.021
-0.058009032 0.27041134 1.018
-0.056224141 0.27041134 1.018
-0.054439247 0.27041134 1.018
-0.052499183 0.26961446 1.0150001
-0.050719548 0.26961446 1.0150001
-0.048891701 0.26934883 1.0140001
-0.047113821 0.26934883 1.0140001
-0.045380648 0.26961446 1.0150001
-0.043601017 0.26961446 1.0150001
-0.041821383 0.26961446 1.0150001
-0.040041748 0.26961446 1.0150001
-0.038262118 0.26961446 1.0150001
-0.036482483 0.26961446 1.0150001
-0.034702849 0.26961446 1.0150001
-0.032890778 0.26934883 1.0140001
-0.0311129 0.26934883 1.0140001
-0.02930609 0.2690832 1.013
-0.027502786 0.26881754 1.0120001
-0.025728414 0.26881754 1.0120001
-0.023930369 0.26855192 1.011
-0.022179667 0.26881754 1.0120001
-0.020425456 0.2690832 1.013
-0.01870456 0.26988009 1.016
-0.016923172 0.26988009 1.016
-0.01515669 0.27014571 1.0170001
-0.0133867 0.27041134 1.018
-0.011601807 0.27041134 1.018
-0.0098265568 0.27067697 1.0190001
-0.0080399103 0.27067697 1.0190001
-0.00624099 0.27014571 1.0170001
-0.00445785 0.27014571 1.0170001
-0.00268523 0.27120823 1.021
-0.00089507666 0.27120823 1.021
0.00089507666 0.27120823 1.021
0.00268523 0.27120823 1.021
0.0044753831 0.27120823 1.021
0.0062839468 0.27200511 1.024
0.0080793602 0.27200511 1.024
0.00989406 0.27253637 1.026
0.011681584 0.27227074 1.0250001
0.01347875 0.27227074 1.0250001
0.015320627 0.27306762 1.028
0.01713971 0.27333328 1.029
0.01899912 0.27413017 1.0320001
0.020788396 0.27386454 1.031
0.022596084 0.27386454 1.031
0.024474779 0.27466142 1.034
0.026363997 0.27545831 1.0370001
0.028263733 0.27625519 1.0400001
0.030087199 0.27625519 1.0400001
0.031879984 0.27598956 1.039
0.033799008 0.27678645 1.0420001
0.035728551 0.27758336 1.0450001
0.037704557 0.27864587 1.049
0.039769985 0.28023964 1.0550001
0.0417381 0.28103653 1.0580001
-0.11824042 0.28850663 1.079
-0.11602508 0.28770447 1.0760001
-0.11350203 0.28610018 1.0700001
-0.11110435 0.28476325 1.0650001
-0.10892934 0.28396109 1.062
-0.10676485 0.28315896 1.059
-0.10461088 0.2823568 1.056
-0.10275936 0.2823568 1.056
-0.10062117 0.28155464 1.0530001
-0.098399699 0.28048512 1.049
-0.0962843 0.27968296 1.046
-0.094269723 0.27914819 1.044
-0.092173606 0.27834606 1.041
-0.090261601 0.27807868 1.0400001
-0.08809799 0.27700913 1.036
-0.086198248 0.27674174 1.0350001
-0.08413896 0.27593958 1.0320001
-0.082329519 0.27593958 1.0320001
-0.080286011 0.27513745 1.029
-0.078253016 0.27433529 1.026
-0.076379582 0.27406791 1.0250001
-0.07450965 0.27380052 1.024
-0.072501212 0.27299839 1.021
-0.070711054 0.27299839 1.021
-0.068920903 0.27299839 1.021
-0.067130752 0.27299839 1.021
-0.065340593 0.27299839 1.021
-0.063363716 0.27219623 1.018
-0.0616998 0.27273101 1.0200001
-0.0599114 0.27273101 1.0200001
-0.058009032 0.27219623 1.018
-0.056224141 0.27219623 1.018
-0.054439247 0.27219623 1.018
-0.052706078 0.27246362 1.0190001
-0.050919428 0.27246362 1.0190001
-0.048939917 0.27139407 1.0150001
-0.047206745 0.27166146 1.016
-0.045380648 0.27139407 1.0150001
-0.043601017 0.27139407 1.0150001
-0.041780181 0.27112669 1.0140001
-0.040041748 0.27139407 1.0150001
-0.038262118 0.27139407 1.0150001
-0.036482483 0.27139407 1.0150001
-0.034702849 0.27139407 1.0150001
-0.03279347 0.27032456 1.011
-0.03102085 0.27032456 1.011
-0.02933502 0.27112669 1.0140001
-0.027502786 0.27059194 1.0120001
-0.025728414 0.27059194 1.0120001
-0.0239067 0.27005717 1.01
-0.022179667 0.27059194 1.0120001
-0.020425456 0.2708593 1.013
-0.01870456 0.27166146 1.016
-0.016923172 0.27166146 1.016
-0.01515669 0.27192885 1.0170001
-0.0133867 0.27219623 1.018
-0.011601807 0.27219623 1.018
-0.0098265568 0.27246362 1.0190001
-0.0080399103 0.27246362 1.0190001
-0.00624099 0.27192885 1.0170001
-0.00445785 0.27192885 1.0170001
-0.00268523 0.27299839 1.021
-0.00089507666 0.27299839 1.021
0.00089507666 0.27299839 1.021
0.00268523 0.27299839 1.021
0.0044753831 0.27299839 1.021
0.0062655364 0.27299839 1.021
0.0080793602 0.27380052 1.024
0.0098747732 0.27380052 1.024
0.01169298 0.27433529 1.026
0.0134919 0.27433529 1.026
0.01533553 0.27513745 1.029
0.01713971 0.27513745 1.029
0.01898071 0.27567223 1.031
0.020768233 0.27540484 1.0300001
0.022574166 0.27540484 1.0300001
0.024474779 0.27647436 1.034
0.026363997 0.27727652 1.0370001
0.028236557 0.27781129 1.039
0.030087199 0.27807868 1.0400001
0.031941351 0.27834606 1.041
0.03386388 0.27914819 1.044
0.035728551 0.27941558 1.0450001
0.037704557 0.28048512 1.049
0.039656892 0.28128725 1.052
0.041619748 0.28208941 1.0550001
0.043593127 0.28289157 1.0580001
0.045448154 0.28289157 1.0580001
-0.11977458 0.29416639 1.0930001
-0.11591725 0.28932193 1.075
-0.11350203 0.28797624 1.0700001
-0.11120867 0.28689969 1.0660001
-0.10892934 0.28582314 1.062
-0.10676485 0.28501573 1.059
-0.10461088 0.28420833 1.056
-0.10285667 0.28447744 1.057
-0.10062117 0.28340092 1.0530001
-0.098399699 0.28232437 1.049
-0.096560448 0.28232437 1.049
-0.094269723 0.28097868 1.044
-0.092173606 0.28017128 1.041
-0.090174809 0.27963299 1.039
-0.08809799 0.27882558 1.036
-0.086281531 0.27882558 1.036
-0.08413896 0.27774903 1.0320001
-0.082329519 0.27774903 1.0320001
-0.080207989 0.27667248 1.028
-0.078176752 0.27586508 1.0250001
-0.076379582 0.27586508 1.0250001
-0.07450965 0.27559593 1.024
-0.072501212 0.27478853 1.021
-0.070641801 0.27451938 1.0200001
-0.068920903 0.27478853 1.021
-0.067130752 0.27478853 1.021
-0.065340593 0.27478853 1.021
-0.063363716 0.27398112 1.018
-0.061639309 0.27425027 1.0190001
-0.0599114 0.27451938 1.0200001
-0.05795205 0.27371198 1.0170001
-0.056224141 0.27398112 1.018
-0.054439247 0.27398112 1.018
-0.052706078 0.27425027 1.0190001
-0.0509694 0.27451938 1.0200001
-0.048988134 0.27344286 1.016
-0.047206745 0.27344286 1.016
-0.045425359 0.27344286 1.016
-0.043643974 0.27344286 1.016
-0.041862585 0.27344286 1.016
-0.040041748 0.27317372 1.0150001
-0.038149025 0.27236632 1.0120001
-0.036374655 0.27236632 1.0120001
-0.03460028 0.27236632 1.0120001
-0.03279347 0.27209717 1.011
-0.03102085 0.27209717 1.011
-0.02924823 0.27209717 1.011
-0.027502786 0.27236632 1.0120001
-0.025652142 0.27155888 1.0090001
-0.023835691 0.27102062 1.0070001
-0.022245416 0.27317372 1.0150001
-0.020485947 0.27344286 1.016
-0.01872297 0.27371198 1.0170001
-0.016923172 0.27344286 1.016
-0.01515669 0.27371198 1.0170001
-0.0133867 0.27398112 1.018
-0.011601807 0.27398112 1.018
-0.0098361997 0.27451938 1.0200001
-0.0080477996 0.27451938 1.0200001
-0.0062471265 0.27398112 1.018
-0.0044622333 0.27398112 1.018
-0.00268786 0.27505767 1.0220001
-0.00089595333 0.27505767 1.0220001
0.00089507666 0.27478853 1.021
0.00268523 0.27478853 1.021
0.0044753831 0.27478853 1.021
0.0062655364 0.27478853 1.021
0.0080793602 0.27559593 1.024
0.0098747732 0.27559593 1.024
0.011704377 0.27640337 1.0270001
0.01350505 0.27640337 1.0270001
0.015350433 0.27721077 1.0300001
0.01713971 0.27694163 1.029
0.018943889 0.27694163 1.029
0.020788396 0.27747989 1.031
0.022574166 0.27721077 1.0300001
0.02442744 0.27774903 1.0320001
0.02631315 0.27855644 1.0350001
0.028182203 0.27909473 1.0370001
0.030087199 0.27990213 1.0400001
0.031941351 0.28017128 1.041
0.03386388 0.28097868 1.044
0.035762738 0.28151694 1.046
0.037740499 0.28259349 1.0500001
0.039656892 0.28313178 1.052
0.041619748 0.28393918 1.0550001
0.043469515 0.28393918 1.0550001
0.045319282 0.28393918 1.0550001
0.047169048 0.28393918 1.0550001
-0.11977458 0.29608276 1.0930001
-0.11731904 0.29472831 1.0880001
-0.11328988 0.28931051 1.0680001
-0.11100002 0.28822696 1.064
-0.10882677 0.28741428 1.0610001
-0.10666403 0.28660163 1.0580001
-0.10451181 0.28578895 1.0550001
-0.10237012 0.28497627 1.052
-0.10043006 0.2847054 1.051
-0.098681107 0.28497627 1.052
-0.096468396 0.28389272 1.0480001
-0.093998827 0.28199649 1.041
-0.091907978 0.28118381 1.0380001
-0.090174809 0.28145471 1.039
-0.08809799 0.28064203 1.036
-0.086281531 0.28064203 1.036
-0.084220491 0.27982938 1.033
-0.082329519 0.27955848 1.0320001
-0.080207989 0.27847493 1.028
-0.078176752 0.27766225 1.0250001
-0.076379582 0.27766225 1.0250001
-0.07450965 0.27739134 1.024
-0.072501212 0.27657869 1.021
-0.070711054 0.27657869 1.021
-0.068853401 0.27630779 1.0200001
-0.067065001 0.27630779 1.0200001
-0.0652766 0.27630779 1.0200001
-0.063550442 0.27657869 1.021
-0.061639309 0.27603692 1.0190001
-0.0599114 0.27630779 1.0200001
-0.058123 0.27630779 1.0200001
-0.056445058 0.27684957 1.0220001
-0.054439247 0.27576602 1.018
-0.0527578 0.27630779 1.0200001
-0.0509694 0.27630779 1.0200001
-0.048988134 0.27522424 1.016
-0.047206745 0.27522424 1.016
-0.045425359 0.27522424 1.016
-0.043643974 0.27522424 1.016
-0.041862585 0.27522424 1.016
-0.040041748 0.27495334 1.0150001
-0.038149025 0.27414069 1.0120001
-0.036374655 0.27414069 1.0120001
-0.03456609 0.27386978 1.011
-0.032761034 0.27359891 1.01
-0.030990167 0.27359891 1.01
-0.0292193 0.27359891 1.01
-0.027502786 0.27414069 1.0120001
-0.025652142 0.27332801 1.0090001
-0.023859359 0.27305713 1.008
-0.02228925 0.27549514 1.0170001
-0.02050611 0.27549514 1.0170001
-0.01872297 0.27549514 1.0170001
-0.01693983 0.27549514 1.0170001
-0.015171593 0.27576602 1.018
-0.013413 0.27630779 1.0200001
-0.0116246 0.27630779 1.0200001
-0.0098361997 0.27630779 1.0200001
-0.0080477996 0.27630779 1.0200001
-0.0062471265 0.27576602 1.018
-0.0044622333 0.27576602 1.018
-0.00268786 0.27684957 1.0220001
-0.00089595333 0.27684957 1.0220001
0.00089507666 0.27657869 1.021
0.00268523 0.27657869 1.021
0.0044753831 0.27657869 1.021
0.0062655364 0.27657869 1.021
0.0080793602 0.27739134 1.024
0.0098844171 0.27766225 1.0250001
0.011715773 0.27847493 1.028
0.01350505 0.27820402 1.0270001
0.015365337 0.27928758 1.031
0.017156366 0.2790167 1.0300001
0.018943889 0.2787458 1.029
0.020727906 0.27847493 1.028
0.022508416 0.27820402 1.0270001
0.02442744 0.27955848 1.0320001
0.026236881 0.27955848 1.0320001
0.028209379 0.28118381 1.0380001
0.03011613 0.28199649 1.041
0.031972032 0.28226739 1.0420001
0.033896316 0.28308004 1.0450001
0.035796929 0.28362182 1.0470001
0.037740499 0.2844345 1.0500001
0.039694589 0.28524718 1.0530001
0.041659199 0.28605983 1.056
0.043469515 0.28578895 1.0550001
0.045319282 0.28578895 1.0550001
0.047169048 0.28578895 1.0550001
-0.119665 0.29772651 1.092
-0.11731904 0.29663596 1.0880001
-0.11328988 0.29118308 1.0680001
-0.11100002 0.2900925 1.064
-0.10882677 0.28927457 1.0610001
-0.10666403 0.28845665 1.0580001
-0.10451181 0.28763872 1.0550001
-0.10237012 0.2868208 1.052
-0.10052561 0.2868208 1.052
-0.098681107 0.2868208 1.052
-0.096468396 0.28573021 1.0480001
-0.093998827 0.2838217 1.041
-0.091907978 0.28300378 1.0380001
-0.090088017 0.28300378 1.0380001
-0.088012949 0.28218585 1.0350001
-0.086198248 0.28218585 1.0350001
-0.08413896 0.28136793 1.0320001
-0.082249746 0.28109527 1.031
-0.080207989 0.28027734 1.028
-0.078176752 0.27945942 1.0250001
-0.076305069 0.27918679 1.024
-0.07450965 0.27918679 1.024
-0.072501212 0.27836883 1.021
-0.070711054 0.27836883 1.021
-0.068853401 0.2780962 1.0200001
-0.067065001 0.2780962 1.0200001
-0.065340593 0.27836883 1.021
-0.063550442 0.27836883 1.021
-0.061639309 0.27782357 1.0190001
-0.059970137 0.27836883 1.021
-0.058009032 0.27755091 1.018
-0.056224141 0.27755091 1.018
-0.054599676 0.27836883 1.021
-0.052809522 0.27836883 1.021
-0.051019371 0.27836883 1.021
-0.04903635 0.27727827 1.0170001
-0.04725321 0.27727827 1.0170001
-0.045425359 0.27700561 1.016
-0.043515105 0.27618769 1.013
-0.041738976 0.27618769 1.013
-0.039962851 0.27618769 1.013
-0.038111329 0.2756424 1.011
-0.036338709 0.2756424 1.011
-0.03456609 0.2756424 1.011
-0.032761034 0.27536976 1.01
-0.030990167 0.27536976 1.01
-0.029190369 0.27509713 1.0090001
-0.027421257 0.27509713 1.0090001
-0.025652142 0.27509713 1.0090001
-0.0239067 0.27536976 1.01
-0.02228925 0.27727827 1.0170001
-0.02050611 0.27727827 1.0170001
-0.01872297 0.27727827 1.0170001
-0.01693983 0.27727827 1.0170001
-0.015186497 0.27782357 1.0190001
-0.01342615 0.27836883 1.021
-0.0116246 0.2780962 1.0200001
-0.0098361997 0.2780962 1.0200001
-0.0080477996 0.2780962 1.0200001
-0.0062471265 0.27755091 1.018
-0.0044622333 0.27755091 1.018
-0.0026773401 0.27755091 1.018
-0.00089507666 0.27836883 1.021
0.00089507666 0.27836883 1.021
0.00268523 0.27836883 1.021
0.0044753831 0.27836883 1.021
0.0062655364 0.27836883 1.021
0.0080793602 0.27918679 1.024
0.0098844171 0.27945942 1.0250001
0.011715773 0.28027734 1.028
0.01350505 0.28000471 1.0270001
0.015365337 0.28109527 1.031
0.017156366 0.28082263 1.0300001
0.018962299 0.28082263 1.0300001
0.02074807 0.28055 1.029
0.02255225 0.28055 1.029
0.024451111 0.28164056 1.033
0.026262304 0.28164056 1.033
0.028236557 0.28327641 1.039
0.03005827 0.28327641 1.039
0.031972032 0.28409436 1.0420001
0.033896316 0.28491229 1.0450001
0.035796929 0.28545758 1.0470001
0.037776444 0.28654814 1.051
0.039694589 0.28709343 1.0530001
0.041659199 0.28791136 1.056
0.043304704 0.28654814 1.051
0.045190413 0.2868208 1.052
0.046990208 0.28654814 1.051
-0.119665 0.29964116 1.092
-0.11731904 0.29854357 1.0880001
-0.11328988 0.29305562 1.0680001
-0.11100002 0.29195806 1.064
-0.10882677 0.29113486 1.0610001
-0.10666403 0.29031166 1.0580001
-0.10451181 0.28948849 1.0550001
-0.10237012 0.28866529 1.052
-0.10043006 0.2883909 1.051
-0.098212086 0.28729331 1.0470001
-0.096376352 0.28729331 1.0470001
-0.093908533 0.28537253 1.0400001
-0.091819435 0.28454936 1.0370001
-0.090088017 0.28482375 1.0380001
-0.088012949 0.28400055 1.0350001
-0.086114965 0.28372616 1.034
-0.084057428 0.28290296 1.031
-0.082010411 0.28207979 1.028
-0.080207989 0.28207979 1.028
-0.078176752 0.28125659 1.0250001
-0.076379582 0.28125659 1.0250001
-0.07450965 0.2809822 1.024
-0.072501212 0.280159 1.021
-0.070711054 0.280159 1.021
-0.068920903 0.280159 1.021
-0.067130752 0.280159 1.021
-0.065340593 0.280159 1.021
-0.063363716 0.2793358 1.018
-0.061639309 0.27961019 1.0190001
-0.060028873 0.28043339 1.0220001
-0.058009032 0.2793358 1.018
-0.056279369 0.27961019 1.0190001
-0.054492723 0.27961019 1.0190001
-0.052809522 0.280159 1.021
-0.051019371 0.280159 1.021
-0.04903635 0.27906141 1.0170001
-0.04725321 0.27906141 1.0170001
-0.045425359 0.27878702 1.016
-0.043515105 0.27796382 1.013
-0.041738976 0.27796382 1.013
-0.0399234 0.27768943 1.0120001
-0.038111329 0.27741504 1.011
-0.036338709 0.27741504 1.011
-0.03456609 0.27741504 1.011
-0.032761034 0.27714062 1.01
-0.030959483 0.27686623 1.0090001
-0.029190369 0.27686623 1.0090001
-0.027421257 0.27686623 1.0090001
-0.025626719 0.27659184 1.008
-0.0239067 0.27714062 1.01
-0.022223501 0.27823821 1.0140001
-0.020445621 0.27823821 1.0140001
-0.01874138 0.2793358 1.018
-0.016956486 0.2793358 1.018
-0.015186497 0.27961019 1.0190001
-0.013413 0.27988461 1.0200001
-0.0116246 0.27988461 1.0200001
-0.0098361997 0.27988461 1.0200001
-0.0080477996 0.27988461 1.0200001
-0.0062532634 0.27961019 1.0190001
-0.0044666165 0.27961019 1.0190001
-0.0026773401 0.2793358 1.018
-0.00089595333 0.28043339 1.0220001
0.00089507666 0.280159 1.021
0.00268523 0.280159 1.021
0.0044753831 0.280159 1.021
0.0062655364 0.280159 1.021
0.0080793602 0.2809822 1.024
0.0098747732 0.2809822 1.024
0.011704377 0.28180537 1.0270001
0.01350505 0.28180537 1.0270001
0.015350433 0.28262857 1.0300001
0.01713971 0.28235418 1.029
0.018943889 0.28235418 1.029
0.02074807 0.28235418 1.029
0.02255225 0.28235418 1.029
0.02442744 0.28317735 1.0320001
0.026262304 0.28345177 1.033
0.028209379 0.28482375 1.0380001
0.03005827 0.28509814 1.039
0.031972032 0.28592134 1.0420001
0.033896316 0.28674451 1.0450001
0.035796929 0.28729331 1.0470001
0.037776444 0.2883909 1.051
0.039694589 0.28893968 1.0530001
0.04154085 0.28893968 1.0530001
0.043345906 0.28866529 1.052
0.045061544 0.28784209 1.049
0.04690079 0.28784209 1.049
-0.11955541 0.30127963 1.0910001
-0.11731904 0.30045119 1.0880001
-0.11328988 0.29492819 1.0680001
-0.11100002 0.2938236 1.064
-0.10882677 0.29299515 1.0610001
-0.10666403 0.29216671 1.0580001
-0.10451181 0.29133824 1.0550001
-0.10237012 0.29050979 1.052
-0.10043006 0.29023364 1.051
-0.098118283 0.2888529 1.046
-0.096008152 0.28802446 1.0430001
-0.093908533 0.28719601 1.0400001
-0.091819435 0.28636754 1.0370001
-0.090001233 0.28636754 1.0370001
-0.087927915 0.28553909 1.034
-0.086114965 0.28553909 1.034
-0.084057428 0.28471065 1.031
-0.082010411 0.2838822 1.028
-0.080207989 0.2838822 1.028
-0.078176752 0.28305376 1.0250001
-0.076379582 0.28305376 1.0250001
-0.074364126 0.28222531 1.0220001
-0.072572216 0.28222531 1.0220001
-0.070780315 0.28222531 1.0220001
-0.068920903 0.28194916 1.021
-0.067130752 0.28194916 1.021
-0.065340593 0.28194916 1.021
-0.063363716 0.28112069 1.018
-0.061578821 0.28112069 1.018
-0.059793927 0.28112069 1.018
-0.058009032 0.28112069 1.018
-0.056389831 0.28194916 1.021
-0.054599676 0.28194916 1.021
-0.052654352 0.28112069 1.018
-0.050869461 0.28112069 1.018
-0.04903635 0.28084454 1.0170001
-0.04725321 0.28084454 1.0170001
-0.04529123 0.27973995 1.013
-0.043515105 0.27973995 1.013
-0.041738976 0.27973995 1.013
-0.0399234 0.2794638 1.0120001
-0.038111329 0.27918765 1.011
-0.036338709 0.27918765 1.011
-0.034531899 0.2789115 1.01
-0.032761034 0.2789115 1.01
-0.030959483 0.27863535 1.0090001
-0.029190369 0.27863535 1.0090001
-0.027421257 0.27863535 1.0090001
-0.025626719 0.2783592 1.008
-0.0239067 0.2789115 1.01
-0.022223501 0.28001609 1.0140001
-0.020425456 0.27973995 1.013
-0.01874138 0.28112069 1.018
-0.016956486 0.28112069 1.018
-0.015186497 0.28139684 1.0190001
-0.013413 0.28167298 1.0200001
-0.0116246 0.28167298 1.0200001
-0.0098265568 0.28139684 1.0190001
-0.0080399103 0.28139684 1.0190001
-0.0062532634 0.28139684 1.0190001
-0.0044666165 0.28139684 1.0190001
-0.0026773401 0.28112069 1.018
-0.00089595333 0.28222531 1.0220001
0.00089507666 0.28194916 1.021
0.00268523 0.28194916 1.021
0.0044753831 0.28194916 1.021
0.0062655364 0.28194916 1.021
0.0080793602 0.28277761 1.024
0.0098747732 0.28277761 1.024
0.01169298 0.2833299 1.026
0.0134919 0.2833299 1.026
0.01533553 0.28415835 1.029
0.01713971 0.28415835 1.029
0.018943889 0.28415835 1.029
0.02074807 0.28415835 1.029
0.02255225 0.28415835 1.029
0.02442744 0.28498679 1.0320001
0.026236881 0.28498679 1.0320001
0.028209379 0.28664368 1.0380001
0.03005827 0.28691986 1.039
0.031972032 0.28774831 1.0420001
0.033896316 0.28857675 1.0450001
0.035796929 0.28912905 1.0470001
0.037776444 0.29023364 1.051
0.039732285 0.29106209 1.054
0.04154085 0.29078594 1.0530001
0.043387111 0.29078594 1.0530001
0.0451045 0.28995749 1.0500001
0.04690079 0.28968135 1.049
-0.12146831 0.30319253 1.0910001
-0.11911708 0.30208093 1.087
-0.11721121 0.30208093 1.087
-0.11424457 0.29930189 1.077
-0.11100002 0.29568914 1.064
-0.1087242 0.29457754 1.0600001
-0.10656322 0.29374382 1.057
-0.10441275 0.2929101 1.054
-0.10227281 0.29207641 1.051
-0.10004783 0.29096478 1.0470001
-0.098212086 0.29096478 1.0470001
-0.095731996 0.28901947 1.0400001
-0.093908533 0.28901947 1.0400001
-0.091907978 0.28846365 1.0380001
-0.090088017 0.28846365 1.0380001
-0.08809799 0.28790784 1.036
-0.086114965 0.28735206 1.034
-0.083975896 0.28624043 1.0300001
-0.082010411 0.28568462 1.028
-0.080207989 0.28568462 1.028
-0.078176752 0.28485093 1.0250001
-0.076454103 0.28512883 1.026
-0.074436888 0.28429511 1.023
-0.072643228 0.28429511 1.023
-0.070780315 0.28401721 1.0220001
-0.068920903 0.2837393 1.021
-0.067130752 0.2837393 1.021
-0.0652126 0.28318349 1.0190001
-0.0634882 0.28346139 1.0200001
-0.061578821 0.28290558 1.018
-0.059793927 0.28290558 1.018
-0.057838082 0.28207189 1.0150001
-0.056224141 0.28290558 1.018
-0.054599676 0.2837393 1.021
-0.052654352 0.28290558 1.018
-0.050869461 0.28290558 1.018
-0.049084567 0.28290558 1.018
-0.04725321 0.2826277 1.0170001
-0.04529123 0.28151608 1.013
-0.043515105 0.28151608 1.013
-0.041738976 0.28151608 1.013
-0.0399234 0.28123817 1.0120001
-0.038073633 0.28068236 1.01
-0.036302768 0.28068236 1.01
-0.034531899 0.28068236 1.01
-0.032728598 0.28040445 1.0090001
-0.030959483 0.28040445 1.0090001
-0.029190369 0.28040445 1.0090001
-0.027421257 0.28040445 1.0090001
-0.025652142 0.28040445 1.0090001
-0.0239067 0.28068236 1.01
-0.022223501 0.28179398 1.0140001
-0.020425456 0.28151608 1.013
-0.01872297 0.2826277 1.0170001
-0.016906517 0.28207189 1.0150001
-0.015141787 0.2823498 1.016
-0.01337355 0.2826277 1.0170001
-0.0116246 0.28346139 1.0200001
-0.0098265568 0.28318349 1.0190001
-0.0080399103 0.28318349 1.0190001
-0.0062532634 0.28318349 1.0190001
-0.0044666165 0.28318349 1.0190001
-0.0026773401 0.28290558 1.018
-0.00089244667 0.28290558 1.018
0.00089244667 0.28290558 1.018
0.00268523 0.2837393 1.021
0.0044753831 0.2837393 1.021
0.0062593999 0.28346139 1.0200001
0.0080714701 0.28429511 1.023
0.0098747732 0.28457302 1.024
0.011704377 0.28540671 1.0270001
0.01350505 0.28540671 1.0270001
0.015305723 0.28540671 1.0270001
0.017156366 0.28624043 1.0300001
0.018943889 0.28596252 1.029
0.02074807 0.28596252 1.029
0.02255225 0.28596252 1.029
0.02442744 0.28679624 1.0320001
0.026236881 0.28679624 1.0320001
0.028209379 0.28846365 1.0380001
0.03005827 0.28874156 1.039
0.031972032 0.28957528 1.0420001
0.033896316 0.29040897 1.0450001
0.035796929 0.29096478 1.0470001
0.037812386 0.29235432 1.052
0.039732285 0.2929101 1.054
0.04154085 0.29263222 1.0530001
0.043263499 0.2917985 1.0500001
0.0451045 0.2917985 1.0500001
0.04690079 0.2915206 1.049
-0.12091162 0.30370715 1.0860001
-0.11911708 0.30398679 1.087
-0.11688772 0.30314782 1.0840001
-0.11424457 0.30119023 1.077
-0.11141732 0.29867333 1.0680001
-0.10903191 0.29727504 1.0630001
-0.10656322 0.29559711 1.057
-0.10451181 0.29503778 1.0550001
-0.10237012 0.29419881 1.052
-0.10004783 0.29280052 1.0470001
-0.098212086 0.29280052 1.0470001
-0.095824048 0.29112259 1.041
-0.093727939 0.29028362 1.0380001
-0.091907978 0.29028362 1.0380001
-0.090174809 0.29056329 1.039
-0.08809799 0.28972429 1.036
-0.0859484 0.28860569 1.0320001
-0.083731309 0.28720739 1.0270001
-0.082010411 0.28748706 1.028
-0.079973914 0.28664809 1.0250001
-0.078253016 0.28692773 1.026
-0.076454103 0.28692773 1.026
-0.074436888 0.28608876 1.023
-0.072714239 0.28636843 1.024
-0.070918828 0.28636843 1.024
-0.068988405 0.2858091 1.0220001
-0.066999249 0.28497013 1.0190001
-0.065340593 0.28552946 1.021
-0.063363716 0.2846905 1.018
-0.061578821 0.2846905 1.018
-0.0599114 0.2852498 1.0200001
-0.05795205 0.28441083 1.0170001
-0.056224141 0.2846905 1.018
-0.054439247 0.2846905 1.018
-0.052654352 0.2846905 1.018
-0.050869461 0.2846905 1.018
-0.04903635 0.28441083 1.0170001
-0.047067355 0.2832922 1.013
-0.04529123 0.2832922 1.013
-0.043515105 0.2832922 1.013
-0.041738976 0.2832922 1.013
-0.039883949 0.28273287 1.011
-0.038073633 0.28245324 1.01
-0.036302768 0.28245324 1.01
-0.034497708 0.28217357 1.0090001
-0.032728598 0.28217357 1.0090001
-0.030959483 0.28217357 1.0090001
-0.029190369 0.28217357 1.0090001
-0.027421257 0.28217357 1.0090001
-0.025652142 0.28217357 1.0090001
-0.0239067 0.28245324 1.01
-0.022223501 0.28357187 1.0140001
-0.020445621 0.28357187 1.0140001
-0.018686149 0.2838515 1.0150001
-0.016906517 0.2838515 1.0150001
-0.015141787 0.28413117 1.016
-0.01337355 0.28441083 1.0170001
-0.0116246 0.2852498 1.0200001
-0.0098265568 0.28497013 1.0190001
-0.0080399103 0.28497013 1.0190001
-0.0062532634 0.28497013 1.0190001
-0.0044666165 0.28497013 1.0190001
-0.0026773401 0.2846905 1.018
-0.00089244667 0.2846905 1.018
0.00089244667 0.2846905 1.018
0.00268523 0.28552946 1.021
0.0044753831 0.28552946 1.021
0.0062593999 0.2852498 1.0200001
0.0080714701 0.28608876 1.023
0.0098747732 0.28636843 1.024
0.011704377 0.28720739 1.0270001
0.01350505 0.28720739 1.0270001
0.015305723 0.28720739 1.0270001
0.017156366 0.28804636 1.0300001
0.018943889 0.2877667 1.029
0.020808561 0.28860569 1.0320001
0.022617999 0.28860569 1.0320001
0.02442744 0.28860569 1.0320001
0.02631315 0.28944466 1.0350001
0.028209379 0.29028362 1.0380001
0.03005827 0.29056329 1.039
0.031972032 0.29140225 1.0420001
0.033896316 0.29224122 1.0450001
0.035694361 0.29196155 1.044
0.037776444 0.29391915 1.051
0.039732285 0.29475811 1.054
0.04154085 0.29447848 1.0530001
