# .PCD v0.7 - Point Cloud Data file format
VERSION 0.7
FIELDS x y z
SIZE 4 4 4
TYPE F F F
COUNT 1 1 1
WIDTH 1518
HEIGHT 1
VIEWPOINT 0 0 0 1 0 0 0
POINTS 1518
DATA ascii
-0.70605767 0.37436911 1.391
-0.70311296 0.37409997 1.3900001
-0.70067585 0.37409997 1.3900001
-0.69773638 0.37383083 1.3890001
-0.69480044 0.37356168 1.388
-0.69087029 0.37275428 1.3850001
-0.68019867 0.37356168 1.388
-0.67483521 0.37194687 1.3820001
-0.6724121 0.37194687 1.3820001
-0.66998899 0.37194687 1.3820001
-0.66804892 0.37221602 1.383
-0.66562408 0.37221602 1.383
-0.66319919 0.37221602 1.383
-0.65981877 0.37167773 1.381
-0.66025358 0.37329257 1.3870001
-0.65829599 0.37356168 1.388
-0.658225 0.37490737 1.393
-0.65531182 0.37463823 1.3920001
-0.65287119 0.37463823 1.3920001
-0.6508978 0.37490737 1.393
-0.64892095 0.37517652 1.3940001
-0.64925933 0.37679133 1.4000001
-0.64957666 0.37840614 1.406
-0.64711148 0.37840614 1.406
-0.64189535 0.37679133 1.4000001
-0.63944066 0.37679133 1.4000001
-0.636531 0.37652218 1.399
-0.63453132 0.37679133 1.4000001
-0.63433409 0.37813702 1.4050001
-0.62872255 0.37625307 1.3980001
-0.62627137 0.37625307 1.3980001
-0.61462659 0.37813702 1.4050001
-0.61172748 0.37786788 1.404
-0.6083979 0.37732962 1.4020001
-0.60810071 0.37867528 1.4070001
-0.60477287 0.37813702 1.4050001
-0.60016602 0.37679133 1.4000001
-0.59771132 0.37679133 1.4000001
-0.59525669 0.37679133 1.4000001
-0.59322542 0.37706047 1.401
-0.59076899 0.37706047 1.401
-0.5853731 0.37517652 1.3940001
-0.58292896 0.37517652 1.3940001
-0.58298331 0.37679133 1.4000001
-0.57969934 0.37625307 1.3980001
-0.57724816 0.37625307 1.3980001
-0.57479703 0.37625307 1.3980001
-0.57234585 0.37625307 1.3980001
-0.56948704 0.37598392 1.3970001
-0.56784946 0.37652218 1.399
-0.56499237 0.37625307 1.3980001
-0.56294358 0.37652218 1.399
-0.56049067 0.37652218 1.399
-0.55763888 0.37625307 1.3980001
-0.55518776 0.37625307 1.3980001
-0.55273658 0.37625307 1.3980001
-0.5502854 0.37625307 1.3980001
-0.54783428 0.37625307 1.3980001
-0.5453831 0.37625307 1.3980001
-0.54293191 0.37625307 1.3980001
-0.54048079 0.37625307 1.3980001
-0.53802961 0.37625307 1.3980001
-0.53557843 0.37625307 1.3980001
-0.53465271 0.37732962 1.4020001
-0.53447211 0.37894443 1.4080001
-0.5320034 0.37894443 1.4080001
-0.5295347 0.37894443 1.4080001
-0.52706605 0.37894443 1.4080001
-0.52459735 0.37894443 1.4080001
-0.52175778 0.37867528 1.4070001
-0.51965994 0.37894443 1.4080001
-0.51719123 0.37894443 1.4080001
-0.51472259 0.37894443 1.4080001
-0.51298147 0.37948269 1.4100001
-0.50761276 0.37732962 1.4020001
-0.50551492 0.37759873 1.4030001
-0.50305498 0.37759873 1.4030001
-0.50059509 0.37759873 1.4030001
-0.49778008 0.37732962 1.4020001
-0.49602851 0.37786788 1.404
-0.49321529 0.37759873 1.4030001
-0.49075538 0.37759873 1.4030001
-0.48759937 0.37706047 1.401
-0.48479667 0.37679133 1.4000001
-0.48268652 0.37706047 1.401
-0.47851622 0.37571478 1.396
-0.47538653 0.37517652 1.3940001
-0.47260311 0.37490737 1.393
-0.47184831 0.37625307 1.3980001
-0.4885155 0.40424326 1.5020001
-0.48555848 0.40397415 1.501
-0.48292673 0.40397415 1.501
-0.47997499 0.403705 1.5000001
-0.47766322 0.40397415 1.501
-0.56649321 0.48175463 1.7900001
-0.5636695 0.48202378 1.7910001
-0.5611552 0.48256204 1.7930001
-0.73585296 0.37707889 1.3920001
-0.73446608 0.37762067 1.3940001
-0.72939628 0.37626621 1.3890001
-0.72800767 0.37680799 1.391
-0.72556877 0.37680799 1.391
-0.72312987 0.37680799 1.391
-0.72069103 0.37680799 1.391
-0.71825212 0.37680799 1.391
-0.71581322 0.37680799 1.391
-0.71337432 0.37680799 1.391
-0.71400201 0.37843332 1.3970001
-0.71155262 0.37843332 1.3970001
-0.70605767 0.37680799 1.391
-0.70311296 0.37653708 1.3900001
-0.70017177 0.37626621 1.3890001
-0.70075035 0.37789154 1.3950001
-0.69480044 0.37599531 1.388
-0.69186795 0.37572443 1.3870001
-0.69142437 0.37680799 1.391
-0.68755037 0.37870422 1.3980001
-0.68019867 0.37599531 1.388
-0.67776501 0.37599531 1.388
-0.67533141 0.37599531 1.388
-0.67338258 0.37626621 1.3890001
-0.67143023 0.37653708 1.3900001
-0.66851181 0.37626621 1.3890001
-0.66319919 0.37464088 1.383
-0.66077435 0.37464088 1.383
-0.66025358 0.37572443 1.3870001
-0.65877026 0.37626621 1.3890001
-0.65869755 0.37762067 1.3940001
-0.6562534 0.37762067 1.3940001
-0.65287119 0.37707889 1.3920001
-0.6513651 0.37762067 1.3940001
-0.64938647 0.37789154 1.3950001
-0.64925933 0.379246 1.4000001
-0.64680469 0.379246 1.4000001
-0.64434999 0.379246 1.4000001
-0.64189535 0.379246 1.4000001
-0.63989741 0.3795169 1.401
-0.63744098 0.3795169 1.401
-0.63498455 0.3795169 1.401
-0.63162518 0.37897509 1.399
-0.62917227 0.37897509 1.399
-0.62671936 0.37897509 1.399
-0.62426645 0.37897509 1.399
-0.62181354 0.37897509 1.399
-0.61602575 0.37843332 1.3970001
-0.61401558 0.37870422 1.3980001
-0.6120019 0.37897509 1.399
-0.60954899 0.37897509 1.399
-0.6083979 0.37978777 1.4020001
-0.60593975 0.37978777 1.4020001
-0.60305113 0.3795169 1.401
-0.6005947 0.3795169 1.401
-0.59771132 0.379246 1.4000001
-0.59525669 0.379246 1.4000001
-0.59364885 0.37978777 1.4020001
-0.58823895 0.37789154 1.3950001
-0.5853731 0.37762067 1.3940001
-0.58292896 0.37762067 1.3940001
-0.58048481 0.37762067 1.3940001
-0.57762599 0.37734976 1.393
-0.57724816 0.37870422 1.3980001
-0.57479703 0.37870422 1.3980001
-0.57234585 0.37870422 1.3980001
-0.56948704 0.37843332 1.3970001
-0.56703764 0.37843332 1.3970001
-0.56458825 0.37843332 1.3970001
-0.56254119 0.37870422 1.3980001
-0.56009007 0.37870422 1.3980001
-0.55763888 0.37870422 1.3980001
-0.55518776 0.37870422 1.3980001
-0.55273658 0.37870422 1.3980001
-0.5502854 0.37870422 1.3980001
-0.54744238 0.37843332 1.3970001
-0.5453831 0.37870422 1.3980001
-0.54293191 0.37870422 1.3980001
-0.54048079 0.37870422 1.3980001
-0.53802961 0.37870422 1.3980001
-0.53557843 0.37870422 1.3980001
-0.53465271 0.37978777 1.4020001
-0.53447211 0.38141313 1.4080001
-0.52973634 0.37978777 1.4020001
-0.52690208 0.3795169 1.401
-0.52407134 0.379246 1.4000001
-0.52422476 0.38114223 1.4070001
-0.52175778 0.38114223 1.4070001
-0.51965994 0.38141313 1.4080001
-0.51719123 0.38141313 1.4080001
-0.51472259 0.38141313 1.4080001
-0.51298147 0.38195491 1.4100001
-0.50797486 0.38005868 1.4030001
-0.50551492 0.38005868 1.4030001
-0.50305498 0.38005868 1.4030001
-0.50059509 0.38005868 1.4030001
-0.49778008 0.37978777 1.4020001
-0.49602851 0.38032955 1.404
-0.49321529 0.38005868 1.4030001
-0.49040559 0.37978777 1.4020001
-0.48759937 0.3795169 1.401
-0.48479667 0.379246 1.4000001
-0.48268652 0.3795169 1.401
-0.47851622 0.37816244 1.396
-0.47334039 0.37599531 1.388
-0.47056749 0.37572443 1.3870001
-0.46813563 0.37572443 1.3870001
-0.48951399 0.40552232 1.4970001
-0.48819023 0.4066059 1.501
-0.48555848 0.4066059 1.501
-0.48292673 0.4066059 1.501
-0.47965503 0.40606409 1.4990001
-0.47702676 0.40606409 1.4990001
-0.47249967 0.40443876 1.493
-0.47019666 0.40470967 1.4940001
-0.73532432 0.37924686 1.391
-0.73446608 0.38006482 1.3940001
-0.72939628 0.3787016 1.3890001
-0.72853106 0.37951952 1.3920001
-0.72609037 0.37951952 1.3920001
-0.72312987 0.37924686 1.391
-0.72069103 0.37924686 1.391
-0.71825212 0.37924686 1.391
-0.71581322 0.37924686 1.391
-0.71337432 0.37924686 1.391
-0.71349096 0.38061008 1.396
-0.7100246 0.38006482 1.3940001
-0.70504248 0.3787016 1.3890001
-0.70260715 0.3787016 1.3890001
-0.70269215 0.38006482 1.3940001
-0.700248 0.38006482 1.3940001
-0.6973033 0.37979215 1.393
-0.69336444 0.37897423 1.3900001
-0.69142437 0.37924686 1.391
-0.68948078 0.37951952 1.3920001
-0.68705857 0.38088274 1.3970001
-0.68215889 0.37951952 1.3920001
-0.67971826 0.37951952 1.3920001
-0.67776412 0.37979215 1.393
-0.67580652 0.38006482 1.3940001
-0.67143023 0.37897423 1.3900001
-0.66851181 0.3787016 1.3890001
-0.66319919 0.37706572 1.383
-0.66077435 0.37706572 1.383
-0.66025358 0.3781563 1.3870001
-0.65877026 0.3787016 1.3890001
-0.65633488 0.3787016 1.3890001
-0.65437031 0.37897423 1.3900001
-0.65380925 0.38006482 1.3940001
-0.6513651 0.38006482 1.3940001
-0.64938647 0.38033745 1.3950001
-0.64694053 0.38033745 1.3950001
-0.64726669 0.3819733 1.401
-0.64481026 0.3819733 1.401
-0.64235383 0.3819733 1.401
-0.63761371 0.38061008 1.396
-0.63516605 0.38061008 1.396
-0.63498455 0.3819733 1.401
-0.63162518 0.38142803 1.399
-0.62917227 0.38142803 1.399
-0.62671936 0.38142803 1.399
-0.62426645 0.38142803 1.399
-0.61959118 0.38006482 1.3940001
-0.61670429 0.37979215 1.393
-0.61602575 0.38088274 1.3970001
-0.61357635 0.38088274 1.3970001
-0.6120019 0.38142803 1.399
-0.60954899 0.38142803 1.399
-0.60579419 0.38061008 1.396
-0.60637194 0.38251859 1.4030001
-0.603912 0.38251859 1.4030001
-0.60145205 0.38251859 1.4030001
-0.59813827 0.3819733 1.401
-0.59270555 0.38006482 1.3940001
-0.59110826 0.38061008 1.396
-0.5886606 0.38061008 1.396
-0.58579302 0.38033745 1.3950001
-0.58292896 0.38006482 1.3940001
-0.58048481 0.38006482 1.3940001
-0.57804066 0.38006482 1.3940001
-0.57807398 0.38170066 1.4000001
-0.57520819 0.38142803 1.399
-0.57275528 0.38142803 1.399
-0.57030237 0.38142803 1.399
-0.56825531 0.38170066 1.4000001
-0.56539655 0.38142803 1.399
-0.56294358 0.38142803 1.399
-0.56049067 0.38142803 1.399
-0.55763888 0.38115537 1.3980001
-0.55439347 0.38061008 1.396
-0.55194581 0.38061008 1.396
-0.54949814 0.38061008 1.396
-0.54783428 0.38115537 1.3980001
-0.5453831 0.38115537 1.3980001
-0.54293191 0.38115537 1.3980001
-0.54048079 0.38115537 1.3980001
-0.53725988 0.38061008 1.396
-0.53481227 0.38061008 1.396
-0.53389001 0.38170066 1.4000001
-0.53181493 0.3819733 1.401
-0.52935851 0.3819733 1.401
-0.52690208 0.3819733 1.401
-0.52407134 0.38170066 1.4000001
-0.52198923 0.3819733 1.401
-0.5195328 0.3819733 1.401
-0.5174455 0.38224596 1.4020001
-0.51498729 0.38224596 1.4020001
-0.51289469 0.38251859 1.4030001
-0.51043481 0.38251859 1.4030001
-0.50797486 0.38251859 1.4030001
-0.50551492 0.38251859 1.4030001
-0.50305498 0.38251859 1.4030001
-0.50059509 0.38251859 1.4030001
-0.49778008 0.38224596 1.4020001
-0.49532193 0.38224596 1.4020001
-0.4925122 0.3819733 1.401
-0.48970601 0.38170066 1.4000001
-0.48759937 0.3819733 1.401
-0.48445037 0.38142803 1.399
-0.48096389 0.38061008 1.396
-0.47851622 0.38061008 1.396
-0.47368142 0.3787016 1.3890001
-0.47056749 0.3781563 1.3870001
-0.48951399 0.40814707 1.4970001
-0.48623878 0.40760177 1.4950001
-0.48555848 0.40923765 1.501
-0.48260501 0.40896499 1.5000001
-0.4777351 0.40705648 1.493
-0.47511739 0.40705648 1.493
-0.47249967 0.40705648 1.493
-0.47051138 0.40760177 1.4950001
-0.73638159 0.38223454 1.393
-0.73499292 0.38278335 1.3950001
-0.7299214 0.38141137 1.3900001
-0.72591418 0.38058817 1.3870001
-0.72296071 0.38031378 1.386
-0.72053057 0.38031378 1.386
-0.71861857 0.38058817 1.3870001
-0.71928483 0.38223454 1.393
-0.71632785 0.38196015 1.3920001
-0.71337432 0.38168576 1.391
-0.71349096 0.38305774 1.396
-0.7110433 0.38305774 1.396
-0.70859563 0.38305774 1.396
-0.70614797 0.38305774 1.396
-0.70269215 0.38250896 1.3940001
-0.7012527 0.38305774 1.396
-0.69830447 0.38278335 1.3950001
-0.69785386 0.38388094 1.399
-0.69192141 0.38196015 1.3920001
-0.68948078 0.38196015 1.3920001
-0.69049507 0.38388094 1.399
-0.68853402 0.38415533 1.4000001
-0.68313897 0.38250896 1.3940001
-0.67971826 0.38196015 1.3920001
-0.67727762 0.38196015 1.3920001
-0.67580652 0.38250896 1.3940001
-0.67384547 0.38278335 1.3950001
-0.67139953 0.38278335 1.3950001
-0.66607642 0.38113695 1.3890001
-0.66364104 0.38113695 1.3890001
-0.66072965 0.38086256 1.388
-0.65877026 0.38113695 1.3890001
-0.65633488 0.38113695 1.3890001
-0.65437031 0.38141137 1.3900001
-0.65193313 0.38141137 1.3900001
-0.64902878 0.38113695 1.3890001
-0.64659339 0.38113695 1.3890001
-0.64694053 0.38278335 1.3950001
-0.64772868 0.38470411 1.4020001
-0.64527047 0.38470411 1.4020001
-0.64235383 0.38442972 1.401
-0.6380704 0.38333213 1.3970001
-0.63562101 0.38333213 1.3970001
-0.63317162 0.38333213 1.3970001
-0.63207668 0.38415533 1.4000001
-0.62692362 0.38250896 1.3940001
-0.62447947 0.38250896 1.3940001
-0.62426645 0.38388094 1.399
-0.61959118 0.38250896 1.3940001
-0.61670429 0.38223454 1.393
-0.61602575 0.38333213 1.3970001
-0.61357635 0.38333213 1.3970001
-0.6120019 0.38388094 1.399
-0.60954899 0.38388094 1.399
-0.60579419 0.38305774 1.396
-0.60377872 0.38333213 1.3970001
-0.60132933 0.38333213 1.3970001
-0.59845126 0.38305774 1.396
-0.59557664 0.38278335 1.3950001
-0.59270555 0.38250896 1.3940001
-0.59110826 0.38305774 1.396
-0.5886606 0.38305774 1.396
-0.58621299 0.38305774 1.396
-0.58292896 0.38250896 1.3940001
-0.58048481 0.38250896 1.3940001
-0.57804066 0.38250896 1.3940001
-0.57807398 0.38415533 1.4000001
-0.57520819 0.38388094 1.399
-0.57275528 0.38388094 1.399
-0.57030237 0.38388094 1.399
-0.56784946 0.38388094 1.399
-0.56499237 0.38360652 1.3980001
-0.56254119 0.38360652 1.3980001
-0.56009007 0.38360652 1.3980001
-0.55724001 0.38333213 1.3970001
-0.55479062 0.38333213 1.3970001
-0.55273658 0.38360652 1.3980001
-0.5502854 0.38360652 1.3980001
-0.54783428 0.38360652 1.3980001
-0.5453831 0.38360652 1.3980001
-0.54293191 0.38360652 1.3980001
-0.54048079 0.38360652 1.3980001
-0.53725988 0.38305774 1.396
-0.53442913 0.38278335 1.3950001
-0.53389001 0.38415533 1.4000001
-0.53181493 0.38442972 1.401
-0.52709144 0.38278335 1.3950001
-0.52464557 0.38278335 1.3950001
-0.52219963 0.38278335 1.3950001
-0.52198923 0.38442972 1.401
-0.5195328 0.38442972 1.401
-0.5174455 0.38470411 1.4020001
-0.51498729 0.38470411 1.4020001
-0.51289469 0.38497853 1.4030001
-0.51043481 0.38497853 1.4030001
-0.50797486 0.38497853 1.4030001
-0.50551492 0.38497853 1.4030001
-0.50305498 0.38497853 1.4030001
-0.50059509 0.38497853 1.4030001
-0.49778008 0.38470411 1.4020001
-0.49320215 0.38305774 1.396
-0.49075449 0.38305774 1.396
-0.48760727 0.38250896 1.3940001
-0.48551115 0.38278335 1.3950001
-0.48271897 0.38250896 1.3940001
-0.48096389 0.38305774 1.396
-0.47645956 0.38141137 1.3900001
-0.47368142 0.38113695 1.3890001
-0.47090676 0.38086256 1.388
-0.49961585 0.40830225 1.488
-0.49667287 0.40802783 1.4870001
-0.49406567 0.40802783 1.4870001
-0.49311098 0.40939984 1.4920001
-0.49016625 0.40912542 1.4910001
-0.48722503 0.40885103 1.4900001
-0.48623878 0.41022301 1.4950001
-0.48361754 0.41022301 1.4950001
-0.48067456 0.40994862 1.4940001
-0.4777351 0.40967423 1.493
-0.47511739 0.40967423 1.493
-0.47249967 0.40967423 1.493
-0.47051138 0.41022301 1.4950001
-0.73776323 0.38412464 1.391
-0.73638159 0.38467693 1.393
-0.73235857 0.38384849 1.3900001
-0.7299214 0.38384849 1.3900001
-0.72591418 0.38302004 1.3870001
-0.72243905 0.38246775 1.3850001
-0.7200107 0.38246775 1.3850001
-0.71861857 0.38302004 1.3870001
-0.7161867 0.38302004 1.3870001
-0.71324021 0.3827439 1.386
-0.71440005 0.38467693 1.393
-0.71451312 0.3860577 1.3980001
-0.712062 0.3860577 1.3980001
-0.70961082 0.3860577 1.3980001
-0.70715964 0.3860577 1.3980001
-0.70269215 0.38495311 1.3940001
-0.70175499 0.38578156 1.3970001
-0.69930559 0.38578156 1.3970001
-0.69585854 0.38522926 1.3950001
-0.69291556 0.38495311 1.3940001
-0.69047141 0.38495311 1.3940001
-0.68802726 0.38495311 1.3940001
-0.68853402 0.38661 1.4000001
-0.68607932 0.38661 1.4000001
-0.68313634 0.38633385 1.399
-0.67776412 0.38467693 1.393
-0.67580652 0.38495311 1.3940001
-0.67336237 0.38495311 1.3940001
-0.67139953 0.38522926 1.3950001
-0.66607642 0.38357234 1.3890001
-0.66364104 0.38357234 1.3890001
-0.66072965 0.38329619 1.388
-0.65877026 0.38357234 1.3890001
-0.65633488 0.38357234 1.3890001
-0.65389955 0.38357234 1.3890001
-0.65146416 0.38357234 1.3890001
-0.64949602 0.38384849 1.3900001
-0.64752442 0.38412464 1.391
-0.64740431 0.38550541 1.396
-0.64588064 0.3860577 1.3980001
-0.64342952 0.3860577 1.3980001
-0.64006132 0.38550541 1.396
-0.63852715 0.3860577 1.3980001
-0.63698602 0.38661 1.4000001
-0.63453132 0.38661 1.4000001
-0.63072222 0.38578156 1.3970001
-0.62692362 0.38495311 1.3940001
-0.62537545 0.38550541 1.396
-0.62515891 0.38688615 1.401
-0.61959118 0.38495311 1.3940001
-0.61714703 0.38495311 1.3940001
-0.61426193 0.38467693 1.393
-0.61225873 0.38495311 1.3940001
-0.61025202 0.38522926 1.3950001
-0.60737044 0.38495311 1.3940001
-0.60362446 0.38412464 1.391
-0.60204995 0.38467693 1.393
-0.59917712 0.38440078 1.3920001
-0.59630781 0.38412464 1.391
-0.59344196 0.38384849 1.3900001
-0.59100485 0.38384849 1.3900001
-0.58899111 0.38412464 1.391
-0.58655226 0.38412464 1.391
-0.58579302 0.38522926 1.3950001
-0.58334714 0.38522926 1.3950001
-0.58048481 0.38495311 1.3940001
-0.57762599 0.38467693 1.393
-0.5776611 0.38633385 1.399
-0.57479703 0.3860577 1.3980001
-0.57234585 0.3860577 1.3980001
-0.56989467 0.3860577 1.3980001
-0.56784946 0.38633385 1.399
-0.56539655 0.38633385 1.399
-0.56254119 0.3860577 1.3980001
-0.56009007 0.3860577 1.3980001
-0.55763888 0.3860577 1.3980001
-0.55518776 0.3860577 1.3980001
-0.55273658 0.3860577 1.3980001
-0.54949814 0.38550541 1.396
-0.54705054 0.38550541 1.396
-0.54226214 0.38384849 1.3900001
-0.53982502 0.38384849 1.3900001
-0.53738791 0.38384849 1.3900001
-0.53495079 0.38384849 1.3900001
-0.53251362 0.38384849 1.3900001
-0.53198326 0.38522926 1.3950001
-0.52725977 0.38357234 1.3890001
-0.52482438 0.38357234 1.3890001
-0.52238899 0.38357234 1.3890001
-0.51995361 0.38357234 1.3890001
-0.51751822 0.38357234 1.3890001
-0.5150829 0.38357234 1.3890001
-0.51523101 0.38550541 1.396
-0.51278335 0.38550541 1.396
-0.51289469 0.38743845 1.4030001
-0.51043481 0.38743845 1.4030001
-0.50761276 0.3871623 1.4020001
-0.50515461 0.3871623 1.4020001
-0.50305498 0.38743845 1.4030001
-0.50059509 0.38743845 1.4030001
-0.49778008 0.3871623 1.4020001
-0.49355543 0.38578156 1.3970001
-0.49075449 0.38550541 1.396
-0.48795706 0.38522926 1.3950001
-0.48551115 0.38522926 1.3950001
-0.48271897 0.38495311 1.3940001
-0.48061934 0.38522926 1.3950001
-0.47611678 0.38357234 1.3890001
-0.47368142 0.38357234 1.3890001
-0.47090676 0.38329619 1.388
-0.50830013 0.4158819 1.506
-0.50599533 0.41615805 1.5070001
-0.49667287 0.41063505 1.4870001
-0.49373341 0.41035891 1.4860001
-0.49311098 0.4120158 1.4920001
-0.49016625 0.41173965 1.4910001
-0.48755202 0.41173965 1.4910001
-0.48656401 0.41312039 1.4960001
-0.48361754 0.41284424 1.4950001
-0.48035285 0.41229194 1.493
-0.4777351 0.41229194 1.493
-0.47511739 0.41229194 1.493
-0.47249967 0.41229194 1.493
-0.47051138 0.41284424 1.4950001
-0.74020207 0.38656354 1.391
-0.7351113 0.38517401 1.386
-0.73373842 0.38572982 1.388
-0.73130482 0.38572982 1.388
-0.72572047 0.38406241 1.3820001
-0.72591418 0.38545191 1.3870001
-0.72348231 0.38545191 1.3870001
-0.72105044 0.38545191 1.3870001
-0.71861857 0.38545191 1.3870001
-0.7161867 0.38545191 1.3870001
-0.71272564 0.3848961 1.3850001
-0.71029723 0.3848961 1.3850001
-0.71093547 0.38656354 1.391
-0.70849657 0.38656354 1.391
-0.70656526 0.38684145 1.3920001
-0.70058376 0.3848961 1.3850001
-0.69765133 0.38461822 1.3840001
-0.6962294 0.38517401 1.386
-0.69379926 0.38517401 1.386
-0.69635737 0.38795304 1.396
-0.69043022 0.38600773 1.3890001
-0.68799484 0.38600773 1.3890001
-0.68852085 0.38767514 1.3950001
-0.68853402 0.38906467 1.4000001
-0.68607932 0.38906467 1.4000001
-0.68362468 0.38906467 1.4000001
-0.67776412 0.38711935 1.393
-0.67580652 0.38739723 1.3940001
-0.67336237 0.38739723 1.3940001
-0.67091823 0.38739723 1.3940001
-0.66607642 0.38600773 1.3890001
-0.66364104 0.38600773 1.3890001
-0.66072965 0.38572982 1.388
-0.65877026 0.38600773 1.3890001
-0.65633488 0.38600773 1.3890001
-0.65389955 0.38600773 1.3890001
-0.65146416 0.38600773 1.3890001
-0.64949602 0.38628563 1.3900001
-0.64752442 0.38656354 1.391
-0.64740431 0.38795304 1.396
-0.64588064 0.38850886 1.3980001
-0.64342952 0.38850886 1.3980001
-0.64006132 0.38795304 1.396
-0.63852715 0.38850886 1.3980001
-0.63698602 0.38906467 1.4000001
-0.63453132 0.38906467 1.4000001
-0.63117367 0.38850886 1.3980001
-0.62737334 0.38767514 1.3950001
-0.62537545 0.38795304 1.396
-0.62560511 0.38962048 1.4020001
-0.61959118 0.38739723 1.3940001
-0.61714703 0.38739723 1.3940001
-0.61426193 0.38711935 1.393
-0.61225873 0.38739723 1.3940001
-0.61025202 0.38767514 1.3950001
-0.60693473 0.38711935 1.393
-0.60449237 0.38711935 1.393
-0.60204995 0.38711935 1.393
-0.59917712 0.38684145 1.3920001
-0.59630781 0.38656354 1.391
-0.59386891 0.38656354 1.391
-0.59143001 0.38656354 1.391
-0.58899111 0.38656354 1.391
-0.58655226 0.38656354 1.391
-0.58579302 0.38767514 1.3950001
-0.58334714 0.38767514 1.3950001
-0.58048481 0.38739723 1.3940001
-0.57762599 0.38711935 1.393
-0.5776611 0.38878676 1.399
-0.57479703 0.38850886 1.3980001
-0.57234585 0.38850886 1.3980001
-0.56989467 0.38850886 1.3980001
-0.56784946 0.38878676 1.399
-0.56539655 0.38878676 1.399
-0.56254119 0.38850886 1.3980001
-0.56009007 0.38850886 1.3980001
-0.55763888 0.38850886 1.3980001
-0.55479062 0.38823095 1.3970001
-0.54957354 0.38628563 1.3900001
-0.54713643 0.38628563 1.3900001
-0.54469931 0.38628563 1.3900001
-0.54226214 0.38628563 1.3900001
-0.53788322 0.3848961 1.3850001
-0.53545487 0.3848961 1.3850001
-0.53302646 0.3848961 1.3850001
-0.5305981 0.3848961 1.3850001
-0.52969515 0.38600773 1.3890001
-0.52763939 0.38628563 1.3900001
-0.52293515 0.38461822 1.3840001
-0.52050853 0.38461822 1.3840001
-0.51957929 0.38572982 1.388
-0.51751822 0.38600773 1.3890001
-0.5150829 0.38600773 1.3890001
-0.51301658 0.38628563 1.3900001
-0.51351804 0.38850886 1.3980001
-0.51106685 0.38850886 1.3980001
-0.51007098 0.38962048 1.4020001
-0.50797486 0.38989836 1.4030001
-0.50515461 0.38962048 1.4020001
-0.50269645 0.38962048 1.4020001
-0.5002383 0.38962048 1.4020001
-0.49564978 0.38795304 1.396
-0.49390873 0.38850886 1.3980001
-0.49075449 0.38795304 1.396
-0.48760727 0.38739723 1.3940001
-0.48585919 0.38795304 1.396
-0.48341152 0.38795304 1.396
-0.48027483 0.38739723 1.3940001
-0.47577402 0.38572982 1.388
-0.47368142 0.38600773 1.3890001
-0.47090676 0.38572982 1.388
-0.50188726 0.41324225 1.4870001
-0.49928007 0.41324225 1.4870001
-0.49667287 0.41324225 1.4870001
-0.49406567 0.41324225 1.4870001
-0.49311098 0.41463178 1.4920001
-0.490495 0.41463178 1.4920001
-0.48755202 0.41435388 1.4910001
-0.48461255 0.41407597 1.4900001
-0.48361754 0.41546547 1.4950001
-0.48099631 0.41546547 1.4950001
-0.4777351 0.41490966 1.493
-0.47511739 0.41490966 1.493
-0.47249967 0.41490966 1.493
-0.47082609 0.41574338 1.4960001
-0.73754144 0.38760415 1.386
-0.73564166 0.38788378 1.3870001
-0.73479569 0.38872278 1.3900001
-0.73235857 0.38872278 1.3900001
-0.7267707 0.38704482 1.3840001
-0.72434407 0.38704482 1.3840001
-0.72243905 0.38732448 1.3850001
-0.72053057 0.38760415 1.386
-0.71758235 0.38732448 1.3850001
-0.7161867 0.38788378 1.3870001
-0.71272564 0.38732448 1.3850001
-0.71081012 0.38760415 1.386
-0.71144658 0.38928208 1.3920001
-0.70900589 0.38928208 1.3920001
-0.70656526 0.38928208 1.3920001
-0.70108962 0.38760415 1.386
-0.69865948 0.38760415 1.386
-0.6962294 0.38760415 1.386
-0.69379926 0.38760415 1.386
-0.69386327 0.38900241 1.391
-0.69092727 0.38872278 1.3900001
-0.68799484 0.38844311 1.3890001
-0.68555945 0.38844311 1.3890001
-0.68607497 0.39012104 1.3950001
-0.68362904 0.39012104 1.3950001
-0.68069482 0.38984138 1.3940001
-0.67825067 0.38984138 1.3940001
-0.67580652 0.38984138 1.3940001
-0.67336237 0.38984138 1.3940001
-0.67091823 0.38984138 1.3940001
-0.6646378 0.38760415 1.386
-0.66220772 0.38760415 1.386
-0.66025358 0.38788378 1.3870001
-0.65829599 0.38816345 1.388
-0.65633488 0.38844311 1.3890001
-0.65389955 0.38844311 1.3890001
-0.65193313 0.38872278 1.3900001
-0.6513651 0.38984138 1.3940001
-0.64938647 0.39012104 1.3950001
-0.64740431 0.39040071 1.396
-0.64634264 0.39123967 1.399
-0.64388973 0.39123967 1.399
-0.64097834 0.39096001 1.3980001
-0.63852715 0.39096001 1.3980001
-0.636531 0.39123967 1.399
-0.63453132 0.39151934 1.4000001
-0.63207668 0.39151934 1.4000001
-0.62827283 0.39068037 1.3970001
-0.62671936 0.39123967 1.399
-0.62605131 0.3923583 1.4030001
-0.62225801 0.39151934 1.4000001
-0.61980331 0.39151934 1.4000001
-0.61426193 0.38956174 1.393
-0.61269796 0.39012104 1.3950001
-0.61025202 0.39012104 1.3950001
-0.60519195 0.38844311 1.3890001
-0.60319048 0.38872278 1.3900001
-0.60075337 0.38872278 1.3900001
-0.59788579 0.38844311 1.3890001
-0.59459305 0.38788378 1.3870001
-0.59216118 0.38788378 1.3870001
-0.59228039 0.38956174 1.393
-0.58983797 0.38956174 1.393
-0.58697391 0.38928208 1.3920001
-0.58621299 0.39040071 1.396
-0.58334714 0.39012104 1.3950001
-0.58048481 0.38984138 1.3940001
-0.57804066 0.38984138 1.3940001
-0.5776611 0.39123967 1.399
-0.57479703 0.39096001 1.3980001
-0.57234585 0.39096001 1.3980001
-0.56989467 0.39096001 1.3980001
-0.56541407 0.38956174 1.393
-0.56297165 0.38956174 1.393
-0.5601269 0.38928208 1.3920001
-0.55768621 0.38928208 1.3920001
-0.55444783 0.38872278 1.3900001
-0.55201072 0.38872278 1.3900001
-0.54957354 0.38872278 1.3900001
-0.54634917 0.38816345 1.388
-0.54469931 0.38872278 1.3900001
-0.54187202 0.38844311 1.3890001
-0.53710651 0.38676518 1.383
-0.53506821 0.38704482 1.3840001
-0.53302646 0.38732448 1.3850001
-0.53021502 0.38704482 1.3840001
-0.5293138 0.38816345 1.388
-0.52688015 0.38816345 1.388
-0.52255732 0.38676518 1.383
-0.51975638 0.38648552 1.3820001
-0.51733327 0.38648552 1.3820001
-0.51528275 0.38676518 1.383
-0.51322871 0.38704482 1.3840001
-0.51117116 0.38732448 1.3850001
-0.51094675 0.38900241 1.391
-0.51106685 0.39096001 1.3980001
-0.51007098 0.39207864 1.4020001
-0.50797486 0.3923583 1.4030001
-0.50515461 0.39207864 1.4020001
-0.50269645 0.39207864 1.4020001
-0.5002383 0.39207864 1.4020001
-0.49564978 0.39040071 1.396
-0.49355543 0.39068037 1.3970001
-0.48829368 0.38844311 1.3890001
-0.48550853 0.38816345 1.388
-0.48342294 0.38844311 1.3890001
-0.47925612 0.38704482 1.3840001
-0.47717404 0.38732448 1.3850001
-0.47474569 0.38732448 1.3850001
-0.47368142 0.38844311 1.3890001
-0.47124603 0.38844311 1.3890001
-0.49884963 0.41333255 1.478
-0.49692973 0.41389185 1.48
-0.49667287 0.41584945 1.4870001
-0.49605921 0.41752741 1.493
-0.49311098 0.41724774 1.4920001
-0.490495 0.41724774 1.4920001
-0.48787904 0.41724774 1.4920001
-0.48461255 0.41668844 1.4900001
-0.48361754 0.41808671 1.4950001
-0.48099631 0.41808671 1.4950001
-0.47837508 0.41808671 1.4950001
-0.47320801 0.41584945 1.4870001
-0.47091728 0.41612911 1.488
-0.47114083 0.41864604 1.4970001
-0.73564166 0.39031568 1.3870001
-0.73426706 0.3908785 1.3890001
-0.73288542 0.39144132 1.391
-0.73044658 0.39144132 1.391
-0.72434407 0.38947144 1.3840001
-0.72243905 0.38975284 1.3850001
-0.7200107 0.38975284 1.3850001
-0.71758235 0.38975284 1.3850001
-0.7161867 0.39031568 1.3870001
-0.71272564 0.38975284 1.3850001
-0.71132296 0.39031568 1.3870001
-0.71195763 0.39200413 1.393
-0.70900589 0.39172271 1.3920001
-0.70707285 0.39200413 1.393
-0.70463049 0.39200413 1.393
-0.70218807 0.39200413 1.393
-0.69924337 0.39172271 1.3920001
-0.69680274 0.39172271 1.3920001
-0.69087029 0.38975284 1.3850001
-0.68744779 0.38919002 1.383
-0.68502295 0.38919002 1.383
-0.68259811 0.38919002 1.383
-0.68066502 0.38947144 1.3840001
-0.68068868 0.3908785 1.3890001
-0.67825335 0.3908785 1.3890001
-0.67581797 0.3908785 1.3890001
-0.67580652 0.39228553 1.3940001
-0.67336237 0.39228553 1.3940001
-0.67091823 0.39228553 1.3940001
-0.66415828 0.38975284 1.3850001
-0.66220772 0.39003426 1.386
-0.65977758 0.39003426 1.386
-0.65782171 0.39031568 1.3870001
-0.65538985 0.39031568 1.3870001
-0.65295798 0.39031568 1.3870001
-0.65099514 0.39059708 1.388
-0.64902878 0.3908785 1.3890001
-0.6470589 0.39115989 1.3900001
-0.64508551 0.39144132 1.391
-0.64634264 0.39369258 1.399
-0.64388973 0.39369258 1.399
-0.64006132 0.39284834 1.396
-0.63624346 0.39200413 1.393
-0.63380104 0.39200413 1.393
-0.63226515 0.39256695 1.3950001
-0.63207668 0.39397401 1.4000001
-0.62872255 0.39341119 1.3980001
-0.62671936 0.39369258 1.399
-0.62382025 0.39341119 1.3980001
-0.62003565 0.39256695 1.3950001
-0.61980331 0.39397401 1.4000001
-0.61426193 0.39200413 1.393
-0.61269796 0.39256695 1.3950001
-0.61025202 0.39256695 1.3950001
-0.60562766 0.39115989 1.3900001
-0.60319048 0.39115989 1.3900001
-0.60075337 0.39115989 1.3900001
-0.59788579 0.3908785 1.3890001
-0.59459305 0.39031568 1.3870001
-0.59216118 0.39031568 1.3870001
-0.59057963 0.3908785 1.3890001
-0.58814424 0.3908785 1.3890001
-0.58739561 0.39200413 1.393
-0.58453327 0.39172271 1.3920001
-0.58334714 0.39256695 1.3950001
-0.58090127 0.39256695 1.3950001
-0.57804066 0.39228553 1.3940001
-0.57807398 0.39397401 1.4000001
-0.57561934 0.39397401 1.4000001
-0.57316464 0.39397401 1.4000001
-0.57030237 0.39369258 1.399
-0.56581998 0.39228553 1.3940001
-0.56337583 0.39228553 1.3940001
-0.5601269 0.39172271 1.3920001
-0.55768621 0.39172271 1.3920001
-0.55444783 0.39115989 1.3900001
-0.55201072 0.39115989 1.3900001
-0.54957354 0.39115989 1.3900001
-0.54634917 0.39059708 1.388
-0.54391557 0.39059708 1.388
-0.53992146 0.38947144 1.3840001
-0.53710651 0.38919002 1.383
-0.53506821 0.38947144 1.3840001
-0.53264165 0.38947144 1.3840001
-0.52983189 0.38919002 1.383
-0.52893245 0.39031568 1.3870001
-0.52650058 0.39031568 1.3870001
-0.52217948 0.38890862 1.3820001
-0.51938027 0.3886272 1.381
-0.51733327 0.38890862 1.3820001
-0.51528275 0.38919002 1.383
-0.51285791 0.38919002 1.383
-0.51080209 0.38947144 1.3840001
-0.51057941 0.39115989 1.3900001
-0.5107013 0.39312977 1.3970001
-0.50825191 0.39312977 1.3970001
-0.50544041 0.39284834 1.396
-0.50443399 0.39397401 1.4000001
-0.50197935 0.39397401 1.4000001
-0.49952465 0.39397401 1.4000001
-0.49529475 0.39256695 1.3950001
-0.49284884 0.39256695 1.3950001
-0.48794213 0.39059708 1.388
-0.48550853 0.39059708 1.388
-0.4830749 0.39059708 1.388
-0.47890985 0.38919002 1.383
-0.47648498 0.38919002 1.383
-0.47406012 0.38919002 1.383
-0.47197628 0.38947144 1.3840001
-0.50144106 0.41592398 1.478
-0.49918714 0.41620538 1.4790001
-0.49659395 0.41620538 1.4790001
-0.49400079 0.41620538 1.4790001
-0.49373341 0.41817525 1.4860001
-0.49311098 0.41986373 1.4920001
-0.490495 0.41986373 1.4920001
-0.48787904 0.41986373 1.4920001
-0.48526305 0.41986373 1.4920001
-0.48264709 0.41986373 1.4920001
-0.48131806 0.42098936 1.4960001
-0.47613519 0.41873807 1.488
-0.47384447 0.41901949 1.4890001
-0.47155023 0.41930088 1.4900001
-0.73373842 0.3930307 1.388
-0.73183167 0.39331385 1.3890001
-0.7267707 0.39189804 1.3840001
-0.72434407 0.39189804 1.3840001
-0.72243905 0.39218122 1.3850001
-0.7200107 0.39218122 1.3850001
-0.71758235 0.39218122 1.3850001
-0.71567035 0.39246437 1.386
-0.71272564 0.39218122 1.3850001
-0.71132296 0.39274755 1.3870001
-0.71195763 0.39444652 1.393
-0.70951527 0.39444652 1.393
-0.70707285 0.39444652 1.393
-0.70159543 0.39274755 1.3870001
-0.69916356 0.39274755 1.3870001
-0.69673169 0.39274755 1.3870001
-0.69429982 0.39274755 1.3870001
-0.69136912 0.39246437 1.386
-0.68744779 0.39161488 1.383
-0.68502295 0.39161488 1.383
-0.68259811 0.39161488 1.383
-0.68066502 0.39189804 1.3840001
-0.67725831 0.39133173 1.3820001
-0.67483521 0.39133173 1.3820001
-0.6724121 0.39133173 1.3820001
-0.66998899 0.39133173 1.3820001
-0.66998112 0.39274755 1.3870001
-0.66754925 0.39274755 1.3870001
-0.66415828 0.39218122 1.3850001
-0.66220772 0.39246437 1.386
-0.65977758 0.39246437 1.386
-0.65782171 0.39274755 1.3870001
-0.65538985 0.39274755 1.3870001
-0.65295798 0.39274755 1.3870001
-0.65099514 0.3930307 1.388
-0.64856148 0.3930307 1.388
-0.6470589 0.39359704 1.3900001
-0.6455493 0.39416337 1.3920001
-0.64634264 0.39614549 1.399
-0.64388973 0.39614549 1.399
-0.64006132 0.39529601 1.396
-0.63624346 0.39444652 1.393
-0.63471103 0.39501286 1.3950001
-0.63226515 0.39501286 1.3950001
-0.62981927 0.39501286 1.3950001
-0.6264739 0.39444652 1.393
-0.62492746 0.39501286 1.3950001
-0.62471265 0.39642867 1.4000001
-0.62092459 0.39557916 1.3970001
-0.61758977 0.39501286 1.3950001
-0.61514384 0.39501286 1.3950001
-0.61313719 0.39529601 1.396
-0.61068952 0.39529601 1.396
-0.60606331 0.39388019 1.391
-0.60362446 0.39388019 1.391
-0.60118556 0.39388019 1.391
-0.59831625 0.39359704 1.3900001
-0.5954504 0.39331385 1.3890001
-0.59301502 0.39331385 1.3890001
-0.59057963 0.39331385 1.3890001
-0.58814424 0.39331385 1.3890001
-0.58570886 0.39331385 1.3890001
-0.58495319 0.39444652 1.393
-0.58167446 0.39388019 1.391
-0.58131766 0.39529601 1.396
-0.57804066 0.39472967 1.3940001
-0.57559651 0.39472967 1.3940001
-0.57315236 0.39472967 1.3940001
-0.57070822 0.39472967 1.3940001
-0.56826407 0.39472967 1.3940001
-0.56581998 0.39472967 1.3940001
-0.56337583 0.39472967 1.3940001
-0.56093168 0.39472967 1.3940001
-0.55848753 0.39472967 1.3940001
-0.5524534 0.39218122 1.3850001
-0.55002505 0.39218122 1.3850001
-0.54799205 0.39246437 1.386
-0.54477471 0.39189804 1.3840001
-0.54234809 0.39189804 1.3840001
-0.53992146 0.39189804 1.3840001
-0.53749484 0.39189804 1.3840001
-0.53545487 0.39218122 1.3850001
-0.53110218 0.3907654 1.3800001
-0.52791637 0.39019907 1.378
-0.52740705 0.39161488 1.383
-0.52498221 0.39161488 1.383
-0.52293515 0.39189804 1.3840001
-0.52050853 0.39189804 1.3840001
-0.51770759 0.39161488 1.383
-0.51602793 0.39218122 1.3850001
-0.51359957 0.39218122 1.3850001
-0.51117116 0.39218122 1.3850001
-0.51057941 0.39359704 1.3900001
-0.50814229 0.39359704 1.3900001
-0.50788808 0.39529601 1.396
-0.50580245 0.39557916 1.3970001
-0.50299275 0.39529601 1.396
-0.50018656 0.39501286 1.3950001
-0.49952465 0.39642867 1.4000001
-0.49564978 0.39529601 1.396
-0.49320215 0.39529601 1.396
-0.48829368 0.39331385 1.3890001
-0.48550853 0.3930307 1.388
-0.48342294 0.39331385 1.3890001
-0.47925612 0.39189804 1.3840001
-0.47648498 0.39161488 1.383
-0.47406012 0.39161488 1.383
-0.47231731 0.39218122 1.3850001
-0.5021196 0.41908172 1.48
-0.49716204 0.4170996 1.473
-0.49457937 0.4170996 1.473
-0.49466881 0.4193649 1.4810001
-0.49439791 0.42134705 1.488
-0.49145845 0.42106387 1.4870001
-0.48819375 0.42049754 1.485
-0.48591703 0.42078072 1.4860001
-0.48396209 0.42134705 1.488
-0.48329407 0.42304602 1.4940001
-0.47970936 0.42219654 1.4910001
-0.47709516 0.42219654 1.4910001
-0.47448093 0.42219654 1.4910001
-0.73056668 0.39375484 1.3820001
-0.72814357 0.39375484 1.3820001
-0.72572047 0.39375484 1.3820001
-0.72329736 0.39375484 1.3820001
-0.72243905 0.39460957 1.3850001
-0.7200107 0.39460957 1.3850001
-0.71758235 0.39460957 1.3850001
-0.7161867 0.39517942 1.3870001
-0.71324021 0.39489451 1.386
-0.71132296 0.39517942 1.3870001
-0.70991325 0.39574924 1.3890001
-0.70747787 0.39574924 1.3890001
-0.70402735 0.39517942 1.3870001
-0.70159543 0.39517942 1.3870001
-0.69916356 0.39517942 1.3870001
-0.69673169 0.39517942 1.3870001
-0.69429982 0.39517942 1.3870001
-0.69136912 0.39489451 1.386
-0.68744779 0.39403975 1.383
-0.68502295 0.39403975 1.383
-0.68259811 0.39403975 1.383
-0.68017322 0.39403975 1.383
-0.67823845 0.39432466 1.3840001
-0.67483521 0.39375484 1.3820001
-0.6724121 0.39375484 1.3820001
-0.66998899 0.39375484 1.3820001
-0.66708285 0.3934699 1.381
-0.66754925 0.39517942 1.3870001
-0.66128105 0.39290008 1.3790001
-0.65886319 0.39290008 1.3790001
-0.65977758 0.39489451 1.386
-0.65734744 0.39489451 1.386
-0.65538985 0.39517942 1.3870001
-0.65295798 0.39517942 1.3870001
-0.65052611 0.39517942 1.3870001
-0.64809424 0.39517942 1.3870001
-0.64612788 0.39546433 1.388
-0.64740431 0.39774367 1.396
-0.64634264 0.3985984 1.399
-0.64388973 0.3985984 1.399
-0.64006132 0.39774367 1.396
-0.63624346 0.39688891 1.393
-0.63471103 0.39745876 1.3950001
-0.63226515 0.39745876 1.3950001
-0.62981927 0.39745876 1.3950001
-0.6264739 0.39688891 1.393
-0.62492746 0.39745876 1.3950001
-0.62248152 0.39745876 1.3950001
-0.61870223 0.396604 1.3920001
-0.61758977 0.39745876 1.3950001
-0.612939 0.39603415 1.3900001
-0.61094111 0.39631909 1.391
-0.60850221 0.39631909 1.391
-0.60606331 0.39631909 1.391
-0.60362446 0.39631909 1.391
-0.60161775 0.396604 1.3920001
-0.59874666 0.39631909 1.391
-0.5954504 0.39574924 1.3890001
-0.59301502 0.39574924 1.3890001
-0.59057963 0.39574924 1.3890001
-0.58814424 0.39574924 1.3890001
-0.58570886 0.39574924 1.3890001
-0.58453327 0.396604 1.3920001
-0.58167446 0.39631909 1.391
-0.57923555 0.39631909 1.391
-0.57596737 0.39574924 1.3890001
-0.57600945 0.39745876 1.3950001
-0.57356358 0.39745876 1.3950001
-0.57111764 0.39745876 1.3950001
-0.56826407 0.39717382 1.3940001
-0.56581998 0.39717382 1.3940001
-0.56054682 0.39517942 1.3870001
-0.55811495 0.39517942 1.3870001
-0.55568308 0.39517942 1.3870001
-0.5524534 0.39460957 1.3850001
-0.55002505 0.39460957 1.3850001
-0.54799205 0.39489451 1.386
-0.54516834 0.39460957 1.3850001
-0.54273993 0.39460957 1.3850001
-0.54031157 0.39460957 1.3850001
-0.53594142 0.39318499 1.3800001
-0.53352177 0.39318499 1.3800001
-0.53110218 0.39318499 1.3800001
-0.52868259 0.39318499 1.3800001
-0.5277884 0.39432466 1.3840001
-0.52498221 0.39403975 1.383
-0.52293515 0.39432466 1.3840001
-0.52050853 0.39432466 1.3840001
-0.51770759 0.39403975 1.383
-0.51602793 0.39460957 1.3850001
-0.51359957 0.39460957 1.3850001
-0.51117116 0.39460957 1.3850001
-0.50874281 0.39460957 1.3850001
-0.50631446 0.39460957 1.3850001
-0.50570518 0.39603415 1.3900001
-0.5036301 0.39631909 1.391
-0.50299275 0.39774367 1.396
-0.50018656 0.39745876 1.3950001
-0.49809745 0.39774367 1.396
-0.49387455 0.39631909 1.391
-0.49108237 0.39603415 1.3900001
-0.48864523 0.39603415 1.3900001
-0.4865579 0.39631909 1.391
-0.484119 0.39631909 1.391
-0.47960243 0.39460957 1.3850001
-0.47648498 0.39403975 1.383
-0.4744029 0.39432466 1.3840001
-0.47231731 0.39460957 1.3850001
-0.49736983 0.41768783 1.4660001
-0.49513695 0.41797274 1.4670001
-0.49457937 0.41968223 1.473
-0.49266475 0.42025208 1.475
-0.49207211 0.42196158 1.4810001
-0.4871619 0.41996717 1.4740001
-0.48392001 0.41939732 1.4720001
-0.4813391 0.41939732 1.4720001
-0.47940868 0.41996717 1.4740001
-0.47682425 0.41996717 1.4740001
-0.46941379 0.4156934 1.4590001
-0.46685567 0.4156934 1.4590001
-0.46173945 0.4156934 1.4590001
-0.72814357 0.39617795 1.3820001
-0.72572047 0.39617795 1.3820001
-0.72329736 0.39617795 1.3820001
-0.72191745 0.39675128 1.3840001
-0.7200107 0.39703795 1.3850001
-0.71758235 0.39703795 1.3850001
-0.7161867 0.39761129 1.3870001
-0.71684241 0.3993313 1.393
-0.71132296 0.39761129 1.3870001
-0.70991325 0.39818463 1.3890001
-0.70747787 0.39818463 1.3890001
-0.70402735 0.39761129 1.3870001
-0.69856042 0.39589128 1.381
-0.6961391 0.39589128 1.381
-0.69371772 0.39589128 1.381
-0.6912964 0.39589128 1.381
-0.68887502 0.39589128 1.381
-0.68545955 0.39531794 1.3790001
-0.68304169 0.39531794 1.3790001
-0.68062383 0.39531794 1.3790001
-0.67820597 0.39531794 1.3790001
-0.67578816 0.39531794 1.3790001
-0.6733703 0.39531794 1.3790001
-0.67095244 0.39531794 1.3790001
-0.66756499 0.39474458 1.3770001
-0.66708285 0.39589128 1.381
-0.66418022 0.39560461 1.3800001
-0.66128105 0.39531794 1.3790001
-0.65886319 0.39531794 1.3790001
-0.65930152 0.39703795 1.3850001
-0.65734744 0.39732462 1.386
-0.65538985 0.39761129 1.3870001
-0.65295798 0.39761129 1.3870001
-0.65052611 0.39761129 1.3870001
-0.64809424 0.39761129 1.3870001
-0.64566237 0.39761129 1.3870001
-0.64462179 0.3984713 1.3900001
-0.64588064 0.40076464 1.3980001
-0.64342952 0.40076464 1.3980001
-0.64051986 0.40047798 1.3970001
-0.63624346 0.3993313 1.393
-0.63425606 0.39961797 1.3940001
-0.63226515 0.39990464 1.3950001
-0.62981927 0.39990464 1.3950001
-0.6264739 0.3993313 1.393
-0.62492746 0.39990464 1.3950001
-0.62203532 0.39961797 1.3940001
-0.61870223 0.39904463 1.3920001
-0.61537617 0.3984713 1.3900001
-0.612939 0.3984713 1.3900001
-0.61094111 0.39875796 1.391
-0.60850221 0.39875796 1.391
-0.60606331 0.39875796 1.391
-0.60405838 0.39904463 1.3920001
-0.60204995 0.3993313 1.393
-0.59917712 0.39904463 1.3920001
-0.5954504 0.39818463 1.3890001
-0.59301502 0.39818463 1.3890001
-0.59057963 0.39818463 1.3890001
-0.58814424 0.39818463 1.3890001
-0.58570886 0.39818463 1.3890001
-0.58201373 0.39732462 1.386
-0.58167446 0.39875796 1.391
-0.57923555 0.39875796 1.391
-0.57638204 0.3984713 1.3900001
-0.57394487 0.3984713 1.3900001
-0.57356358 0.39990464 1.3950001
-0.56907064 0.3984713 1.3900001
-0.56581819 0.39789796 1.388
-0.56297868 0.39761129 1.3870001
-0.56054682 0.39761129 1.3870001
-0.55851734 0.39789796 1.388
-0.55528241 0.39732462 1.386
-0.5524534 0.39703795 1.3850001
-0.54803938 0.39560461 1.3800001
-0.54601514 0.39589128 1.381
-0.54556191 0.39732462 1.386
-0.54117244 0.39589128 1.381
-0.53875113 0.39589128 1.381
-0.53594142 0.39560461 1.3800001
-0.53352177 0.39560461 1.3800001
-0.53110218 0.39560461 1.3800001
-0.52868259 0.39560461 1.3800001
-0.5277884 0.39675128 1.3840001
-0.52498221 0.39646462 1.383
-0.52293515 0.39675128 1.3840001
-0.52050853 0.39675128 1.3840001
-0.51770759 0.39646462 1.383
-0.51602793 0.39703795 1.3850001
-0.51359957 0.39703795 1.3850001
-0.51117116 0.39703795 1.3850001
-0.50874281 0.39703795 1.3850001
-0.50631446 0.39703795 1.3850001
-0.5038861 0.39703795 1.3850001
-0.503268 0.3984713 1.3900001
-0.50299275 0.40019131 1.396
-0.50018656 0.39990464 1.3950001
-0.49774066 0.39990464 1.3950001
-0.49387455 0.39875796 1.391
-0.49108237 0.3984713 1.3900001
-0.48899677 0.39875796 1.391
-0.4865579 0.39875796 1.391
-0.484119 0.39875796 1.391
-0.47960243 0.39703795 1.3850001
-0.47717404 0.39703795 1.3850001
-0.47508845 0.39732462 1.386
-0.50096327 0.42111823 1.4690001
-0.49838763 0.42111823 1.4690001
-0.49513695 0.42054489 1.4670001
-0.49457937 0.4222649 1.473
-0.49132872 0.42169157 1.4710001
-0.48874956 0.42169157 1.4710001
-0.48385689 0.41968489 1.4640001
-0.48096123 0.41939822 1.4630001
-0.47643414 0.41767818 1.457
-0.47453001 0.41825151 1.4590001
-0.4722954 0.41853818 1.46
-0.46716163 0.41624483 1.452
-0.46493578 0.4165315 1.4530001
-0.46238819 0.4165315 1.4530001
-0.72814357 0.39860106 1.3820001
-0.72624558 0.39888948 1.383
-0.72329736 0.39860106 1.3820001
-0.72713363 0.40206212 1.3940001
-0.72468948 0.40206212 1.3940001
-0.72328156 0.40263897 1.396
-0.71825212 0.40119687 1.391
-0.71581322 0.40119687 1.391
-0.71132296 0.40004316 1.3870001
-0.70889109 0.40004316 1.3870001
-0.70645922 0.40004316 1.3870001
-0.70351976 0.39975473 1.386
-0.69856042 0.39831263 1.381
-0.69563502 0.3980242 1.3800001
-0.69321537 0.3980242 1.3800001
-0.69029522 0.39773577 1.3790001
-0.68787736 0.39773577 1.3790001
-0.68545955 0.39773577 1.3790001
-0.68304169 0.39773577 1.3790001
-0.68062383 0.39773577 1.3790001
-0.67820597 0.39773577 1.3790001
-0.67578816 0.39773577 1.3790001
-0.6733703 0.39773577 1.3790001
-0.67095244 0.39773577 1.3790001
-0.66804981 0.39744735 1.378
-0.66659981 0.3980242 1.3800001
-0.66369891 0.39773577 1.3790001
-0.66128105 0.39773577 1.3790001
-0.65886319 0.39773577 1.3790001
-0.65930152 0.39946631 1.3850001
-0.65782171 0.40004316 1.3870001
-0.65538985 0.40004316 1.3870001
-0.65295798 0.40004316 1.3870001
-0.65052611 0.40004316 1.3870001
-0.64809424 0.40004316 1.3870001
-0.64566237 0.40004316 1.3870001
-0.64415801 0.40062001 1.3890001
-0.64588064 0.40321583 1.3980001
-0.64296925 0.4029274 1.3970001
-0.64051986 0.4029274 1.3970001
-0.63624346 0.40177369 1.393
-0.63380104 0.40177369 1.393
-0.63181192 0.40206212 1.3940001
-0.62936777 0.40206212 1.3940001
-0.6264739 0.40177369 1.393
-0.62403148 0.40177369 1.393
-0.62158912 0.40177369 1.393
-0.61870223 0.40148526 1.3920001
-0.61581886 0.40119687 1.391
-0.61338001 0.40119687 1.391
-0.61094111 0.40119687 1.391
-0.60850221 0.40119687 1.391
-0.60606331 0.40119687 1.391
-0.60145468 0.39975473 1.386
-0.59945679 0.40004316 1.3870001
-0.59659445 0.39975473 1.386
-0.59587908 0.40090844 1.3900001
-0.59301502 0.40062001 1.3890001
-0.59057963 0.40062001 1.3890001
-0.58814424 0.40062001 1.3890001
-0.58570886 0.40062001 1.3890001
-0.58159381 0.39946631 1.3850001
-0.58167446 0.40119687 1.391
-0.57923555 0.40119687 1.391
-0.57679671 0.40119687 1.391
-0.57394487 0.40090844 1.3900001
-0.57315236 0.40206212 1.3940001
-0.56866121 0.40062001 1.3890001
-0.56581819 0.40033159 1.388
-0.56297868 0.40004316 1.3870001
-0.56054682 0.40004316 1.3870001
-0.55771255 0.39975473 1.386
-0.55528241 0.39975473 1.386
-0.5524534 0.39946631 1.3850001
-0.54803938 0.3980242 1.3800001
-0.54601514 0.39831263 1.381
-0.54359382 0.39831263 1.381
-0.54117244 0.39831263 1.381
-0.53875113 0.39831263 1.381
-0.53632975 0.39831263 1.381
-0.53352177 0.3980242 1.3800001
-0.53110218 0.3980242 1.3800001
-0.52791637 0.39744735 1.378
-0.52740705 0.39888948 1.383
-0.52498221 0.39888948 1.383
-0.52293515 0.39917788 1.3840001
-0.52050853 0.39917788 1.3840001
-0.51770759 0.39888948 1.383
-0.51565534 0.39917788 1.3840001
-0.51322871 0.39917788 1.3840001
-0.51080209 0.39917788 1.3840001
-0.50874281 0.39946631 1.3850001
-0.50631446 0.39946631 1.3850001
-0.50352228 0.39917788 1.3840001
-0.503268 0.40090844 1.3900001
-0.50083089 0.40090844 1.3900001
-0.49767664 0.40033159 1.388
-0.49559984 0.40062001 1.3890001
-0.49351948 0.40090844 1.3900001
-0.49108237 0.40090844 1.3900001
-0.48899677 0.40119687 1.391
-0.48690769 0.40148526 1.3920001
-0.48446703 0.40148526 1.3920001
-0.4799487 0.39975473 1.386
-0.47751859 0.39975473 1.386
-0.47508845 0.39975473 1.386
-0.50062227 0.42340544 1.4680001
-0.49804837 0.42340544 1.4680001
-0.49479944 0.42282861 1.4660001
-0.49457937 0.42484757 1.473
-0.49132872 0.42427072 1.4710001
-0.48874956 0.42427072 1.4710001
-0.48154336 0.4202328 1.457
-0.47898874 0.4202328 1.457
-0.47447217 0.41850224 1.4510001
-0.47257856 0.4190791 1.4530001
-0.47035447 0.41936752 1.4540001
-0.46748337 0.4190791 1.4530001
-0.46493578 0.4190791 1.4530001
-0.46238819 0.4190791 1.4530001
-0.4598406 0.4190791 1.4530001
-0.457293 0.4190791 1.4530001
-0.45474541 0.4190791 1.4530001
-0.45219782 0.4190791 1.4530001
-0.44965023 0.4190791 1.4530001
-0.44894889 0.42080963 1.4590001
-0.44639078 0.42080963 1.4590001
-0.72867042 0.40131432 1.383
-0.72624558 0.40131432 1.383
-0.72382069 0.40131432 1.383
-0.72765523 0.40479645 1.3950001
-0.72572923 0.40508664 1.396
-0.72328156 0.40508664 1.396
-0.71825212 0.40363574 1.391
-0.71272564 0.40189469 1.3850001
-0.70875871 0.40102416 1.3820001
-0.70582449 0.40073398 1.381
-0.70340312 0.40073398 1.381
-0.69996661 0.40015361 1.3790001
-0.69754875 0.40015361 1.3790001
-0.69513088 0.40015361 1.3790001
-0.69271308 0.40015361 1.3790001
-0.69029522 0.40015361 1.3790001
-0.68787736 0.40015361 1.3790001
-0.68545955 0.40015361 1.3790001
-0.68353701 0.40044379 1.3800001
-0.68111742 0.40044379 1.3800001
-0.67820597 0.40015361 1.3790001
-0.67578816 0.40015361 1.3790001
-0.6733703 0.40015361 1.3790001
-0.67095244 0.40015361 1.3790001
-0.66804981 0.39986345 1.378
-0.66756588 0.40102416 1.3820001
-0.6680305 0.40276521 1.388
-0.6655969 0.40276521 1.388
-0.66268545 0.40247503 1.3870001
-0.66025358 0.40247503 1.3870001
-0.66019315 0.40392593 1.3920001
-0.65775245 0.40392593 1.3920001
-0.65295798 0.40247503 1.3870001
-0.65052611 0.40247503 1.3870001
-0.64809424 0.40247503 1.3870001
-0.64566237 0.40247503 1.3870001
-0.64415801 0.4030554 1.3890001
-0.64264661 0.40363574 1.391
-0.6397475 0.40334556 1.3900001
-0.63822734 0.40392593 1.3920001
-0.63624346 0.40421608 1.393
-0.63380104 0.40421608 1.393
-0.63135868 0.40421608 1.393
-0.62891626 0.40421608 1.393
-0.6264739 0.40421608 1.393
-0.62403148 0.40421608 1.393
-0.61846554 0.40218484 1.386
-0.61514646 0.4016045 1.3840001
-0.61537617 0.40334556 1.3900001
-0.61338001 0.40363574 1.391
-0.61138034 0.40392593 1.3920001
-0.60893965 0.40392593 1.3920001
-0.6030134 0.4016045 1.3840001
-0.60145468 0.40218484 1.386
-0.59945679 0.40247503 1.3870001
-0.59659445 0.40218484 1.386
-0.59330696 0.4016045 1.3840001
-0.59301502 0.4030554 1.3890001
-0.59057963 0.4030554 1.3890001
-0.58814424 0.4030554 1.3890001
-0.58528721 0.40276521 1.388
-0.58285356 0.40276521 1.388
-0.58209264 0.40392593 1.3920001
-0.57923555 0.40363574 1.391
-0.57721138 0.40392593 1.3920001
-0.57477069 0.40392593 1.3920001
-0.57397473 0.40508664 1.396
-0.57111764 0.40479645 1.3950001
-0.56541055 0.40247503 1.3870001
-0.56297868 0.40247503 1.3870001
-0.56054682 0.40247503 1.3870001
-0.55771255 0.40218484 1.386
-0.55327922 0.40073398 1.381
-0.55045897 0.40044379 1.3800001
-0.54843652 0.40073398 1.381
-0.54641056 0.40102416 1.3820001
-0.54359382 0.40073398 1.381
-0.54117244 0.40073398 1.381
-0.53875113 0.40073398 1.381
-0.53632975 0.40073398 1.381
-0.53352177 0.40044379 1.3800001
-0.53110218 0.40044379 1.3800001
