# .PCD v0.7 - Point Cloud Data file format
VERSION 0.7
FIELDS x y z
SIZE 4 4 4
TYPE F F F
COUNT 1 1 1
WIDTH 1509
HEIGHT 1
VIEWPOINT 0 0 0 1 0 0 0
POINTS 1509
DATA ascii
-0.48102963 0.23073779 1.4870001
-0.47874415 0.23089296 1.488
-0.47549522 0.23058262 1.4860001
-0.58936197 0.28737482 1.8520001
-0.58674777 0.28768519 1.8540001
-0.58349705 0.28768519 1.8540001
-0.57649076 0.28582314 1.8420001
-0.49199674 0.23114806 1.473
-0.48941407 0.23114806 1.473
-0.49211946 0.23365884 1.4890001
-0.48950875 0.23365884 1.4890001
-0.48591703 0.23318808 1.4860001
-0.48331159 0.23318808 1.4860001
-0.48070613 0.23318808 1.4860001
-0.47810069 0.23318808 1.4860001
-0.47549522 0.23318808 1.4860001
-0.58999842 0.29093584 1.8540001
-0.583583 0.28936663 1.8440001
-0.5803498 0.28936663 1.8440001
-0.5799334 0.29077893 1.853
-0.49233073 0.2338894 1.4740001
-0.48974633 0.2338894 1.4740001
-0.48782292 0.23420677 1.4760001
-0.4872075 0.23515882 1.4820001
-0.48395506 0.23484147 1.48
-0.48136014 0.23484147 1.48
-0.47908869 0.23500015 1.4810001
-0.47617027 0.23484147 1.48
-0.47325534 0.23468278 1.4790001
-0.58999842 0.29418653 1.8540001
-0.58389944 0.29275844 1.845
-0.581294 0.2930758 1.8470001
-0.5808723 0.2945039 1.8560001
-0.49032667 0.23551124 1.4680001
-0.48808503 0.23567167 1.4690001
-0.48782292 0.23679468 1.4760001
-0.48523501 0.23679468 1.4760001
-0.48166609 0.23631339 1.473
-0.47908342 0.23631339 1.473
-0.47714776 0.23663425 1.475
-0.47649199 0.23759682 1.4810001
-0.59324908 0.29743722 1.8540001
-0.58999842 0.29743722 1.8540001
-0.58453238 0.29631421 1.8470001
-0.581294 0.29631421 1.8470001
-0.5808723 0.29775807 1.8560001
-0.49032667 0.23808514 1.4680001
-0.4877528 0.23808514 1.4680001
-0.48749241 0.23922041 1.475
-0.48490626 0.23922041 1.475
-0.48232007 0.23922041 1.475
-0.47973391 0.23922041 1.475
-0.47714776 0.23922041 1.475
-0.47456157 0.23922041 1.475
-0.59324908 0.30068791 1.8540001
-0.59127134 0.30133665 1.858
-0.58579832 0.30020136 1.8510001
-0.58255291 0.30020136 1.8510001
-0.57836854 0.2997148 1.848
-0.49558666 0.24197052 1.4760001
-0.49266475 0.24180658 1.475
-0.49007857 0.24180658 1.475
-0.48749241 0.24180658 1.475
-0.48490626 0.24180658 1.475
-0.48264709 0.24197052 1.4760001
-0.48005915 0.24197052 1.4760001
-0.47714776 0.24180658 1.475
-0.47649199 0.24279021 1.4810001
-0.59324908 0.30393857 1.8540001
-0.59127134 0.30459434 1.858
-0.58579832 0.30344677 1.8510001
-0.58255291 0.30344677 1.8510001
-0.57868153 0.30311888 1.8490001
-0.50019968 0.24555258 1.4820001
-0.49558666 0.24455844 1.4760001
-0.49266475 0.24439275 1.475
-0.49007857 0.24439275 1.475
-0.48749241 0.24439275 1.475
-0.48490626 0.24439275 1.475
-0.48264709 0.24455844 1.4760001
-0.48038441 0.24472412 1.4770001
-0.47714776 0.24439275 1.475
-0.47649199 0.24538688 1.4810001
-0.47389531 0.24538688 1.4810001
-0.58808905 0.30619511 1.848
-0.58295 0.30520096 1.8420001
-0.57972038 0.30520096 1.8420001
-0.57586479 0.30486959 1.84
-0.50245887 0.24798357 1.4810001
-0.50019968 0.24815102 1.4820001
-0.49525091 0.24697891 1.475
-0.49266475 0.24697891 1.475
-0.49007857 0.24697891 1.475
-0.48749241 0.24697891 1.475
-0.48457751 0.24681146 1.4740001
-0.48199308 0.24681146 1.4740001
-0.47973391 0.24697891 1.475
-0.47714776 0.24697891 1.475
-0.47649199 0.24798357 1.4810001
-0.58716941 0.30725852 1.835
-0.58204269 0.30625385 1.8290001
-0.57978523 0.3067562 1.8320001
-0.57657313 0.3067562 1.8320001
-0.57586479 0.30809572 1.84
-0.50279814 0.25074947 1.4820001
-0.50019968 0.25074947 1.4820001
-0.49726549 0.25058025 1.4810001
-0.49466881 0.25058025 1.4810001
-0.49007857 0.24956508 1.475
-0.4871619 0.24939589 1.4740001
-0.48457751 0.24939589 1.4740001
-0.48199308 0.24939589 1.4740001
-0.47973391 0.24956508 1.475
-0.47714776 0.24956508 1.475
-0.47649199 0.25058025 1.4810001
-0.58748937 0.31064507 1.8360001
-0.58267915 0.3097991 1.8310001
-0.57946879 0.3097991 1.8310001
-0.57594371 0.30962989 1.83
-0.57523888 0.31098348 1.8380001
-0.50279814 0.2533479 1.4820001
-0.50019968 0.2533479 1.4820001
-0.49692973 0.25300601 1.48
-0.49266475 0.25215125 1.475
-0.49007857 0.25215125 1.475
-0.4871619 0.2519803 1.4740001
-0.48457751 0.2519803 1.4740001
-0.48199308 0.2519803 1.4740001
-0.48136014 0.25300601 1.48
-0.47844172 0.25283504 1.4790001
-0.47584853 0.25283504 1.4790001
-0.58652943 0.31335133 1.8330001
-0.58204269 0.31266755 1.8290001
-0.57915229 0.31283849 1.83
-0.57594371 0.31283849 1.83
-0.57242215 0.31266755 1.8290001
-0.50245887 0.25577363 1.4810001
-0.50019968 0.25594634 1.4820001
-0.49525091 0.25473741 1.475
-0.49299875 0.25491011 1.4760001
-0.4907431 0.25508282 1.4770001
-0.48749241 0.25473741 1.475
-0.48687875 0.25577363 1.4810001
-0.48428205 0.25577363 1.4810001
-0.48168537 0.25577363 1.4810001
-0.47844172 0.25542822 1.4790001
-0.47584853 0.25542822 1.4790001
-0.58364958 0.31501088 1.8240001
-0.58172446 0.31570169 1.8280001
-0.57915229 0.3160471 1.83
-0.57594371 0.3160471 1.83
-0.57273507 0.3160471 1.83
-0.49986219 0.25837031 1.4810001
-0.49525091 0.25732359 1.475
-0.49266475 0.25732359 1.475
-0.4907431 0.25767249 1.4770001
-0.48749241 0.25732359 1.475
-0.48457751 0.25714913 1.4740001
-0.48199308 0.25714913 1.4740001
-0.48168537 0.25837031 1.4810001
-0.48102963 0.25941706 1.4870001
-0.47842243 0.25941706 1.4870001
-0.58364958 0.31820896 1.8240001
-0.58076972 0.31838343 1.825
-0.57915229 0.31925571 1.83
-0.57594371 0.31925571 1.83
-0.57273507 0.31925571 1.83
-0.50096327 0.25885248 1.4690001
-0.49669129 0.25797144 1.4640001
-0.49378687 0.25779521 1.4630001
-0.49122176 0.25779521 1.4630001
-0.48865664 0.25779521 1.4630001
-0.48575926 0.25761902 1.462
-0.4871619 0.25973353 1.4740001
-0.48457751 0.25973353 1.4740001
-0.48166609 0.25955734 1.473
-0.47908342 0.25955734 1.473
-0.58616388 0.31929252 1.812
-0.58298683 0.31929252 1.812
-0.57980978 0.31929252 1.812
-0.58013326 0.32123083 1.8230001
-0.57725346 0.32140705 1.8240001
-0.57342589 0.32105461 1.8220001
-0.56991839 0.32087842 1.8210001
-0.50130427 0.2616061 1.47
-0.49465567 0.25947055 1.4580001
-0.49209929 0.25947055 1.4580001
-0.48954293 0.25947055 1.4580001
-0.48665255 0.25929257 1.457
-0.48376569 0.25911462 1.4560001
-0.48055184 0.25875869 1.4540001
-0.47800249 0.25875869 1.4540001
-0.47545314 0.25875869 1.4540001
-0.58901566 0.32229158 1.8110001
-0.5858404 0.32229158 1.8110001
-0.58266509 0.32229158 1.8110001
-0.57948983 0.32229158 1.8110001
-0.57981503 0.32424918 1.8220001
-0.5778864 0.32496104 1.8260001
-0.5746848 0.32496104 1.8260001
-0.56991839 0.32407123 1.8210001
-0.49499494 0.26220661 1.4590001
-0.49243683 0.26220661 1.4590001
-0.48954293 0.26202691 1.4580001
-0.48631856 0.26166746 1.4560001
-0.48376569 0.26166746 1.4560001
-0.48055184 0.26130804 1.4540001
-0.47800249 0.26130804 1.4540001
-0.47578016 0.26148775 1.455
-0.47322905 0.26148775 1.455
-0.58875179 0.32708433 1.8200001
-0.58588248 0.32726404 1.8210001
-0.58268964 0.32726404 1.8210001
-0.58045149 0.32780319 1.8240001
-0.5778864 0.32816264 1.8260001
-0.57783204 0.32995981 1.8360001
-0.57304806 0.32906121 1.8310001
-0.50422448 0.26694238 1.4710001
-0.50164533 0.26694238 1.4710001
-0.49499494 0.26476473 1.4590001
-0.49209929 0.26458326 1.4580001
-0.48920718 0.26440179 1.457
-0.48665255 0.26440179 1.457
-0.48409796 0.26440179 1.457
-0.48121285 0.26422033 1.4560001
-0.47833124 0.26403886 1.455
-0.47578016 0.26403886 1.455
-0.47322905 0.26403886 1.455
-0.58616388 0.32882363 1.812
-0.58556074 0.33027539 1.8200001
-0.58268964 0.33045688 1.8210001
-0.58045149 0.33100128 1.8240001
-0.5778864 0.33136421 1.8260001
-0.57783204 0.33317891 1.8360001
-0.57304806 0.33227158 1.8310001
-0.50353891 0.26915509 1.4690001
-0.50130427 0.26933831 1.47
-0.4943164 0.26695639 1.457
-0.49176177 0.26695639 1.457
-0.48920718 0.26695639 1.457
-0.48631856 0.26677316 1.4560001
-0.48376569 0.26677316 1.4560001
-0.48121285 0.26677316 1.4560001
-0.47833124 0.26658994 1.455
-0.47578016 0.26658994 1.455
-0.47290382 0.26640671 1.4540001
-0.58616388 0.33200067 1.812
-0.58234334 0.33163422 1.8100001
-0.57916981 0.33163422 1.8100001
-0.58013326 0.33401614 1.8230001
-0.57693696 0.33401614 1.8230001
-0.57594371 0.33529869 1.83
-0.57242215 0.33511546 1.8290001
-0.50096327 0.27173072 1.4690001
-0.49397713 0.26932603 1.4560001
-0.49142426 0.26932603 1.4560001
-0.4888714 0.26932603 1.4560001
-0.48598453 0.26914105 1.455
-0.48343346 0.26914105 1.455
-0.48088235 0.26914105 1.455
-0.47800249 0.26895607 1.4540001
-0.47545314 0.26895607 1.4540001
-0.47290382 0.26895607 1.4540001
-0.58616388 0.33517772 1.812
-0.58266509 0.33499274 1.8110001
-0.58076972 0.33573264 1.8150001
-0.58140624 0.33795238 1.8270001
-0.57820284 0.33795238 1.8270001
-0.575629 0.33832231 1.8290001
-0.57242215 0.33832231 1.8290001
-0.50028121 0.2739329 1.4670001
-0.49363786 0.27169216 1.455
-0.49108675 0.27169216 1.455
-0.48853564 0.27169216 1.455
-0.48565054 0.27150542 1.4540001
-0.48243669 0.27113196 1.452
-0.48022133 0.27131867 1.4530001
-0.47734499 0.27113196 1.452
-0.47479916 0.27113196 1.452
-0.47257856 0.27131867 1.4530001
-0.58648735 0.33854148 1.8130001
-0.58427376 0.33910167 1.8160001
-0.58108974 0.33910167 1.8160001
-0.58140624 0.34115571 1.8270001
-0.57820284 0.34115571 1.8270001
-0.57311118 0.34003532 1.8210001
-0.56991839 0.34003532 1.8210001
-0.50285339 0.27650505 1.4670001
-0.50028121 0.27650505 1.4670001
-0.49329859 0.27405477 1.4540001
-0.49074924 0.27405477 1.4540001
-0.48819989 0.27405477 1.4540001
-0.48498252 0.2736778 1.452
-0.48443022 0.2748087 1.4580001
-0.48022133 0.2738663 1.4530001
-0.47767374 0.2738663 1.4530001
-0.47708812 0.27499717 1.4590001
-0.47453001 0.27499717 1.4590001
-0.58745784 0.34228572 1.8160001
-0.58427376 0.34228572 1.8160001
-0.58108974 0.34228572 1.8160001
-0.58140624 0.34435904 1.8270001
-0.57883584 0.34473601 1.8290001
-0.57594371 0.34492451 1.83
-0.57210916 0.34454754 1.8280001
-0.50285339 0.2790772 1.4670001
-0.50028121 0.2790772 1.4670001
-0.49533421 0.27774554 1.46
-0.49074924 0.27660412 1.4540001
-0.48819989 0.27660412 1.4540001
-0.48698658 0.27736506 1.4580001
-0.48443022 0.27736506 1.4580001
-0.48220435 0.27755529 1.4590001
-0.47997499 0.27774554 1.46
-0.47741514 0.27774554 1.46
-0.47453001 0.27755529 1.4590001
-0.58810484 0.34585026 1.8180001
-0.58491725 0.34585026 1.8180001
-0.58204967 0.34604049 1.8190001
-0.58236092 0.34813309 1.83
-0.57915229 0.34813309 1.83
-0.57594371 0.34813309 1.83
-0.57210916 0.34775263 1.8280001
-0.50079674 0.2804974 1.4610001
-0.49789405 0.28030539 1.46
-0.49295932 0.27896148 1.4530001
-0.4904117 0.27896148 1.4530001
-0.48786411 0.27896148 1.4530001
-0.48531651 0.27896148 1.4530001
-0.48443022 0.27992141 1.4580001
-0.48187387 0.27992141 1.4580001
-0.47997499 0.28030539 1.46
-0.47806913 0.28068939 1.462
-0.47518051 0.2804974 1.4610001
-0.58842832 0.34922981 1.8190001
-0.58523899 0.34922981 1.8190001
-0.58204967 0.34922981 1.8190001
-0.58236092 0.35134169 1.83
-0.57915229 0.35134169 1.83
-0.57531422 0.35095772 1.8280001
-0.57148319 0.35057375 1.8260001
-0.49874005 0.28189656 1.455
-0.49550691 0.28150907 1.4530001
-0.49262005 0.28131533 1.452
-0.49007419 0.28131533 1.452
-0.48752835 0.28131533 1.452
-0.48498252 0.28131533 1.452
-0.48443022 0.28247777 1.4580001
-0.48187387 0.28247777 1.4580001
-0.48030373 0.283059 1.4610001
-0.47839612 0.28344649 1.4630001
-0.475831 0.28344649 1.4630001
-0.58842832 0.35241911 1.8190001
-0.58523899 0.35241911 1.8190001
-0.58204967 0.35241911 1.8190001
-0.58236092 0.3545503 1.83
-0.57915229 0.3545503 1.83
-0.5746848 0.35377532 1.8260001
-0.57148319 0.35377532 1.8260001
-0.50384223 0.28444764 1.455
-0.50129116 0.28444764 1.455
-0.49874005 0.28444764 1.455
-0.49584791 0.28425214 1.4540001
-0.49329859 0.28425214 1.4540001
-0.49074924 0.28425214 1.4540001
-0.49021447 0.28542513 1.46
-0.48698658 0.28503415 1.4580001
-0.48443022 0.28503415 1.4580001
-0.48187387 0.28503415 1.4580001
-0.48030373 0.28562063 1.4610001
-0.47970411 0.28679362 1.4670001
-0.47940868 0.28816208 1.4740001
-0.58842832 0.35560843 1.8190001
-0.58523899 0.35560843 1.8190001
-0.58204967 0.35560843 1.8190001
-0.58236092 0.35775891 1.83
-0.57978523 0.35814989 1.8320001
-0.57437009 0.35678142 1.825
-0.57242215 0.35756341 1.8290001
-0.50384223 0.28699875 1.455
-0.50163567 0.28719601 1.4560001
-0.49908283 0.28719601 1.4560001
-0.49618894 0.28699875 1.455
-0.49533421 0.287985 1.46
-0.49277434 0.287985 1.46
-0.49021447 0.287985 1.46
-0.4876546 0.287985 1.46
-0.48509473 0.287985 1.46
-0.48187387 0.2875905 1.4580001
-0.48227626 0.28936574 1.4670001
-0.47970411 0.28936574 1.4670001
-0.47713196 0.28936574 1.4670001
-0.59166318 0.36077026 1.8290001
-0.58877808 0.36096749 1.83
-0.5855695 0.36096749 1.83
-0.58236092 0.36096749 1.83
-0.57978523 0.36136201 1.8320001
-0.5746848 0.3601785 1.8260001
-0.57273507 0.36096749 1.83
-0.50719547 0.28855482 1.45
-0.50395709 0.28815684 1.4480001
-0.50176454 0.28835583 1.4490001
-0.49956849 0.28855482 1.45
-0.49702618 0.28855482 1.45
-0.49652997 0.28974885 1.4560001
-0.49397713 0.28974885 1.4560001
-0.49074924 0.28935084 1.4540001
-0.48853564 0.28954986 1.455
-0.48631856 0.28974885 1.4560001
-0.48343346 0.28954986 1.455
-0.48352638 0.29114187 1.4630001
-0.48030373 0.29074386 1.4610001
-0.47970411 0.29193789 1.4670001
-0.47713196 0.29193789 1.4670001
-0.59133971 0.36377808 1.8280001
-0.58877808 0.36417609 1.83
-0.5855695 0.36417609 1.83
-0.58236092 0.36417609 1.83
-0.57851934 0.36377808 1.8280001
-0.57405537 0.36298206 1.8240001
-0.57210916 0.36377808 1.8280001
-0.50719547 0.29109716 1.45
-0.50395709 0.29069564 1.4480001
-0.50176454 0.29089642 1.4490001
-0.49922398 0.29089642 1.4490001
-0.49668339 0.29089642 1.4490001
-0.49448383 0.29109716 1.45
-0.49397713 0.29230171 1.4560001
-0.49074924 0.29190019 1.4540001
-0.48853564 0.29210094 1.455
-0.48665255 0.29250246 1.457
-0.48409796 0.29250246 1.457
-0.48121285 0.29230171 1.4560001
-0.47833124 0.29210094 1.455
-0.47970411 0.29451004 1.4670001
-0.59421957 0.36678243 1.8270001
-0.59166318 0.36718395 1.8290001
-0.58877808 0.3673847 1.83
-0.58524948 0.36718395 1.8290001
-0.58172446 0.36698318 1.8280001
-0.57693696 0.3659794 1.8230001
-0.57374066 0.3659794 1.8230001
-0.5705443 0.3659794 1.8230001
-0.50446469 0.29060185 1.4350001
-0.50264823 0.29100686 1.437
-0.50221694 0.29222193 1.4430001
-0.49934056 0.29201943 1.442
-0.49819037 0.29282945 1.4460001
-0.49599785 0.29303196 1.447
-0.49448383 0.29363951 1.45
-0.49194151 0.29363951 1.45
-0.48906165 0.29343697 1.4490001
-0.48853564 0.29465204 1.455
-0.48665255 0.29505706 1.457
-0.48443022 0.29525957 1.4580001
-0.48154336 0.29505706 1.457
-0.47833124 0.29465204 1.455
-0.47578016 0.29465204 1.455
-0.59421957 0.36998576 1.8270001
-0.59166318 0.37039077 1.8290001
-0.58877808 0.37059331 1.83
-0.58428955 0.36978325 1.8260001
-0.58013326 0.36917573 1.8230001
-0.57693696 0.36917573 1.8230001
-0.57374066 0.36917573 1.8230001
-0.5705443 0.36917573 1.8230001
-0.50516778 0.29352641 1.437
-0.50264823 0.29352641 1.437
-0.50221694 0.294752 1.4430001
-0.49934056 0.29454774 1.442
-0.49819037 0.29536477 1.4460001
-0.49599785 0.29556903 1.447
-0.49277872 0.2951605 1.4450001
-0.49024513 0.2951605 1.4450001
-0.48906165 0.29597756 1.4490001
-0.48652107 0.29597756 1.4490001
-0.48631856 0.29740742 1.4560001
-0.48210442 0.29638609 1.4510001
-0.47956035 0.29638609 1.4510001
-0.47602999 0.2957733 1.4480001
-0.47349116 0.2957733 1.4480001
-0.59421957 0.37318912 1.8270001
-0.59166318 0.37359762 1.8290001
-0.58845633 0.37359762 1.8290001
-0.58428955 0.37298486 1.8260001
-0.57981503 0.3721678 1.8220001
-0.57598752 0.37175927 1.8200001
-0.57311118 0.37196353 1.8210001
-0.56991839 0.37196353 1.8210001
-0.50384223 0.29975426 1.455
-0.50060207 0.29934222 1.4530001
-0.4980545 0.29934222 1.4530001
-0.49175563 0.29707602 1.442
-0.48956659 0.29728204 1.4430001
-0.48703656 0.29728204 1.4430001
-0.48618531 0.29831213 1.4480001
-0.4843145 0.29872417 1.45
-0.48210442 0.29893017 1.4510001
-0.4752638 0.29625195 1.4380001
-0.4727425 0.29625195 1.4380001
-0.4698942 0.29604596 1.437
-0.59421957 0.37639245 1.8270001
-0.59101623 0.37639245 1.8270001
-0.58813465 0.37659848 1.8280001
-0.58492953 0.37659848 1.8280001
-0.58013326 0.37556839 1.8230001
-0.57598752 0.37495032 1.8200001
-0.57279646 0.37495032 1.8200001
-0.56960541 0.37495032 1.8200001
-0.50453484 0.30272087 1.457
-0.50129116 0.30230534 1.455
-0.49839726 0.30209759 1.4540001
-0.49243769 0.30001989 1.4440001
-0.49024513 0.30022764 1.4450001
-0.48703656 0.29981211 1.4430001
-0.48652107 0.30105874 1.4490001
-0.4843145 0.30126649 1.45
-0.48210442 0.30147427 1.4510001
-0.47394177 0.29794219 1.434
-0.47109875 0.29773441 1.4330001
-0.46793222 0.29731888 1.4310001
-0.59421957 0.37959579 1.8270001
-0.59133971 0.37980357 1.8280001
-0.58813465 0.37980357 1.8280001
-0.58492953 0.37980357 1.8280001
-0.58108795 0.379388 1.8260001
-0.57598752 0.3781414 1.8200001
-0.57405537 0.37897247 1.8240001
-0.57085729 0.37897247 1.8240001
-0.49462673 0.30234218 1.4430001
-0.49243769 0.30255169 1.4440001
-0.49024513 0.30276123 1.4450001
-0.48703656 0.30234218 1.4430001
-0.48450649 0.30234218 1.4430001
-0.48264444 0.30276123 1.4450001
-0.47811735 0.30150408 1.439
-0.47394177 0.30045646 1.434
-0.47109875 0.30024692 1.4330001
-0.46793222 0.29982787 1.4310001
-0.59421957 0.38279912 1.8270001
-0.59166318 0.38321817 1.8290001
-0.58845633 0.38321817 1.8290001
-0.58140969 0.3807039 1.817
-0.57790565 0.38049436 1.8160001
-0.57282275 0.37923723 1.8100001
-0.57122284 0.38028485 1.8150001
-0.56804055 0.38028485 1.8150001
-0.49496952 0.30508351 1.4440001
-0.49039155 0.30381584 1.4380001
-0.48787025 0.30381584 1.4380001
-0.48703656 0.30487221 1.4430001
-0.48484224 0.30508351 1.4440001
-0.48264444 0.30529478 1.4450001
-0.47878185 0.30444968 1.4410001
-0.47592479 0.30423841 1.4400001
-0.47307125 0.30402711 1.439
-0.47054821 0.30402711 1.439
-0.59487003 0.38642502 1.8290001
-0.59166318 0.38642502 1.8290001
-0.58845633 0.38642502 1.8290001
-0.58140969 0.3838897 1.817
-0.57758743 0.38346714 1.8150001
-0.57282275 0.38241076 1.8100001
-0.57090813 0.38325587 1.8140001
-0.56772757 0.38325587 1.8140001
-0.49039155 0.30633715 1.4380001
-0.48787025 0.30633715 1.4380001
-0.48534897 0.30633715 1.4380001
-0.48282766 0.30633715 1.4380001
-0.48064038 0.30655017 1.439
-0.47878185 0.30697623 1.4410001
-0.47592479 0.3067632 1.4400001
-0.47307125 0.30655017 1.439
-0.47054821 0.30655017 1.439
-0.59487003 0.38963187 1.8290001
-0.59166318 0.38963187 1.8290001
-0.58845633 0.38963187 1.8290001
-0.58140969 0.38707551 1.817
-0.57695097 0.38622338 1.8130001
-0.57282275 0.38558429 1.8100001
-0.57374066 0.38835368 1.8230001
-0.56710166 0.38601035 1.812
-0.49496952 0.31014714 1.4440001
-0.49039155 0.30885842 1.4380001
-0.48787025 0.30885842 1.4380001
-0.48534897 0.30885842 1.4380001
-0.48249191 0.30864364 1.437
-0.48030639 0.30885842 1.4380001
-0.47545928 0.30735496 1.4310001
-0.47361127 0.30778453 1.4330001
-0.47077 0.30756974 1.432
-0.46793222 0.30735496 1.4310001
-0.59421957 0.39240915 1.8270001
-0.59101623 0.39240915 1.8270001
-0.5878129 0.39240915 1.8270001
-0.5830096 0.39133522 1.8220001
-0.57599628 0.38875782 1.8100001
-0.57282275 0.38875782 1.8100001
-0.57153755 0.39004654 1.8160001
-0.56835353 0.39004654 1.8160001
-0.49819037 0.31311202 1.4460001
-0.49531227 0.31289548 1.4450001
-0.49039155 0.31137973 1.4380001
-0.48820952 0.31159627 1.439
-0.48534897 0.31137973 1.4380001
-0.48249191 0.31116319 1.437
-0.48030639 0.31137973 1.4380001
-0.47512704 0.30964744 1.4300001
-0.47261977 0.30964744 1.4300001
-0.46978375 0.3094309 1.429
-0.46760523 0.30964744 1.4300001
-0.59324384 0.39496288 1.8240001
-0.59004575 0.39496288 1.8240001
-0.58684766 0.39496288 1.8240001
-0.58268964 0.39431328 1.8210001
-0.57631451 0.3921479 1.8110001
-0.57313925 0.3921479 1.8110001
-0.57153755 0.39323059 1.8160001
-0.56835353 0.39323059 1.8160001
-0.50280339 0.31695709 1.452
-0.49784586 0.31542906 1.4450001
-0.49531227 0.31542906 1.4450001
-0.49073258 0.31411931 1.439
-0.48820952 0.31411931 1.439
-0.48703656 0.31499246 1.4430001
-0.48282766 0.31390101 1.4380001
-0.48030639 0.31390101 1.4380001
-0.47745281 0.31368273 1.437
-0.4749333 0.31368273 1.437
-0.47175625 0.31324616 1.4350001
-0.59578794 0.39772439 1.8220001
-0.59259337 0.39772439 1.8220001
-0.58907527 0.39750609 1.8210001
-0.58588248 0.39750609 1.8210001
-0.5830096 0.39772439 1.8220001
-0.57695097 0.39575976 1.8130001
-0.57377219 0.39575976 1.8130001
-0.57153755 0.39641464 1.8160001
-0.56835353 0.39641464 1.8160001
-0.50245714 0.31928289 1.4510001
-0.49784586 0.31796262 1.4450001
-0.49531227 0.31796262 1.4450001
-0.49277872 0.31796262 1.4450001
-0.49024513 0.31796262 1.4450001
-0.48737407 0.31774259 1.4440001
-0.48249191 0.31620225 1.437
-0.47997236 0.31620225 1.437
-0.47745281 0.31620225 1.437
-0.4749333 0.31620225 1.437
-0.47175625 0.31576219 1.4350001
-0.59611493 0.40113899 1.8230001
-0.59291857 0.40113899 1.8230001
-0.5893988 0.40091896 1.8220001
-0.58620423 0.40091896 1.8220001
-0.5830096 0.40091896 1.8220001
-0.57695097 0.39893857 1.8130001
-0.57408869 0.3991586 1.8140001
-0.57153755 0.39959869 1.8160001
-0.56835353 0.39959869 1.8160001
-0.50037944 0.32049617 1.4450001
-0.49577868 0.31916541 1.439
-0.49325562 0.31916541 1.439
-0.49073258 0.31916541 1.439
-0.48820952 0.31916541 1.439
-0.48534897 0.31894359 1.4380001
-0.48282766 0.31894359 1.4380001
-0.48030639 0.31894359 1.4380001
-0.47778508 0.31894359 1.4380001
-0.4749333 0.3187218 1.437
-0.472085 0.31850001 1.4360001
-0.59611493 0.40433532 1.8230001
-0.59291857 0.40433532 1.8230001
-0.5893988 0.40411353 1.8220001
-0.58298683 0.40189555 1.812
-0.57948983 0.40167376 1.8110001
-0.57695097 0.40211734 1.8130001
-0.57377219 0.40211734 1.8130001
-0.57122284 0.40256095 1.8150001
-0.56804055 0.40256095 1.8150001
-0.50037944 0.32302976 1.4450001
-0.4937115 0.32034716 1.4330001
-0.49119896 0.32034716 1.4330001
-0.49073258 0.32168844 1.439
-0.48583463 0.32012358 1.432
-0.48332387 0.32012358 1.432
-0.48081309 0.32012358 1.432
-0.47863632 0.32034716 1.4330001
-0.47612381 0.32034716 1.4330001
-0.47559428 0.32168844 1.439
-0.47241375 0.32124135 1.437
-0.59644192 0.4077552 1.8240001
-0.59291857 0.40753165 1.8230001
-0.58972228 0.40753165 1.8230001
-0.58298683 0.4050726 1.812
-0.57980978 0.4050726 1.812
-0.57631451 0.40484905 1.8110001
-0.57313925 0.40484905 1.8110001
-0.56964922 0.40462551 1.8100001
-0.56647569 0.40462551 1.8100001
-0.49336696 0.32263437 1.432
-0.49119896 0.32285967 1.4330001
-0.48868644 0.32285967 1.4330001
-0.4861739 0.32285967 1.4330001
-0.48366138 0.32285967 1.4330001
-0.48114884 0.32285967 1.4330001
-0.47863632 0.32285967 1.4330001
-0.47645605 0.32308498 1.434
-0.47394177 0.32308498 1.434
-0.47044125 0.32240906 1.4310001
-0.59676892 0.41117859 1.825
-0.58999139 0.40870026 1.8140001
-0.58616388 0.40824965 1.812
-0.58298683 0.40824965 1.812
-0.57980978 0.40824965 1.812
-0.57663274 0.40824965 1.812
-0.57345569 0.40824965 1.812
-0.5702787 0.40824965 1.812
-0.56647569 0.40779904 1.8100001
-0.49302241 0.32491809 1.4310001
-0.49051341 0.32491809 1.4310001
-0.48868644 0.32537219 1.4330001
-0.4861739 0.32537219 1.4330001
-0.48366138 0.32537219 1.4330001
-0.48114884 0.32537219 1.4330001
-0.47863632 0.32537219 1.4330001
-0.47645605 0.32559925 1.434
-0.47394177 0.32559925 1.434
-0.47077 0.32514516 1.432
-0.59807688 0.41528663 1.8290001
-0.58966619 0.41165373 1.8130001
-0.58616388 0.41142666 1.812
-0.58298683 0.41142666 1.812
-0.57980978 0.41142666 1.812
-0.57663274 0.41142666 1.812
-0.57345569 0.41142666 1.812
-0.5702787 0.41142666 1.812
-0.56678867 0.41119963 1.8110001
-0.49587774 0.32765591 1.432
-0.49095523 0.32605425 1.4250001
-0.48845676 0.32605425 1.4250001
-0.48868644 0.32788473 1.4330001
-0.4861739 0.32788473 1.4330001
-0.48366138 0.32788473 1.4330001
-0.48114884 0.32788473 1.4330001
-0.47863632 0.32788473 1.4330001
-0.47612381 0.32788473 1.4330001
-0.47361127 0.32788473 1.4330001
-0.47077 0.32765591 1.432
-0.5951339 0.4164342 1.8200001
-0.59031665 0.41529015 1.8150001
-0.58648735 0.41483253 1.8130001
-0.58330858 0.41483253 1.8130001
-0.5801298 0.41483253 1.8130001
-0.57663274 0.41460371 1.812
-0.57345569 0.41460371 1.812
-0.5702787 0.41460371 1.812
-0.56710166 0.41460371 1.812
-0.49380004 0.3287833 1.4260001
-0.49129978 0.3287833 1.4260001
-0.48845676 0.32855275 1.4250001
-0.48868644 0.33039725 1.4330001
-0.4861739 0.33039725 1.4330001
-0.48366138 0.33039725 1.4330001
-0.48114884 0.33039725 1.4330001
-0.47629824 0.3287833 1.4260001
-0.47379801 0.3287833 1.4260001
-0.47361127 0.33039725 1.4330001
-0.59799623 0.4193947 1.8190001
-0.5951339 0.41962525 1.8200001
-0.59064192 0.41870302 1.8160001
-0.58713436 0.41847244 1.8150001
-0.58395207 0.41847244 1.8150001
-0.58076972 0.41847244 1.8150001
-0.57663274 0.41778076 1.812
-0.57345569 0.41778076 1.812
-0.5702787 0.41778076 1.812
-0.56428492 0.41570568 1.8030001
-0.49595225 0.33105126 1.4250001
-0.49380004 0.33128357 1.4260001
-0.49129978 0.33128357 1.4260001
-0.48845676 0.33105126 1.4250001
-0.48629928 0.33128357 1.4260001
-0.4861739 0.33290979 1.4330001
-0.48366138 0.33290979 1.4330001
-0.47879851 0.33128357 1.4260001
-0.47629824 0.33128357 1.4260001
-0.47346574 0.33105126 1.4250001
-0.47096723 0.33105126 1.4250001
-0.59799623 0.42258403 1.8190001
-0.59480691 0.42258403 1.8190001
-0.59129238 0.42235169 1.8180001
-0.58681083 0.42142242 1.8140001
-0.58330858 0.42119011 1.8130001
-0.5801298 0.42119011 1.8130001
-0.57376868 0.41886696 1.8030001
-0.57060742 0.41886696 1.8030001
-0.56744617 0.41886696 1.8030001
-0.56428492 0.41886696 1.8030001
-0.49630028 0.33378381 1.4260001
-0.49449259 0.33425197 1.4280001
-0.49198884 0.33425197 1.4280001
-0.4891423 0.3340179 1.427
-0.48595825 0.33354974 1.4250001
-0.48549536 0.33495417 1.4310001
-0.48163629 0.3340179 1.427
-0.47879851 0.33378381 1.4260001
-0.47563022 0.33331567 1.424
-0.4731335 0.33331567 1.424
-0.47096723 0.33354974 1.4250001
-0.59832501 0.42600739 1.8200001
-0.59480691 0.42577332 1.8190001
-0.59129238 0.42553926 1.8180001
-0.58745784 0.42507112 1.8160001
-0.58298683 0.42413485 1.812
-0.57980978 0.42413485 1.812
-0.57376868 0.42202821 1.8030001
-0.57029092 0.42179415 1.802
-0.56744617 0.42202821 1.8030001
-0.56428492 0.42202821 1.8030001
-0.49845076 0.33604825 1.4250001
-0.49456009 0.33510494 1.4210001
-0.49276119 0.33557659 1.4230001
-0.49198884 0.33675572 1.4280001
-0.4891423 0.3365199 1.427
-0.48595825 0.33604825 1.4250001
-0.48379901 0.33628407 1.4260001
-0.4819738 0.33675572 1.4280001
-0.47879851 0.33628407 1.4260001
-0.47195613 0.33321837 1.4130001
-0.46947867 0.33321837 1.4130001
-0.4670012 0.33321837 1.4130001
-0.59832501 0.42919847 1.8200001
-0.59480691 0.42896265 1.8190001
-0.59031665 0.42801934 1.8150001
-0.58778131 0.428491 1.817
-0.58298683 0.42731187 1.812
-0.57980978 0.42731187 1.812
-0.57376868 0.42518947 1.8030001
-0.57029092 0.42495364 1.802
-0.56744617 0.42518947 1.8030001
-0.56428492 0.42518947 1.8030001
-0.4970516 0.33759645 1.4210001
-0.49456009 0.33759645 1.4210001
-0.49276119 0.33807158 1.4230001
-0.49198884 0.33925948 1.4280001
-0.48948509 0.33925948 1.4280001
-0.48629928 0.33878434 1.4260001
-0.48379901 0.33878434 1.4260001
-0.4819738 0.33925948 1.4280001
-0.47711968 0.33759645 1.4210001
-0.47195613 0.33569583 1.4130001
-0.46947867 0.33569583 1.4130001
-0.4670012 0.33569583 1.4130001
-0.59832501 0.43238953 1.8200001
-0.59447992 0.43191439 1.8180001
-0.59031665 0.43120164 1.8150001
-0.58745784 0.43143922 1.8160001
-0.58298683 0.43048891 1.812
-0.57980978 0.43048891 1.812
-0.57376868 0.42835072 1.8030001
-0.56997448 0.42787558 1.8010001
-0.56744617 0.42835072 1.8030001
-0.56428492 0.42835072 1.8030001
-0.4970516 0.34008792 1.4210001
-0.49456009 0.34008792 1.4210001
-0.49276119 0.34056658 1.4230001
-0.49198884 0.34176323 1.4280001
-0.48948509 0.34176323 1.4280001
-0.48629928 0.34128457 1.4260001
-0.48379901 0.34128457 1.4260001
-0.48163629 0.34152392 1.427
-0.47711968 0.34008792 1.4210001
-0.47195613 0.3381733 1.4130001
-0.46947867 0.3381733 1.4130001
-0.4670012 0.3381733 1.4130001
-0.59766752 0.43510193 1.8180001
-0.59382594 0.43462327 1.8160001
-0.58934093 0.43366596 1.812
-0.58648735 0.43390527 1.8130001
-0.58298683 0.43366596 1.812
-0.57692993 0.431512 1.8030001
-0.57345045 0.43127266 1.802
-0.56965798 0.430794 1.8000001
-0.56713146 0.43127266 1.802
-0.56428492 0.431512 1.8030001
-0.49670181 0.34233832 1.4200001
-0.49456009 0.34257942 1.4210001
-0.49241489 0.3428205 1.4220001
-0.48957711 0.34257942 1.4210001
-0.48845676 0.34354374 1.4250001
-0.48561722 0.34330267 1.424
-0.48345974 0.34354374 1.4250001
-0.47961119 0.34257942 1.4210001
-0.47711968 0.34257942 1.4210001
-0.47195613 0.34065074 1.4130001
-0.46947867 0.34065074 1.4130001
-0.4670012 0.34065074 1.4130001
-0.59766752 0.43828949 1.8180001
-0.59349895 0.43756625 1.8150001
-0.58901566 0.43660191 1.8110001
-0.5858404 0.43660191 1.8110001
-0.58298683 0.43684301 1.812
-0.57692993 0.43467325 1.8030001
-0.57281399 0.43395001 1.8000001
-0.56965798 0.43395001 1.8000001
-0.56713146 0.43443218 1.802
-0.56428492 0.43467325 1.8030001
-0.50094926 0.34604225 1.4250001
-0.49670181 0.34482807 1.4200001
-0.49456009 0.3450709 1.4210001
-0.49206862 0.3450709 1.4210001
-0.4892326 0.34482807 1.4200001
-0.48845676 0.34604225 1.4250001
-0.48561722 0.34579942 1.424
-0.48345974 0.34604225 1.4250001
-0.47961119 0.3450709 1.4210001
-0.47711968 0.3450709 1.4210001
-0.47396019 0.34458524 1.419
-0.4731335 0.34579942 1.424
-0.47063676 0.34579942 1.424
-0.59733874 0.44123423 1.817
-0.59349895 0.44074854 1.8150001
-0.58934093 0.44002002 1.812
-0.58616388 0.44002002 1.812
-0.57944775 0.43734884 1.8010001
-0.57628995 0.43734884 1.8010001
-0.57281399 0.43710598 1.8000001
-0.56965798 0.43710598 1.8000001
-0.56650198 0.43710598 1.8000001
-0.56365895 0.43734884 1.8010001
-0.50380105 0.34878534 1.4260001
-0.50059772 0.34829617 1.424
-0.49845076 0.34854075 1.4250001
-0.49456009 0.3475624 1.4210001
-0.49206862 0.3475624 1.4210001
-0.48888806 0.3470732 1.419
-0.4864001 0.3470732 1.419
-0.48425314 0.34731779 1.4200001
-0.48210266 0.3475624 1.4210001
-0.47961119 0.3475624 1.4210001
-0.47711968 0.3475624 1.4210001
-0.47429419 0.34731779 1.4200001
-0.47379801 0.34878534 1.4260001
-0.47096723 0.34854075 1.4250001
-0.59733874 0.44442004 1.817
-0.59349895 0.44393083 1.8150001
-0.58934093 0.44319707 1.812
-0.58616388 0.44319707 1.812
-0.579126 0.44026199 1.8000001
-0.57596999 0.44026199 1.8000001
-0.57281399 0.44026199 1.8000001
-0.56965798 0.44026199 1.8000001
-0.56650198 0.44026199 1.8000001
-0.56334597 0.44026199 1.8000001
-0.59045601 0.34783679 1.4120001
-0.58798033 0.34783679 1.4120001
-0.58550465 0.34783679 1.4120001
-0.58179021 0.34709775 1.409
-0.57931972 0.34709775 1.409
-0.57684928 0.34709775 1.409
-0.50097466 0.34931484 1.4180001
-0.49848846 0.34931484 1.4180001
-0.49670181 0.34980753 1.4200001
-0.49456009 0.35005388 1.4210001
-0.49206862 0.35005388 1.4210001
-0.48888806 0.34956118 1.419
-0.48674285 0.34980753 1.4200001
-0.48459417 0.35005388 1.4210001
-0.48210266 0.35005388 1.4210001
-0.47961119 0.35005388 1.4210001
-0.47711968 0.35005388 1.4210001
-0.47462821 0.35005388 1.4210001
-0.47379801 0.35128558 1.4260001
-0.47129774 0.35128558 1.4260001
-0.59701002 0.4473595 1.8160001
-0.59317195 0.44686681 1.8140001
-0.5886904 0.44588143 1.8100001
-0.58551687 0.44588143 1.8100001
-0.579126 0.443418 1.8000001
-0.57596999 0.443418 1.8000001
-0.57281399 0.443418 1.8000001
-0.56965798 0.443418 1.8000001
-0.56650198 0.443418 1.8000001
-0.56334597 0.443418 1.8000001
-0.59653223 0.34807962 1.4030001
-0.59407228 0.34807962 1.4030001
-0.59329909 0.34907201 1.4070001
-0.58999228 0.3485758 1.4050001
-0.58752882 0.3485758 1.4050001
-0.58506542 0.3485758 1.4050001
-0.58426064 0.34956819 1.409
-0.58179021 0.34956819 1.409
-0.57931972 0.34956819 1.409
-0.57643992 0.34932011 1.4080001
-0.57641709 0.35080868 1.414
-0.57677919 0.35254535 1.4210001
-0.50132799 0.35204917 1.419
-0.49813691 0.35155296 1.4170001
-0.49635202 0.35204917 1.419
-0.49177581 0.35056058 1.4130001
-0.48929834 0.35056058 1.4130001
-0.48682088 0.35056058 1.4130001
-0.48674285 0.35229728 1.4200001
-0.48459417 0.35254535 1.4210001
-0.48210266 0.35254535 1.4210001
-0.47893614 0.35204917 1.419
-0.47711968 0.35254535 1.4210001
-0.47629824 0.35378584 1.4260001
-0.47379801 0.35378584 1.4260001
-0.60052454 0.45079163 1.817
-0.59602374 0.44979924 1.8130001
-0.59219098 0.44930306 1.8110001
-0.5886904 0.44905496 1.8100001
-0.58551687 0.44905496 1.8100001
-0.57944775 0.44682211 1.8010001
-0.57596999 0.446574 1.8000001
-0.57281399 0.446574 1.8000001
-0.56965798 0.446574 1.8000001
-0.56681675 0.44682211 1.8010001
-0.56365895 0.44682211 1.8010001
-0.59610701 0.3502897 1.4020001
-0.59322542 0.35003984 1.401
-0.59245569 0.35103926 1.4050001
-0.58999228 0.35103926 1.4050001
-0.58752882 0.35103926 1.4050001
-0.58464897 0.3507894 1.404
-0.58384597 0.35178879 1.4080001
-0.58137727 0.35178879 1.4080001
-0.57890856 0.35178879 1.4080001
-0.57848692 0.35303804 1.4130001
-0.57600945 0.35303804 1.4130001
-0.57596737 0.35453716 1.419
-0.57347941 0.35453716 1.419
-0.57018661 0.35403743 1.4170001
-0.56850344 0.35453716 1.419
-0.56601542 0.35453716 1.419
-0.49351948 0.3472915 1.3900001
-0.49108237 0.3472915 1.3900001
-0.49426994 0.35128909 1.406
-0.49425328 0.35303804 1.4130001
-0.49177581 0.35303804 1.4130001
-0.48964462 0.35328791 1.414
-0.48716542 0.35328791 1.414
-0.4864001 0.35453716 1.419
-0.48254803 0.35353774 1.4150001
-0.47972777 0.35328791 1.414
-0.47927368 0.35478699 1.4200001
-0.47644818 0.35453716 1.419
-0.47629824 0.35628611 1.4260001
-0.47379801 0.35628611 1.4260001
-0.59688902 0.4512291 1.8060001
-0.59339374 0.45097923 1.8050001
-0.59219098 0.45247835 1.8110001
-0.5886904 0.45222849 1.8100001
-0.58260548 0.44997984 1.8010001
-0.57944775 0.44997984 1.8010001
-0.57596999 0.44973001 1.8000001
-0.57281399 0.44973001 1.8000001
-0.56965798 0.44973001 1.8000001
-0.56681675 0.44997984 1.8010001
-0.56365895 0.44997984 1.8010001
-0.60078406 0.35551551 1.4130001
-0.59788316 0.35526392 1.4120001
-0.59540743 0.35526392 1.4120001
-0.59293175 0.35526392 1.4120001
-0.59045601 0.35526392 1.4120001
-0.58714747 0.35476071 1.4100001
-0.58384597 0.35425749 1.4080001
-0.58137727 0.35425749 1.4080001
-0.57890856 0.35425749 1.4080001
-0.57848692 0.35551551 1.4130001
-0.57886302 0.35727674 1.4200001
-0.57637328 0.35727674 1.4200001
-0.57307523 0.35677353 1.4180001
-0.5709914 0.35702512 1.419
-0.56609958 0.35551551 1.4130001
-0.55963331 0.35299948 1.4030001
-0.55717337 0.35299948 1.4030001
-0.55431807 0.35274786 1.4020001
-0.55185992 0.35274786 1.4020001
-0.54940176 0.35274786 1.4020001
-0.53956902 0.35274786 1.4020001
-0.53711087 0.35274786 1.4020001
-0.53503406 0.35299948 1.4030001
-0.51308143 0.35828313 1.424
-0.51094323 0.35853475 1.4250001
-0.50808793 0.35828313 1.424
-0.49351948 0.34972864 1.3900001
-0.49108237 0.34972864 1.3900001
-0.49426994 0.35375428 1.406
-0.49425328 0.35551551 1.4130001
-0.49177581 0.35551551 1.4130001
-0.48964462 0.3557671 1.414
-0.48716542 0.3557671 1.414
-0.48674285 0.35727674 1.4200001
-0.48186597 0.35551551 1.4130001
-0.47938851 0.35551551 1.4130001
-0.47927368 0.35727674 1.4200001
-0.47846276 0.35853475 1.4250001
-0.47629824 0.35878634 1.4260001
-0.60138458 0.45540202 1.8100001
-0.59688902 0.45439562 1.8060001
-0.59306502 0.45389241 1.8040001
-0.59219098 0.45565364 1.8110001
-0.5886904 0.45540202 1.8100001
-0.58228201 0.45288599 1.8000001
-0.579126 0.45288599 1.8000001
-0.57596999 0.45288599 1.8000001
-0.57281399 0.45288599 1.8000001
-0.56965798 0.45288599 1.8000001
-0.56398422 0.45087317 1.7920001
-0.56084222 0.45087317 1.7920001
-0.60907733 0.35849968 1.4150001
-0.60616767 0.35824633 1.414
-0.60368842 0.35824633 1.414
-0.59865814 0.35672617 1.4080001
-0.59534258 0.35621947 1.406
-0.59540743 0.3577396 1.4120001
-0.5904122 0.35621947 1.406
-0.58752882 0.35596612 1.4050001
-0.58464897 0.35571277 1.404
-0.58384597 0.35672617 1.4080001
-0.58137727 0.35672617 1.4080001
-0.58137554 0.35824633 1.414
-0.57889628 0.35824633 1.414
-0.57927066 0.36001983 1.4210001
-0.57677919 0.36001983 1.4210001
-0.57347941 0.3595131 1.419
-0.5709914 0.3595131 1.419
-0.56409645 0.35672617 1.4080001
-0.55963331 0.35545939 1.4030001
-0.55717337 0.35545939 1.4030001
-0.55431807 0.35520604 1.4020001
-0.55185992 0.35520604 1.4020001
-0.54940176 0.35520604 1.4020001
-0.54616332 0.35469934 1.4000001
-0.54176682 0.35343254 1.3950001
-0.53970754 0.35368592 1.396
-0.53956902 0.35520604 1.4020001
-0.53711087 0.35520604 1.4020001
-0.53274596 0.35393927 1.3970001
-0.53029656 0.35393927 1.3970001
-0.52746928 0.35368592 1.396
-0.51055926 0.3590064 1.4170001
-0.50628203 0.3577396 1.4120001
-0.50380629 0.3577396 1.4120001
-0.49706998 0.35469934 1.4000001
-0.49426204 0.35444596 1.399
-0.49426994 0.35621947 1.406
-0.49425328 0.35799298 1.4130001
-0.49003562 0.35672617 1.4080001
-0.48791322 0.35697955 1.409
-0.48544276 0.35697955 1.409
-0.4846862 0.35824633 1.414
-0.48186597 0.35799298 1.4130001
-0.47938851 0.35799298 1.4130001
-0.47691104 0.35799298 1.4130001
-0.47409782 0.3577396 1.4120001
-0.47162211 0.3577396 1.4120001
-0.59739751 0.45553529 1.7980001
-0.59292299 0.45452186 1.794
-0.59240752 0.45654872 1.802
-0.589248 0.45654872 1.802
-0.58576322 0.45629534 1.8010001
-0.58228201 0.45604199 1.8000001
-0.579126 0.45604199 1.8000001
-0.57596999 0.45604199 1.8000001
-0.57281399 0.45604199 1.8000001
-0.56965798 0.45604199 1.8000001
-0.5636695 0.45376179 1.7910001
-0.56052929 0.45376179 1.7910001
-0.60864687 0.36072555 1.414
-0.60573894 0.36047041 1.4130001
-0.60368842 0.36072555 1.414
-0.59865814 0.35919487 1.4080001
-0.59491915 0.35842955 1.4050001
-0.59540743 0.36021531 1.4120001
-0.5904122 0.35868466 1.406
-0.58752882 0.35842955 1.4050001
-0.58506542 0.35842955 1.4050001
-0.58467531 0.35970509 1.4100001
-0.58220309 0.35970509 1.4100001
-0.58178669 0.36098066 1.4150001
-0.57889628 0.36072555 1.414
-0.57641709 0.36072555 1.414
-0.57637328 0.3622562 1.4200001
-0.57347941 0.36200109 1.419
-0.56857705 0.36047041 1.4130001
-0.56409645 0.35919487 1.4080001
-0.55963331 0.35791934 1.4030001
-0.55717337 0.35791934 1.4030001
-0.55431807 0.35766423 1.4020001
-0.55185992 0.35766423 1.4020001
-0.5497936 0.35791934 1.4030001
-0.5453831 0.35664377 1.3980001
-0.54293191 0.35664377 1.3980001
-0.54048079 0.35664377 1.3980001
-0.53995389 0.35791934 1.4030001
-0.53787708 0.35817444 1.404
-0.53350866 0.35689887 1.399
-0.52839857 0.35511312 1.3920001
-0.52520221 0.3546029 1.3900001
-0.51480061 0.36098066 1.4150001
-0.51231962 0.36098066 1.4150001
-0.51164019 0.3622562 1.4200001
-0.50484776 0.35919487 1.4080001
-0.50202227 0.35893977 1.4070001
-0.49920028 0.35868466 1.406
-0.4967351 0.35868466 1.406
-0.49426994 0.35868466 1.406
-0.4935537 0.3599602 1.411
-0.48933956 0.35868466 1.406
-0.48756692 0.35919487 1.4080001
-0.48509824 0.35919487 1.4080001
-0.48262954 0.35919487 1.4080001
-0.48016086 0.35919487 1.4080001
-0.47769216 0.35919487 1.4080001
-0.47657353 0.36021531 1.4120001
-0.47376207 0.3599602 1.411
-0.47162211 0.36021531 1.4120001
-0.59606844 0.45766735 1.794
-0.59292299 0.45766735 1.794
-0.58944875 0.45741221 1.7930001
-0.589248 0.45970821 1.802
-0.58576322 0.45945311 1.8010001
-0.58228201 0.459198 1.8000001
-0.579126 0.459198 1.8000001
-0.57596999 0.459198 1.8000001
-0.57281399 0.459198 1.8000001
-0.56680971 0.456902 1.7910001
-0.5636695 0.456902 1.7910001
-0.56052929 0.456902 1.7910001
-0.60659635 0.36346161 1.4150001
-0.60411537 0.36346161 1.4150001
-0.60163438 0.36346161 1.4150001
-0.59788316 0.36269102 1.4120001
-0.59540743 0.36269102 1.4120001
-0.59293175 0.36269102 1.4120001
-0.59045601 0.36269102 1.4120001
-0.58798033 0.36269102 1.4120001
-0.58467531 0.36217731 1.4100001
-0.58220309 0.36217731 1.4100001
-0.58178669 0.36346161 1.4150001
-0.57848692 0.36294788 1.4130001
-0.57600945 0.36294788 1.4130001
-0.57353199 0.36294788 1.4130001
-0.57105452 0.36294788 1.4130001
-0.56857705 0.36294788 1.4130001
-0.56409645 0.36166358 1.4080001
-0.55963331 0.36037925 1.4030001
-0.55717337 0.36037925 1.4030001
-0.55431807 0.36012238 1.4020001
-0.55185992 0.36012238 1.4020001
-0.5497936 0.36037925 1.4030001
-0.5453831 0.35909495 1.3980001
-0.54293191 0.35909495 1.3980001
-0.54048079 0.35909495 1.3980001
-0.53995389 0.36037925 1.4030001
-0.53826016 0.36089298 1.4050001
-0.53160191 0.35806748 1.3940001
-0.52839857 0.35755375 1.3920001
-0.52520221 0.35704002 1.3900001
-0.5227651 0.35704002 1.3900001
-0.51480061 0.36346161 1.4150001
-0.51231962 0.36346161 1.4150001
-0.50803709 0.36217731 1.4100001
-0.50484776 0.36166358 1.4080001
-0.49988148 0.35986552 1.401
-0.49706998 0.35960865 1.4000001
-0.49461532 0.35960865 1.4000001
-0.49216068 0.35960865 1.4000001
-0.49180475 0.36114985 1.406
-0.48933956 0.36114985 1.406
-0.48756692 0.36166358 1.4080001
-0.48509824 0.36166358 1.4080001
-0.48262954 0.36166358 1.4080001
-0.48016086 0.36166358 1.4080001
-0.47769216 0.36166358 1.4080001
-0.47657353 0.36269102 1.4120001
-0.47376207 0.36243415 1.411
-0.47162211 0.36269102 1.4120001
-0.59606844 0.46081281 1.794
-0.59259248 0.46055594 1.7930001
-0.58944875 0.46055594 1.7930001
-0.58957499 0.46312457 1.8030001
-0.58576322 0.46261087 1.8010001
-0.58228201 0.462354 1.8000001
-0.579126 0.462354 1.8000001
-0.57596999 0.462354 1.8000001
-0.57281399 0.462354 1.8000001
-0.56680971 0.46004224 1.7910001
-0.5636695 0.46004224 1.7910001
-0.56146818 0.46081281 1.794
-0.60616767 0.36568397 1.414
-0.60326153 0.36542535 1.4130001
-0.60333514 0.36697704 1.419
-0.59788316 0.36516672 1.4120001
-0.59540743 0.36516672 1.4120001
-0.59293175 0.36516672 1.4120001
-0.59045601 0.36516672 1.4120001
-0.58798033 0.36516672 1.4120001
-0.5867486 0.36594257 1.4150001
-0.58426768 0.36594257 1.4150001
-0.58096439 0.36542535 1.4130001
-0.57848692 0.36542535 1.4130001
-0.57804769 0.36671844 1.4180001
-0.57312608 0.36516672 1.4120001
-0.5706504 0.36516672 1.4120001
-0.56817466 0.36516672 1.4120001
-0.56449705 0.36439088 1.409
-0.55923444 0.36258057 1.4020001
-0.55677629 0.36258057 1.4020001
-0.55471349 0.36283919 1.4030001
-0.55225354 0.36283919 1.4030001
-0.5497936 0.36283919 1.4030001
-0.5453831 0.3615461 1.3980001
-0.54293191 0.3615461 1.3980001
-0.54048079 0.3615461 1.3980001
-0.53995389 0.36283919 1.4030001
-0.53826016 0.36335641 1.4050001
-0.53160191 0.36051163 1.3940001
-0.52801895 0.35973579 1.391
-0.52520221 0.35947716 1.3900001
-0.5227651 0.35947716 1.3900001
-0.51995361 0.35921854 1.3890001
-0.52087152 0.3615461 1.3980001
-0.51728153 0.36594257 1.4150001
-0.5133453 0.36490813 1.411
-0.51050931 0.3646495 1.4100001
-0.50767678 0.36439088 1.409
-0.50484776 0.36413226 1.4080001
-0.5002383 0.36258057 1.4020001
-0.49778008 0.36258057 1.4020001
-0.49496862 0.36232194 1.401
-0.49180913 0.36180472 1.399
-0.49180475 0.36361504 1.406
-0.48933956 0.36361504 1.406
-0.48722064 0.36387366 1.4070001
-0.4847537 0.36387366 1.4070001
-0.48365787 0.36490813 1.411
-0.48152494 0.36516672 1.4120001
-0.47904924 0.36516672 1.4120001
-0.47454843 0.36361504 1.406
-0.47208324 0.36361504 1.406
-0.46961805 0.36361504 1.406
-0.59573621 0.46369967 1.7930001
-0.59259248 0.46369967 1.7930001
-0.58944875 0.46369967 1.7930001
-0.58630502 0.46369967 1.7930001
-0.58283603 0.46344107 1.7920001
-0.57937056 0.46318245 1.7910001
-0.579126 0.46551001 1.8000001
-0.57596999 0.46551001 1.8000001
-0.57281399 0.46551001 1.8000001
-0.56680971 0.46318245 1.7910001
-0.5636695 0.46318245 1.7910001
-0.56209409 0.46447554 1.7960001
-0.61069387 0.36790282 1.4130001
-0.6082164 0.36790282 1.4130001
-0.60531026 0.36764243 1.4120001
-0.60283458 0.36764243 1.4120001
-0.60035884 0.36764243 1.4120001
-0.59788316 0.36764243 1.4120001
-0.59498578 0.36738208 1.411
-0.59251183 0.36738208 1.411
-0.5896197 0.3671217 1.4100001
-0.58756393 0.36738208 1.411
-0.5867486 0.36842355 1.4150001
-0.58426768 0.36842355 1.4150001
-0.58055323 0.36764243 1.4120001
-0.5780775 0.36764243 1.4120001
-0.57519412 0.36738208 1.411
-0.57312608 0.36764243 1.4120001
-0.57024622 0.36738208 1.411
-0.56777227 0.36738208 1.411
-0.56409645 0.36660096 1.4080001
-0.55923444 0.36503875 1.4020001
-0.55677629 0.36503875 1.4020001
-0.55431807 0.36503875 1.4020001
-0.55225354 0.36529911 1.4030001
-0.5497936 0.36529911 1.4030001
-0.54733366 0.36529911 1.4030001
-0.54293191 0.36399725 1.3980001
-0.54048079 0.36399725 1.3980001
-0.53995389 0.36529911 1.4030001
-0.53749394 0.36529911 1.4030001
-0.53312731 0.36399725 1.3980001
-0.52839857 0.36243504 1.3920001
-0.52520221 0.36191431 1.3900001
-0.5227651 0.36191431 1.3900001
-0.52032799 0.36191431 1.3900001
-0.52087152 0.36399725 1.3980001
-0.52027446 0.36529911 1.4030001
-0.5154537 0.3671217 1.4100001
-0.5111624 0.36581984 1.4050001
-0.508699 0.36581984 1.4050001
-0.50587523 0.36555949 1.404
-0.50269645 0.36503875 1.4020001
-0.5002383 0.36503875 1.4020001
-0.49778008 0.36503875 1.4020001
-0.49532193 0.36503875 1.4020001
-0.4925122 0.36477837 1.401
-0.49180475 0.36608022 1.406
-0.48933956 0.36608022 1.406
-0.48722064 0.36634058 1.4070001
-0.4847537 0.36634058 1.4070001
-0.48194399 0.36608022 1.406
-0.47981983 0.36634058 1.4070001
-0.47735289 0.36634058 1.4070001
-0.47454843 0.36608022 1.406
-0.47208324 0.36608022 1.406
-0.46961805 0.36608022 1.406
-0.59573621 0.4668434 1.7930001
-0.59259248 0.4668434 1.7930001
-0.58944875 0.4668434 1.7930001
-0.58336204 0.46450007 1.784
-0.57990885 0.46423972 1.7830001
-0.57937056 0.46632266 1.7910001
-0.57623035 0.46632266 1.7910001
-0.57309014 0.46632266 1.7910001
-0.56994992 0.46632266 1.7910001
-0.56680971 0.46632266 1.7910001
-0.5636695 0.46632266 1.7910001
-0.56209409 0.46762452 1.7960001
-0.61972529 0.36985603 1.411
-0.61725134 0.36985603 1.411
-0.61477739 0.36985603 1.411
-0.61143553 0.36933178 1.409
-0.60853291 0.36906967 1.4080001
-0.6082164 0.37038028 1.4130001
-0.60230947 0.36828327 1.4050001
-0.59984601 0.36828327 1.4050001
-0.59738261 0.36828327 1.4050001
-0.59745973 0.36985603 1.411
-0.59540743 0.37011814 1.4120001
-0.59293175 0.37011814 1.4120001
-0.59003788 0.36985603 1.411
-0.58922958 0.37090451 1.4150001
-0.58716327 0.37116665 1.416
-0.58426768 0.37090451 1.4150001
-0.58096439 0.37038028 1.4130001
-0.57930571 0.37090451 1.4150001
-0.57600945 0.37038028 1.4130001
-0.57353199 0.37038028 1.4130001
-0.57105452 0.37038028 1.4130001
-0.5665651 0.36906967 1.4080001
-0.5616926 0.36749691 1.4020001
-0.55923444 0.36749691 1.4020001
-0.55677629 0.36749691 1.4020001
-0.55431807 0.36749691 1.4020001
-0.55225354 0.36775905 1.4030001
-0.55057734 0.36828327 1.4050001
-0.54811394 0.36828327 1.4050001
-0.54487377 0.36775905 1.4030001
-0.54241383 0.36775905 1.4030001
-0.5426479 0.36959389 1.4100001
-0.53749394 0.36775905 1.4030001
-0.53503406 0.36775905 1.4030001
-0.53067613 0.36644843 1.3980001
-0.528225 0.36644843 1.3980001
-0.52502161 0.36592418 1.396
-0.52257401 0.36592418 1.396
-0.5227344 0.36775905 1.4030001
-0.52027446 0.36775905 1.4030001
-0.5174455 0.36749691 1.4020001
-0.51719123 0.36906967 1.4080001
-0.5154537 0.36959389 1.4100001
-0.5111624 0.36828327 1.4050001
-0.508699 0.36828327 1.4050001
-0.50623554 0.36828327 1.4050001
-0.50269645 0.36749691 1.4020001
-0.50309271 0.36959389 1.4100001
-0.49849018 0.36802116 1.404
-0.49602851 0.36802116 1.404
-0.49286374 0.36749691 1.4020001
-0.49250433 0.36906967 1.4080001
-0.49003562 0.36906967 1.4080001
-0.48756692 0.36906967 1.4080001
-0.48509824 0.36906967 1.4080001
-0.48262954 0.36906967 1.4080001
-0.48016086 0.36906967 1.4080001
-0.47769216 0.36906967 1.4080001
-0.47488594 0.36880752 1.4070001
-0.47208324 0.36854541 1.406
-0.46961805 0.36854541 1.406
-0.5927459 0.46762803 1.784
-0.58961797 0.46762803 1.784
-0.58648998 0.46762803 1.784
-0.58270806 0.46710378 1.7820001
-0.57925838 0.46684167 1.7810001
-0.57613569 0.46684167 1.7810001
-0.57623035 0.4694629 1.7910001
-0.57309014 0.4694629 1.7910001
-0.56994992 0.4694629 1.7910001
-0.56680971 0.4694629 1.7910001
-0.5636695 0.4694629 1.7910001
-0.56209409 0.47077352 1.7960001
-0.62219924 0.37232998 1.411
-0.61928612 0.37206611 1.4100001
-0.61725134 0.37232998 1.411
-0.61477739 0.37232998 1.411
-0.61100161 0.37153834 1.4080001
-0.60810071 0.37127447 1.4070001
-0.6056338 0.37127447 1.4070001
-0.60230947 0.3707467 1.4050001
-0.59984601 0.3707467 1.4050001
-0.59738261 0.3707467 1.4050001
-0.59491915 0.3707467 1.4050001
-0.59287739 0.3710106 1.406
