# .PCD v0.7 - Point Cloud Data file format
VERSION 0.7
FIELDS x y z
SIZE 4 4 4
TYPE F F F
COUNT 1 1 1
WIDTH 622
HEIGHT 1
VIEWPOINT 0 0 0 1 0 0 0
POINTS 622
DATA ascii
-0.24684216 0.23591188 1.039
-0.24502045 0.23591188 1.039
-0.2075824 0.23477659 1.034
-0.20616744 0.2352307 1.036
-0.20435099 0.2352307 1.036
-0.20312104 0.23591188 1.039
-0.20129932 0.23591188 1.039
-0.19947761 0.23591188 1.039
-0.1976559 0.23591188 1.039
-0.24612942 0.23704717 1.036
-0.24431297 0.23704717 1.036
-0.24249652 0.23704717 1.036
-0.24068007 0.23704717 1.036
-0.23794135 0.23613192 1.0320001
-0.23613192 0.23613192 1.0320001
-0.23386836 0.23567429 1.0300001
-0.23206243 0.23567429 1.0300001
-0.22936229 0.23475906 1.026
-0.22689798 0.23407263 1.023
-0.22488429 0.23384382 1.0220001
-0.21059549 0.23590311 1.031
-0.20878781 0.23590311 1.031
-0.2075824 0.23658954 1.034
-0.20616744 0.23704717 1.036
-0.20435099 0.23704717 1.036
-0.20312104 0.23773359 1.039
-0.20129932 0.23773359 1.039
-0.19947761 0.23773359 1.039
-0.1976559 0.23773359 1.039
-0.19639963 0.23842002 1.0420001
-0.19457266 0.23842002 1.0420001
-0.24612942 0.23886362 1.036
-0.24431297 0.23886362 1.036
-0.24249652 0.23886362 1.036
-0.2397508 0.23794135 1.0320001
-0.23794135 0.23794135 1.0320001
-0.23613192 0.23794135 1.0320001
-0.23386836 0.23748024 1.0300001
-0.23206243 0.23748024 1.0300001
-0.22936229 0.23655798 1.026
-0.22689798 0.23586629 1.023
-0.22488429 0.23563573 1.0220001
-0.21059549 0.23771079 1.031
-0.20878781 0.23771079 1.031
-0.2075824 0.23840249 1.034
-0.20616744 0.23886362 1.036
-0.20435099 0.23886362 1.036
-0.20292553 0.23932473 1.0380001
-0.20110558 0.23932473 1.0380001
-0.19928561 0.23932473 1.0380001
-0.1976559 0.2395553 1.039
-0.19621114 0.24001643 1.041
-0.19438593 0.24001643 1.041
-0.2489032 0.24160933 1.0400001
-0.24636701 0.24091238 1.0370001
-0.2445488 0.24091238 1.0370001
-0.24249652 0.24068007 1.036
-0.2397508 0.2397508 1.0320001
-0.23794135 0.2397508 1.0320001
-0.23613192 0.2397508 1.0320001
-0.23432247 0.2397508 1.0320001
-0.23206243 0.23928617 1.0300001
-0.23003295 0.23905385 1.029
-0.2266762 0.23742764 1.0220001
-0.22488429 0.23742764 1.0220001
-0.22309238 0.23742764 1.0220001
-0.22130047 0.23742764 1.0220001
-0.21079975 0.2397508 1.0320001
-0.20959786 0.24044774 1.0350001
-0.20778315 0.24044774 1.0350001
-0.20596845 0.24044774 1.0350001
-0.20415375 0.24044774 1.0350001
-0.20292553 0.2411447 1.0380001
-0.20110558 0.2411447 1.0380001
-0.19928561 0.2411447 1.0380001
-0.19746566 0.2411447 1.0380001
-0.19621114 0.24184164 1.041
-0.1941992 0.24160933 1.0400001
-0.2489032 0.2434328 1.0400001
-0.24636701 0.24273059 1.0370001
-0.2445488 0.24273059 1.0370001
-0.24249652 0.24249652 1.036
-0.23998311 0.2417943 1.033
-0.23794135 0.24156024 1.0320001
-0.23613192 0.24156024 1.0320001
-0.23432247 0.24156024 1.0320001
-0.23183712 0.24085803 1.029
-0.23003295 0.24085803 1.029
-0.22734158 0.23992175 1.0250001
-0.22554441 0.23992175 1.0250001
-0.22374725 0.23992175 1.0250001
-0.22130047 0.23921953 1.0220001
-0.21950856 0.23921953 1.0220001
-0.21771666 0.23921953 1.0220001
-0.21655858 0.23992175 1.0250001
-0.21476142 0.23992175 1.0250001
-0.21317202 0.24015582 1.026
-0.21199115 0.24085803 1.029
-0.21161681 0.24249652 1.036
-0.20980036 0.24249652 1.036
-0.20798391 0.24249652 1.036
-0.20596845 0.24226245 1.0350001
-0.2039565 0.24202839 1.034
-0.20292553 0.24296466 1.0380001
-0.20110558 0.24296466 1.0380001
-0.19928561 0.24296466 1.0380001
-0.19746566 0.24296466 1.0380001
-0.24612942 0.24431297 1.036
-0.24431297 0.24431297 1.036
-0.24249652 0.24431297 1.036
-0.23998311 0.24360549 1.033
-0.23794135 0.24336968 1.0320001
-0.23613192 0.24336968 1.0320001
-0.23454954 0.24360549 1.033
-0.23206243 0.24289803 1.0300001
-0.23003295 0.24266221 1.029
-0.22800697 0.24242638 1.028
-0.22642459 0.24266221 1.029
-0.22396554 0.24195474 1.026
-0.22173354 0.24148309 1.024
-0.21993813 0.24148309 1.024
-0.21814272 0.24148309 1.024
-0.21655858 0.24171892 1.0250001
-0.21476142 0.24171892 1.0250001
-0.21379533 0.24266221 1.029
-0.21199115 0.24266221 1.029
-0.21161681 0.24431297 1.036
-0.20980036 0.24431297 1.036
-0.20798391 0.24431297 1.036
-0.20676446 0.24502045 1.039
-0.2047455 0.24478462 1.0380001
-0.20292553 0.24478462 1.0380001
-0.20110558 0.24478462 1.0380001
-0.19928561 0.24478462 1.0380001
-0.19746566 0.24478462 1.0380001
-0.19602266 0.24525626 1.0400001
-0.24866387 0.24684216 1.039
-0.24612942 0.24612942 1.036
-0.24431297 0.24612942 1.036
-0.24249652 0.24612942 1.036
-0.2397508 0.24517912 1.0320001
-0.23794135 0.24517912 1.0320001
-0.23613192 0.24517912 1.0320001
-0.23386836 0.24470396 1.0300001
-0.23206243 0.24470396 1.0300001
-0.23003295 0.24446639 1.029
-0.22822876 0.24446639 1.029
-0.22642459 0.24446639 1.029
-0.22396554 0.24375366 1.026
-0.22173354 0.2432785 1.024
-0.21993813 0.2432785 1.024
-0.21814272 0.2432785 1.024
-0.21655858 0.24351609 1.0250001
-0.21538998 0.24422881 1.028
-0.21379533 0.24446639 1.029
-0.2126092 0.24517912 1.0320001
-0.21161681 0.24612942 1.036
-0.20980036 0.24612942 1.036
-0.20798391 0.24612942 1.036
-0.20616744 0.24612942 1.036
-0.2047455 0.24660458 1.0380001
-0.20292553 0.24660458 1.0380001
-0.20110558 0.24660458 1.0380001
-0.19928561 0.24660458 1.0380001
-0.19727542 0.24636701 1.0370001
-0.19602266 0.24707973 1.0400001
-0.24866387 0.24866387 1.039
-0.24612942 0.24794587 1.036
-0.24431297 0.24794587 1.036
-0.24156024 0.24698856 1.0320001
-0.2397508 0.24698856 1.0320001
-0.23724967 0.24627057 1.029
-0.23544548 0.24627057 1.029
-0.23386836 0.24650989 1.0300001
-0.23206243 0.24650989 1.0300001
-0.23003295 0.24627057 1.029
-0.22756338 0.24555258 1.026
-0.22576445 0.24555258 1.026
-0.22396554 0.24555258 1.026
-0.22195008 0.24531324 1.0250001
-0.21993813 0.24507391 1.024
-0.21814272 0.24507391 1.024
-0.21634731 0.24507391 1.024
-0.21476142 0.24531324 1.0250001
-0.21358755 0.24603124 1.028
-0.2126092 0.24698856 1.0320001
-0.21161681 0.24794587 1.036
-0.20980036 0.24794587 1.036
-0.20798391 0.24794587 1.036
-0.20596845 0.24770655 1.0350001
-0.20454825 0.2481852 1.0370001
-0.20292553 0.24842454 1.0380001
-0.20110558 0.24842454 1.0380001
-0.19928561 0.24842454 1.0380001
-0.19727542 0.2481852 1.0370001
-0.24612942 0.24976233 1.036
-0.24360549 0.24903908 1.033
-0.24156024 0.248798 1.0320001
-0.2397508 0.248798 1.0320001
-0.23724967 0.24807476 1.029
-0.23544548 0.24807476 1.029
-0.2331872 0.24759258 1.0270001
-0.23116122 0.2473515 1.026
-0.22936229 0.2473515 1.026
-0.22734158 0.24711041 1.0250001
-0.22576445 0.2473515 1.026
-0.22396554 0.2473515 1.026
-0.22195008 0.24711041 1.0250001
-0.22015291 0.24711041 1.0250001
-0.21814272 0.24686933 1.024
-0.21634731 0.24686933 1.024
-0.2145519 0.24686933 1.024
-0.21337979 0.24759258 1.0270001
-0.2126092 0.248798 1.0320001
-0.21141255 0.24952126 1.0350001
-0.20939533 0.24928017 1.034
-0.2075824 0.24928017 1.034
-0.20576945 0.24928017 1.034
-0.20454825 0.25000343 1.0370001
-0.20292553 0.2502445 1.0380001
-0.20110558 0.2502445 1.0380001
-0.19928561 0.2502445 1.0380001
-0.19746566 0.2502445 1.0380001
-0.24612942 0.25157878 1.036
-0.24360549 0.25085026 1.033
-0.24085803 0.24987893 1.029
-0.23905385 0.24987893 1.029
-0.23724967 0.24987893 1.029
-0.23544548 0.24987893 1.029
-0.2331872 0.24939325 1.0270001
-0.23116122 0.24915043 1.026
-0.22936229 0.24915043 1.026
-0.22756338 0.24915043 1.026
-0.22576445 0.24915043 1.026
-0.22396554 0.24915043 1.026
-0.22195008 0.24890758 1.0250001
-0.22015291 0.24890758 1.0250001
-0.21814272 0.24866475 1.024
-0.21634731 0.24866475 1.024
-0.21476142 0.24890758 1.0250001
-0.21358755 0.2496361 1.028
-0.21199115 0.24987893 1.029
-0.21141255 0.25133595 1.0350001
-0.20939533 0.25109312 1.034
-0.2075824 0.25109312 1.034
-0.20576945 0.25109312 1.034
-0.20454825 0.25182161 1.0370001
-0.20273004 0.25182161 1.0370001
-0.20091183 0.25182161 1.0370001
-0.19928561 0.25206447 1.0380001
-0.19746566 0.25206447 1.0380001
-0.24517912 0.25241688 1.0320001
-0.24336968 0.25241688 1.0320001
-0.24085803 0.25168312 1.029
-0.23905385 0.25168312 1.029
-0.23724967 0.25168312 1.029
-0.23475906 0.25094935 1.026
-0.2331872 0.25119394 1.0270001
-0.23138653 0.25119394 1.0270001
-0.22936229 0.25094935 1.026
-0.22756338 0.25094935 1.026
-0.22576445 0.25094935 1.026
-0.22396554 0.25094935 1.026
-0.22195008 0.25070474 1.0250001
-0.21993813 0.25046015 1.024
-0.21835575 0.25070474 1.0250001
-0.21655858 0.25070474 1.0250001
-0.21476142 0.25070474 1.0250001
-0.21379533 0.25168312 1.029
-0.21199115 0.25168312 1.029
-0.21161681 0.25339523 1.036
-0.20980036 0.25339523 1.036
-0.20798391 0.25339523 1.036
-0.20616744 0.25339523 1.036
-0.2039565 0.25290605 1.034
-0.20273004 0.25363982 1.0370001
-0.20091183 0.25363982 1.0370001
-0.19909362 0.25363982 1.0370001
-0.19746566 0.2538844 1.0380001
-0.24770655 0.25496534 1.0350001
-0.24446639 0.25348729 1.029
-0.24266221 0.25348729 1.029
-0.24015582 0.25274825 1.026
-0.2383569 0.25274825 1.026
-0.23655798 0.25274825 1.026
-0.23475906 0.25274825 1.026
-0.2331872 0.2529946 1.0270001
-0.23138653 0.2529946 1.0270001
-0.22936229 0.25274825 1.026
-0.22689798 0.25200924 1.023
-0.22510433 0.25200924 1.023
-0.22331066 0.25200924 1.023
-0.22151701 0.25200924 1.023
-0.21950856 0.2517629 1.0220001
-0.21771666 0.2517629 1.0220001
-0.21592475 0.2517629 1.0220001
-0.21497093 0.25274825 1.026
-0.21317202 0.25274825 1.026
-0.21199115 0.25348729 1.029
-0.21079975 0.25422633 1.0320001
-0.20980036 0.25521168 1.036
-0.20798391 0.25521168 1.036
-0.20616744 0.25521168 1.036
-0.2039565 0.25471902 1.034
-0.20273004 0.25545803 1.0370001
-0.20091183 0.25545803 1.0370001
-0.19909362 0.25545803 1.0370001
-0.19727542 0.25545803 1.0370001
-0.24698856 0.25603575 1.0320001
-0.24304093 0.2538029 1.023
-0.24124727 0.2538029 1.023
-0.23945361 0.2538029 1.023
-0.23765995 0.2538029 1.023
-0.23655798 0.25454718 1.026
-0.23475906 0.25454718 1.026
-0.23296013 0.25454718 1.026
-0.23048531 0.2538029 1.023
-0.22869165 0.2538029 1.023
-0.22689798 0.2538029 1.023
-0.22510433 0.2538029 1.023
-0.22331066 0.2538029 1.023
-0.22151701 0.2538029 1.023
-0.21950856 0.25355479 1.0220001
-0.21771666 0.25355479 1.0220001
-0.21592475 0.25355479 1.0220001
-0.21434237 0.2538029 1.023
-0.21317202 0.25454718 1.026
-0.21199115 0.25529146 1.029
-0.21079975 0.25603575 1.0320001
-0.20899032 0.25603575 1.0320001
-0.20798391 0.25702813 1.036
-0.20616744 0.25702813 1.036
-0.2039565 0.25653195 1.034
-0.20214355 0.25653195 1.034
-0.20091183 0.25727624 1.0370001
-0.19909362 0.25727624 1.0370001
-0.24555258 0.25634611 1.026
-0.24304093 0.25559655 1.023
-0.24124727 0.25559655 1.023
-0.23945361 0.25559655 1.023
-0.23765995 0.25559655 1.023
-0.23655798 0.25634611 1.026
-0.23521668 0.2568458 1.028
-0.23364131 0.25709563 1.029
-0.23048531 0.25559655 1.023
-0.22869165 0.25559655 1.023
-0.22689798 0.25559655 1.023
-0.22510433 0.25559655 1.023
-0.22331066 0.25559655 1.023
-0.22151701 0.25559655 1.023
-0.21972334 0.25559655 1.023
-0.21792969 0.25559655 1.023
-0.21613602 0.25559655 1.023
-0.21434237 0.25559655 1.023
-0.21296425 0.25609624 1.0250001
-0.21199115 0.25709563 1.029
-0.21079975 0.25784519 1.0320001
-0.20878781 0.25759536 1.031
-0.20778315 0.25859475 1.0350001
-0.20576945 0.25834489 1.034
-0.2039565 0.25834489 1.034
-0.20214355 0.25834489 1.034
-0.19974938 0.25759536 1.031
-0.19851767 0.25834489 1.034
-0.24759258 0.25839663 1.0270001
-0.24483459 0.2573902 1.023
-0.2423282 0.2566354 1.0200001
-0.2405398 0.2566354 1.0200001
-0.2387514 0.2566354 1.0200001
-0.23765995 0.2573902 1.023
-0.23655798 0.258145 1.026
-0.23521668 0.25864822 1.028
-0.23296013 0.258145 1.026
-0.23048531 0.2573902 1.023
-0.22869165 0.2573902 1.023
-0.22689798 0.2573902 1.023
-0.22510433 0.2573902 1.023
-0.22331066 0.2573902 1.023
-0.22151701 0.2573902 1.023
-0.21972334 0.2573902 1.023
-0.21792969 0.2573902 1.023
-0.21613602 0.2573902 1.023
-0.21434237 0.2573902 1.023
-0.21296425 0.25789341 1.0250001
-0.21178514 0.25864822 1.028
-0.21059549 0.25940302 1.031
-0.20878781 0.25940302 1.031
-0.20778315 0.26040944 1.0350001
-0.20596845 0.26040944 1.0350001
-0.20415375 0.26040944 1.0350001
-0.20214355 0.26015785 1.034
-0.19994313 0.25965464 1.0320001
-0.19870965 0.26040944 1.0350001
-0.24614608 0.25867715 1.021
-0.2441166 0.25842381 1.0200001
-0.24161547 0.25766373 1.0170001
-0.23983233 0.25766373 1.0170001
-0.2387514 0.25842381 1.0200001
-0.236963 0.25842381 1.0200001
-0.23563573 0.2589305 1.0220001
-0.23384382 0.2589305 1.0220001
-0.23227897 0.25918385 1.023
-0.23048531 0.25918385 1.023
-0.22869165 0.25918385 1.023
-0.22689798 0.25918385 1.023
-0.22510433 0.25918385 1.023
-0.22331066 0.25918385 1.023
-0.22151701 0.25918385 1.023
-0.21972334 0.25918385 1.023
-0.21792969 0.25918385 1.023
-0.21613602 0.25918385 1.023
-0.21434237 0.25918385 1.023
-0.21296425 0.25969058 1.0250001
-0.21199115 0.26070401 1.029
-0.21079975 0.26146409 1.0320001
-0.20878781 0.26121071 1.031
-0.20778315 0.26222414 1.0350001
-0.20537144 0.26146409 1.0320001
-0.20356199 0.26146409 1.0320001
-0.20233905 0.26222414 1.0350001
-0.20052435 0.26222414 1.0350001
-0.19870965 0.26222414 1.0350001
-0.24614608 0.26046732 1.021
-0.24363793 0.25970197 1.018
-0.24185304 0.25970197 1.018
-0.23983233 0.25944686 1.0170001
-0.2387514 0.26021221 1.0200001
-0.236963 0.26021221 1.0200001
-0.23563573 0.26072243 1.0220001
-0.23384382 0.26072243 1.0220001
-0.23227897 0.26097754 1.023
-0.23048531 0.26097754 1.023
-0.22869165 0.26097754 1.023
-0.22689798 0.26097754 1.023
-0.22510433 0.26097754 1.023
-0.22331066 0.26097754 1.023
-0.22151701 0.26097754 1.023
-0.21972334 0.26097754 1.023
-0.21792969 0.26097754 1.023
-0.21613602 0.26097754 1.023
-0.21497093 0.26174286 1.026
-0.21317202 0.26174286 1.026
-0.21199115 0.26250818 1.029
-0.21079975 0.26327351 1.0320001
-0.20878781 0.2630184 1.031
-0.20718087 0.26327351 1.0320001
-0.20537144 0.26327351 1.0320001
-0.20356199 0.26327351 1.0320001
-0.20233905 0.26403886 1.0350001
-0.20052435 0.26403886 1.0350001
-0.24363793 0.26148686 1.018
-0.24185304 0.26148686 1.018
-0.23983233 0.26123002 1.0170001
-0.2387514 0.26200059 1.0200001
-0.236963 0.26200059 1.0200001
-0.23586629 0.26277119 1.023
-0.23407263 0.26277119 1.023
-0.23227897 0.26277119 1.023
-0.23048531 0.26277119 1.023
-0.22869165 0.26277119 1.023
-0.22689798 0.26277119 1.023
-0.22510433 0.26277119 1.023
-0.22331066 0.26277119 1.023
-0.22151701 0.26277119 1.023
-0.21972334 0.26277119 1.023
-0.21792969 0.26277119 1.023
-0.21613602 0.26277119 1.023
-0.21434237 0.26277119 1.023
-0.21317202 0.26354179 1.026
-0.21137311 0.26354179 1.026
-0.21059549 0.26482609 1.031
-0.20878781 0.26482609 1.031
-0.20718087 0.26508296 1.0320001
-0.20537144 0.26508296 1.0320001
-0.20356199 0.26508296 1.0320001
-0.20175256 0.26508296 1.0320001
-0.24148309 0.26482347 1.024
-0.2387514 0.263789 1.0200001
-0.236963 0.263789 1.0200001
-0.2351746 0.263789 1.0200001
-0.2333862 0.263789 1.0200001
-0.23227897 0.26456484 1.023
-0.23048531 0.26456484 1.023
-0.22869165 0.26456484 1.023
-0.22689798 0.26456484 1.023
-0.22510433 0.26456484 1.023
-0.22331066 0.26456484 1.023
-0.22151701 0.26456484 1.023
-0.21972334 0.26456484 1.023
-0.21792969 0.26456484 1.023
-0.21613602 0.26456484 1.023
-0.21434237 0.26456484 1.023
-0.21337979 0.26559931 1.0270001
-0.21137311 0.26534069 1.026
-0.21059549 0.26663378 1.031
-0.20899032 0.2668924 1.0320001
-0.20718087 0.2668924 1.0320001
-0.20537144 0.2668924 1.0320001
-0.20356199 0.2668924 1.0320001
-0.20175256 0.2668924 1.0320001
-0.236963 0.26557741 1.0200001
-0.2351746 0.26557741 1.0200001
-0.2333862 0.26557741 1.0200001
-0.2315978 0.26557741 1.0200001
-0.23048531 0.26635849 1.023
-0.22869165 0.26635849 1.023
-0.22689798 0.26635849 1.023
-0.22510433 0.26635849 1.023
-0.22331066 0.26635849 1.023
-0.22151701 0.26635849 1.023
-0.21972334 0.26635849 1.023
-0.21814272 0.26661888 1.024
-0.21634731 0.26661888 1.024
-0.21518046 0.2674 1.0270001
-0.21317202 0.26713961 1.026
-0.21137311 0.26713961 1.026
-0.21100402 0.2689622 1.033
-0.20899032 0.26870185 1.0320001
-0.20738164 0.2689622 1.033
-0.20557044 0.2689622 1.033
-0.20356199 0.26870185 1.0320001
-0.20175256 0.26870185 1.0320001
-0.236963 0.26736578 1.0200001
-0.23494403 0.26710367 1.0190001
-0.23315738 0.26710367 1.0190001
-0.23137075 0.26710367 1.0190001
-0.2295841 0.26710367 1.0190001
-0.228021 0.26736578 1.0200001
-0.2262326 0.26736578 1.0200001
-0.22510433 0.26815218 1.023
-0.22331066 0.26815218 1.023
-0.22151701 0.26815218 1.023
-0.21972334 0.26815218 1.023
-0.21814272 0.26841429 1.024
-0.21634731 0.26841429 1.024
-0.2145519 0.26841429 1.024
-0.2125487 0.26815218 1.023
-0.21075505 0.26815218 1.023
-0.21039124 0.26998702 1.0300001
-0.20858529 0.26998702 1.0300001
-0.20677936 0.26998702 1.0300001
-0.20557044 0.27077341 1.033
-0.20336474 0.27024916 1.031
-0.23292857 0.26862645 1.018
-0.23137075 0.26889032 1.0190001
-0.2295841 0.26889032 1.0190001
-0.228021 0.26915419 1.0200001
-0.2262326 0.26915419 1.0200001
-0.22510433 0.26994583 1.023
-0.22331066 0.26994583 1.023
-0.22151701 0.26994583 1.023
-0.21993813 0.2702097 1.024
-0.21814272 0.2702097 1.024
-0.21634731 0.2702097 1.024
-0.2145519 0.2702097 1.024
-0.21275648 0.2702097 1.024
-0.21096106 0.2702097 1.024
-0.21039124 0.27179298 1.0300001
-0.20858529 0.27179298 1.0300001
-0.20677936 0.27179298 1.0300001
-0.20557044 0.27258459 1.033
-0.20336474 0.27205685 1.031
-0.23361501 0.27120823 1.021
-0.23114368 0.27041134 1.018
-0.22935879 0.27041134 1.018
-0.22869165 0.27173948 1.023
-0.22689798 0.27173948 1.023
-0.22510433 0.27173948 1.023
-0.22331066 0.27173948 1.023
-0.22151701 0.27173948 1.023
-0.21993813 0.27200511 1.024
-0.21814272 0.27200511 1.024
-0.21634731 0.27200511 1.024
-0.2145519 0.27200511 1.024
-0.21275648 0.27200511 1.024
-0.21157911 0.272802 1.0270001
-0.21039124 0.27359891 1.0300001
-0.20858529 0.27359891 1.0300001
-0.20738164 0.27439579 1.033
-0.23026 0.27326578 1.0220001
-0.22869165 0.27353314 1.023
-0.22689798 0.27353314 1.023
-0.22510433 0.27353314 1.023
-0.22331066 0.27353314 1.023
-0.22151701 0.27353314 1.023
-0.21993813 0.27380052 1.024
-0.21814272 0.27380052 1.024
-0.21634731 0.27380052 1.024
-0.2145519 0.27380052 1.024
-0.21275648 0.27380052 1.024
-0.21096106 0.27380052 1.024
-0.21039124 0.27540484 1.0300001
-0.20858529 0.27540484 1.0300001
-0.22173354 0.27559593 1.024
-0.21993813 0.27559593 1.024
-0.21835575 0.27586508 1.0250001
-0.21655858 0.27586508 1.0250001
-0.2145519 0.27559593 1.024
-0.21275648 0.27559593 1.024
-0.21096106 0.27559593 1.024
-0.21039124 0.27721077 1.0300001
-0.22173354 0.27739134 1.024
-0.21972334 0.27712047 1.023
-0.21814272 0.27739134 1.024
-0.21634731 0.27739134 1.024
-0.21434237 0.27712047 1.023
-0.21275648 0.27739134 1.024
-0.21096106 0.27739134 1.024
-0.21950856 0.27864149 1.0220001
-0.21792969 0.27891412 1.023
-0.21613602 0.27891412 1.023
-0.21434237 0.27891412 1.023
-0.21275648 0.27918679 1.024
-0.21096106 0.27918679 1.024
-0.20916565 0.27918679 1.024
-0.219079 0.27988461 1.0200001
-0.21771666 0.28043339 1.0220001
-0.21613602 0.28070778 1.023
-0.21434237 0.28070778 1.023
-0.21275648 0.2809822 1.024
-0.21096106 0.2809822 1.024
-0.20916565 0.2809822 1.024
