# .PCD v0.7 - Point Cloud Data file format
VERSION 0.7
FIELDS x y z
SIZE 4 4 4
TYPE F F F
COUNT 1 1 1
WIDTH 203
HEIGHT 1
VIEWPOINT 0 0 0 1 0 0 0
POINTS 203
DATA ascii
0.62026882 0.13011749 1.4410001
0.62445402 0.1299369 1.439
0.62697709 0.1299369 1.439
0.61854708 0.13227585 1.437
0.62149882 0.13236789 1.4380001
0.624888 0.132552 1.4400001
0.6274128 0.132552 1.4400001
0.63509768 0.13310429 1.4460001
0.64016831 0.13310429 1.4460001
0.62149882 0.13488919 1.4380001
0.62575591 0.13526441 1.442
0.63089842 0.13582723 1.4480001
0.63343728 0.13582723 1.4480001
0.63597608 0.13582723 1.4480001
0.63851488 0.13582723 1.4480001
0.64016831 0.13563962 1.4460001
0.66625792 0.13789091 1.47
0.66883528 0.13789091 1.47
0.67095596 0.1377971 1.4690001
0.67444861 0.13798471 1.4710001
0.63089842 0.13836606 1.4480001
0.63343728 0.13836606 1.4480001
0.63597608 0.13836606 1.4480001
0.66671115 0.14056386 1.4710001
0.66883528 0.1404683 1.47
0.67095596 0.14037274 1.4690001
0.67444861 0.14056386 1.4710001
0.60594934 0.14294839 1.4430001
0.60383749 0.14557926 1.4440001
0.60594934 0.14547844 1.4430001
0.56715685 0.15561447 1.4670001
0.56996047 0.15497801 1.4610001
0.57862628 0.15593269 1.47
0.5812037 0.15593269 1.47
0.55307233 0.15710831 1.457
0.55524558 0.15700048 1.4560001
0.55856466 0.15721613 1.4580001
0.56343013 0.15786313 1.4640001
0.56715685 0.15818661 1.4670001
0.56856394 0.15786313 1.4640001
0.5707407 0.15775529 1.4630001
0.57565701 0.15840226 1.4690001
0.57862628 0.1585101 1.47
0.5812037 0.1585101 1.47
0.56304532 0.16032042 1.4630001
0.56934065 0.16064917 1.4660001
0.57152092 0.16053958 1.465
0.57408953 0.16053958 1.465
0.57587093 0.16032042 1.4630001
0.44444108 0.17547096 1.4610001
0.44486099 0.17463024 1.4540001
0.44710264 0.17451014 1.4530001
0.44934076 0.17439003 1.452
0.45219782 0.17451014 1.4530001
0.45443243 0.17439003 1.452
0.45918134 0.17523076 1.4590001
0.46973553 0.17535086 1.46
0.4722954 0.17535086 1.46
0.47485527 0.17535086 1.46
0.47774214 0.17547096 1.4610001
0.48030373 0.17547096 1.4610001
0.48286536 0.17547096 1.4610001
0.48575926 0.17559107 1.462
0.48832262 0.17559107 1.462
0.4310421 0.17778887 1.4590001
0.43389741 0.17791073 1.46
0.43645728 0.17791073 1.46
0.441122 0.17876373 1.4670001
0.44369414 0.17876373 1.4670001
0.44444108 0.17803259 1.4610001
0.44486099 0.17717959 1.4540001
0.44741035 0.17717959 1.4540001
0.46429756 0.17778887 1.4590001
0.46749565 0.17803259 1.4610001
0.47005728 0.17803259 1.4610001
0.4719719 0.17778887 1.4590001
0.47485527 0.17791073 1.46
0.47774214 0.17803259 1.4610001
0.48575926 0.17815444 1.462
0.48832262 0.17815444 1.462
0.42133653 0.17948171 1.452
0.42563394 0.18022338 1.4580001
0.42819029 0.18022338 1.4580001
0.4310421 0.180347 1.4590001
0.43389741 0.1804706 1.46
0.43645728 0.1804706 1.46
0.441122 0.18133587 1.4670001
0.44369414 0.18133587 1.4670001
0.44444108 0.18059421 1.4610001
0.47294238 0.18071783 1.462
0.47774214 0.18059421 1.4610001
0.48832262 0.18071783 1.462
0.41796485 0.18277974 1.4580001
0.41879067 0.18202756 1.452
0.42133653 0.18202756 1.452
0.42563394 0.18277974 1.4580001
0.42819029 0.18277974 1.4580001
0.4310421 0.18290511 1.4590001
0.43389741 0.18303047 1.46
0.43645728 0.18303047 1.46
0.441122 0.18390802 1.4670001
0.44187945 0.18315583 1.4610001
0.40801907 0.18546322 1.4590001
0.41143632 0.18470052 1.4530001
0.41426882 0.18482763 1.4540001
0.41825151 0.18546322 1.4590001
0.42052123 0.1853361 1.4580001
0.42307758 0.1853361 1.4580001
0.42563394 0.1853361 1.4580001
0.42848399 0.18546322 1.4590001
0.43163297 0.18571745 1.4610001
0.38410097 0.18634602 1.4460001
0.38663629 0.18634602 1.4460001
0.38944075 0.18647489 1.447
0.39197782 0.18647489 1.447
0.41882488 0.18827906 1.4610001
0.42109805 0.1881502 1.46
0.3637816 0.19018757 1.4560001
0.36633444 0.19018757 1.4560001
0.36787388 0.18966508 1.452
0.37041971 0.18966508 1.452
0.3637816 0.19274043 1.4560001
0.36482483 0.19194616 1.45
0.36736718 0.19194616 1.45
0.33846521 0.19395198 1.4460001
0.34100053 0.19395198 1.4460001
0.36228248 0.1944885 1.45
0.3237004 0.19675906 1.4480001
0.32832393 0.19648729 1.4460001
0.33040163 0.19621553 1.4440001
0.33339459 0.19648729 1.4460001
0.3359299 0.19648729 1.4460001
0.33846521 0.19648729 1.4460001
0.34100053 0.19648729 1.4460001
0.34750715 0.19730259 1.452
0.31542906 0.19888498 1.4450001
0.31818265 0.19902262 1.4460001
0.32071799 0.19902262 1.4460001
0.3232533 0.19902262 1.4460001
0.32578862 0.19902262 1.4460001
0.32832393 0.19902262 1.4460001
0.34750715 0.19984844 1.452
0.30276123 0.20141855 1.4450001
0.30402711 0.20058221 1.439
0.31036192 0.20141855 1.4450001
0.31289548 0.20141855 1.4450001
0.2781935 0.20451669 1.4490001
0.28092784 0.20465784 1.45
0.28327468 0.20451669 1.4490001
0.2860125 0.20465784 1.45
0.28855482 0.20465784 1.45
0.29089642 0.20451669 1.4490001
0.29323447 0.20437555 1.4480001
0.2957733 0.20437555 1.4480001
0.29707602 0.20352869 1.442
0.30001989 0.20381097 1.4440001
0.26005003 0.20677148 1.447
0.26276857 0.20691437 1.4480001
0.26549062 0.20705727 1.4490001
0.26673636 0.206057 1.442
0.26945138 0.20619988 1.4430001
0.27330083 0.20720017 1.45
0.27565292 0.20705727 1.4490001
0.2781935 0.20705727 1.4490001
0.28092784 0.20720017 1.45
0.28327468 0.20705727 1.4490001
0.2860125 0.20720017 1.45
0.28855482 0.20720017 1.45
0.29089642 0.20705727 1.4490001
0.29323447 0.20691437 1.4480001
0.2488655 0.20844065 1.4410001
0.25751293 0.20930855 1.447
0.2678462 0.2094532 1.4480001
0.27057177 0.20959786 1.4490001
0.27311236 0.20959786 1.4490001
0.27546269 0.2094532 1.4480001
0.2781935 0.20959786 1.4490001
0.28073409 0.20959786 1.4490001
0.28327468 0.20959786 1.4490001
0.2860125 0.2097425 1.45
0.28855482 0.2097425 1.45
0.29089642 0.20959786 1.4490001
0.2438124 0.2109672 1.4410001
0.24650989 0.2111136 1.442
0.23273309 0.21260482 1.4350001
0.23524912 0.21260482 1.4350001
0.2062709 0.21377166 1.4260001
0.22230075 0.21721959 1.4490001
0.2239103 0.21632013 1.4430001
0.22644037 0.21632013 1.4430001
0.22865307 0.21602032 1.4410001
0.21647003 0.21900184 1.4440001
0.2188502 0.2188502 1.4430001
0.22230075 0.21976016 1.4490001
0.2239103 0.2188502 1.4430001
0.22644037 0.2188502 1.4430001
0.21393822 0.22153367 1.4440001
0.21647003 0.22153367 1.4440001
0.2188502 0.22138025 1.4430001
0.22153367 0.22153367 1.4440001
0.18479958 0.22251378 1.434
0.21900184 0.22406548 1.4440001
0.22153367 0.22406548 1.4440001
