# .PCD v0.7 - Point Cloud Data file format
VERSION 0.7
FIELDS x y z
SIZE 4 4 4
TYPE F F F
COUNT 1 1 1
WIDTH 1607
HEIGHT 1
VIEWPOINT 0 0 0 1 0 0 0
POINTS 1607
DATA ascii
0.36452764 0.39035249 1.133
0.36683765 0.39069703 1.1340001
0.36947644 0.39138609 1.136
0.36983323 0.38966343 1.131
0.37181625 0.38966343 1.131
0.37280777 0.38862982 1.128
0.37445325 0.38828531 1.1270001
0.3777653 0.38966343 1.131
0.37974831 0.38966343 1.131
0.38308141 0.39104155 1.1350001
0.38337511 0.38931888 1.13
0.38535637 0.38931888 1.13
0.38733763 0.38931888 1.13
0.38931888 0.38931888 1.13
0.39130017 0.38931888 1.13
0.39154124 0.38759625 1.125
0.39351374 0.38759625 1.125
0.39548624 0.38759625 1.125
0.39710546 0.3872517 1.1240001
0.40085146 0.38897437 1.1290001
0.40461498 0.39069703 1.1340001
0.40660325 0.39069703 1.1340001
0.40823123 0.39035249 1.133
0.41021776 0.39035249 1.133
0.41293192 0.39104155 1.1350001
0.41638422 0.39241967 1.1390001
0.41801396 0.39207515 1.138
0.41964015 0.39173061 1.1370001
0.42163372 0.39173061 1.1370001
0.42250949 0.39069703 1.1340001
0.42449778 0.39069703 1.1340001
0.42648605 0.39069703 1.1340001
0.4280965 0.39035249 1.133
0.43084222 0.39104155 1.1350001
0.43283224 0.39104155 1.1350001
0.43367296 0.39000794 1.1320001
0.43719718 0.39138609 1.136
0.43918896 0.39138609 1.136
0.44156912 0.39173061 1.1370001
0.44512311 0.39310873 1.141
0.44633994 0.39241967 1.1390001
0.44676247 0.39104155 1.1350001
0.44796175 0.39035249 1.133
0.44835976 0.38897437 1.1290001
0.45033929 0.38897437 1.1290001
0.45231879 0.38897437 1.1290001
0.45429832 0.38897437 1.1290001
0.45627782 0.38897437 1.1290001
0.45825735 0.38897437 1.1290001
0.46023685 0.38897437 1.1290001
0.46221635 0.38897437 1.1290001
0.46419588 0.38897437 1.1290001
0.46617538 0.38897437 1.1290001
0.46815491 0.38897437 1.1290001
0.46846876 0.38759625 1.125
0.47085941 0.38794076 1.126
0.47325361 0.38828531 1.1270001
0.47522959 0.38828531 1.1270001
0.47762904 0.38862982 1.128
0.48130754 0.39000794 1.1320001
0.48329231 0.39000794 1.1320001
0.48527709 0.39000794 1.1320001
0.48855317 0.39104155 1.1350001
0.49054322 0.39104155 1.1350001
0.49209929 0.39069703 1.1340001
0.49408758 0.39069703 1.1340001
0.49520093 0.39000794 1.1320001
0.49938178 0.39173061 1.1370001
0.50137532 0.39173061 1.1370001
0.50292611 0.39138609 1.136
0.50669581 0.39276421 1.1400001
0.50914085 0.39310873 1.141
0.50710958 0.39000794 1.1320001
0.50909436 0.39000794 1.1320001
0.51288503 0.39138609 1.136
0.51306391 0.39000794 1.1320001
0.51595867 0.39069703 1.1340001
0.5188604 0.39138609 1.136
0.51947671 0.39035249 1.133
0.52100301 0.39000794 1.1320001
0.52437377 0.39104155 1.1350001
0.52636379 0.39104155 1.1350001
0.52835387 0.39104155 1.1350001
0.53034389 0.39104155 1.1350001
0.53233391 0.39104155 1.1350001
0.53432393 0.39104155 1.1350001
0.53631395 0.39104155 1.1350001
0.53688121 0.39000794 1.1320001
0.53791392 0.38931888 1.13
0.54132849 0.39035249 1.133
0.54331505 0.39035249 1.133
0.54626417 0.39104155 1.1350001
0.54873723 0.39138609 1.136
0.5487898 0.39000794 1.1320001
0.55126113 0.39035249 1.133
0.55178279 0.38931888 1.13
0.55425411 0.38966343 1.131
0.55967975 0.39207515 1.138
0.55575234 0.38794076 1.126
0.55772656 0.38794076 1.126
0.55920374 0.38759625 1.125
0.31287795 0.39995724 1.1550001
0.31381246 0.39857212 1.151
0.31555617 0.39822584 1.1500001
0.31619176 0.39649442 1.1450001
0.3168098 0.39476299 1.1400001
0.31880859 0.39476299 1.1400001
0.3208074 0.39476299 1.1400001
0.32195669 0.39372414 1.1370001
0.3230955 0.39268529 1.1340001
0.32537046 0.39303157 1.1350001
0.32736048 0.39303157 1.1350001
0.3293505 0.39303157 1.1350001
0.33134055 0.39303157 1.1350001
0.33450532 0.39441672 1.1390001
0.33650237 0.39441672 1.1390001
0.33612189 0.39164644 1.131
0.3381049 0.39164644 1.131
0.33978724 0.39130017 1.13
0.34328076 0.39303157 1.1350001
0.34648758 0.39441672 1.1390001
0.34848464 0.39441672 1.1390001
0.35048169 0.39441672 1.1390001
0.35371658 0.39580184 1.143
0.35447577 0.39441672 1.1390001
0.35647282 0.39441672 1.1390001
0.35846987 0.39441672 1.1390001
0.35951748 0.39337787 1.136
0.35991812 0.39164644 1.131
0.36190113 0.39164644 1.131
0.36324069 0.39095387 1.1290001
0.36554369 0.39130017 1.13
0.36785021 0.39164644 1.131
0.36852524 0.39026132 1.1270001
0.37050125 0.39026132 1.1270001
0.37280777 0.3906076 1.128
0.37445325 0.39026132 1.1270001
0.3777653 0.39164644 1.131
0.37974831 0.39164644 1.131
0.38173136 0.39164644 1.131
0.38371438 0.39164644 1.131
0.38433328 0.39026132 1.1270001
0.38562375 0.38956875 1.125
0.38931888 0.39130017 1.13
0.38956875 0.38956875 1.125
0.39154124 0.38956875 1.125
0.39351374 0.38956875 1.125
0.39548624 0.38956875 1.125
0.39745876 0.38956875 1.125
0.40085146 0.39095387 1.1290001
0.40283096 0.39095387 1.1290001
0.40516904 0.39130017 1.13
0.40678999 0.39095387 1.1290001
0.40876949 0.39095387 1.1290001
0.41256809 0.39268529 1.1340001
0.41455638 0.39268529 1.1340001
0.41764662 0.39372414 1.1370001
0.41964015 0.39372414 1.1370001
0.42126289 0.39337787 1.136
0.42250949 0.39268529 1.1340001
0.42449778 0.39268529 1.1340001
0.42535779 0.39164644 1.131
0.42734081 0.39164644 1.131
0.42932382 0.39164644 1.131
0.43206954 0.39233902 1.133
0.43367296 0.39199272 1.1320001
0.43565774 0.39199272 1.1320001
0.43918896 0.39337787 1.136
0.44118074 0.39337787 1.136
0.44317254 0.39337787 1.136
0.44516432 0.39337787 1.136
0.44558161 0.39199272 1.1320001
0.447171 0.39164644 1.131
0.44915402 0.39164644 1.131
0.45033929 0.39095387 1.1290001
0.45231879 0.39095387 1.1290001
0.45429832 0.39095387 1.1290001
0.45627782 0.39095387 1.1290001
0.45825735 0.39095387 1.1290001
0.46023685 0.39095387 1.1290001
0.46221635 0.39095387 1.1290001
0.46419588 0.39095387 1.1290001
0.46617538 0.39095387 1.1290001
0.46815491 0.39095387 1.1290001
0.46888515 0.38991502 1.126
0.47085941 0.38991502 1.126
0.47325361 0.39026132 1.1270001
0.47522959 0.39026132 1.1270001
0.4772056 0.39026132 1.1270001
0.47960681 0.3906076 1.128
0.48158455 0.3906076 1.128
0.48527709 0.39199272 1.1320001
0.48726186 0.39199272 1.1320001
0.48881441 0.39164644 1.131
0.49253324 0.39303157 1.1350001
0.49408758 0.39268529 1.1340001
0.49520093 0.39199272 1.1320001
0.49938178 0.39372414 1.1370001
0.50093436 0.39337787 1.136
0.50248343 0.39303157 1.1350001
0.50491792 0.39337787 1.136
0.50690973 0.39337787 1.136
0.50666159 0.39164644 1.131
0.50909436 0.39199272 1.1320001
0.51107913 0.39199272 1.1320001
0.51306391 0.39199272 1.1320001
0.51595867 0.39268529 1.1340001
0.51794696 0.39268529 1.1340001
0.51947671 0.39233902 1.133
0.52146327 0.39233902 1.133
0.52483577 0.39337787 1.136
0.52682757 0.39337787 1.136
0.53068137 0.39476299 1.1400001
0.53034389 0.39303157 1.1350001
0.53327197 0.39372414 1.1370001
0.53526551 0.39372414 1.1370001
0.53631395 0.39303157 1.1350001
0.53545833 0.39095387 1.1290001
0.53743786 0.39095387 1.1290001
0.53941739 0.39095387 1.1290001
0.54187644 0.39130017 1.13
0.54530156 0.39233902 1.133
0.54728812 0.39233902 1.133
0.54782021 0.39130017 1.13
0.54980147 0.39130017 1.13
0.55324769 0.39233902 1.133
0.55572426 0.39268529 1.1340001
0.55771255 0.39268529 1.1340001
0.55624586 0.39026132 1.1270001
0.55822188 0.39026132 1.1270001
0.56019789 0.39026132 1.1270001
0.31260705 0.40163431 1.154
0.31353983 0.40024215 1.1500001
0.31500736 0.39954609 1.148
0.31619176 0.39850199 1.1450001
0.3168098 0.3967618 1.1400001
0.31880859 0.3967618 1.1400001
0.31940034 0.39502162 1.1350001
0.31997457 0.39328143 1.13
0.32224074 0.39362946 1.131
0.32422376 0.39362946 1.131
0.3250531 0.39223734 1.1270001
0.32702911 0.39223734 1.1270001
0.32988089 0.39328143 1.13
0.33215585 0.39362946 1.131
0.33413887 0.39362946 1.131
0.33493313 0.39223734 1.1270001
0.33690915 0.39223734 1.1270001
0.33858445 0.39188927 1.126
0.34207094 0.39362946 1.131
0.34405395 0.39362946 1.131
0.3472608 0.39502162 1.1350001
0.34925085 0.39502162 1.1350001
0.35093141 0.39467359 1.1340001
0.35385334 0.39571768 1.1370001
0.35490799 0.39467359 1.1340001
0.35721099 0.39502162 1.1350001
0.3579351 0.39362946 1.131
0.35832697 0.39188927 1.126
0.36030123 0.39188927 1.126
0.36324069 0.3929334 1.1290001
0.36522022 0.3929334 1.1290001
0.36785021 0.39362946 1.131
0.36721724 0.39084518 1.123
0.369515 0.39119321 1.1240001
0.37148574 0.39119321 1.1240001
0.37345648 0.39119321 1.1240001
0.37642926 0.39223734 1.1270001
0.37974831 0.39362946 1.131
0.38173136 0.39362946 1.131
0.38371438 0.39362946 1.131
0.38331023 0.39119321 1.1240001
0.38459542 0.39049715 1.1220001
0.38690719 0.39084518 1.123
0.3885299 0.39049715 1.1220001
0.39049715 0.39049715 1.1220001
0.39246437 0.39049715 1.1220001
0.39443162 0.39049715 1.1220001
0.39745876 0.39154124 1.125
0.40120649 0.39328143 1.13
0.40318775 0.39328143 1.13
0.40481049 0.3929334 1.1290001
0.40678999 0.3929334 1.1290001
0.40876949 0.3929334 1.1290001
0.41256809 0.39467359 1.1340001
0.41455638 0.39467359 1.1340001
0.41691199 0.39502162 1.1350001
0.41853294 0.39467359 1.1340001
0.4201504 0.39432555 1.133
0.42288208 0.39502162 1.1350001
0.4248721 0.39502162 1.1350001
0.42573386 0.39397749 1.1320001
0.42582944 0.39223734 1.1270001
0.42818505 0.39258537 1.128
0.43016279 0.39258537 1.128
0.43252367 0.3929334 1.1290001
0.43565774 0.39397749 1.1320001
0.43918896 0.39536965 1.136
0.44118074 0.39536965 1.136
0.44200218 0.39432555 1.133
0.44359684 0.39397749 1.1320001
0.44558161 0.39397749 1.1320001
0.44756639 0.39397749 1.1320001
0.44915402 0.39362946 1.131
0.44994038 0.39258537 1.128
0.45031562 0.39119321 1.1240001
0.45268875 0.39154124 1.125
0.45466125 0.39154124 1.125
0.45622784 0.39119321 1.1240001
0.46023685 0.3929334 1.1290001
0.46221635 0.3929334 1.1290001
0.46419588 0.3929334 1.1290001
0.46617538 0.3929334 1.1290001
0.46815491 0.3929334 1.1290001
0.47055084 0.39328143 1.13
0.47085941 0.39188927 1.126
0.47325361 0.39223734 1.1270001
0.47522959 0.39223734 1.1270001
0.4772056 0.39223734 1.1270001
0.47960681 0.39258537 1.128
0.48158455 0.39258537 1.128
0.48356232 0.39258537 1.128
0.48554006 0.39258537 1.128
0.48708564 0.39223734 1.1270001
0.49079746 0.39362946 1.131
0.49321616 0.39397749 1.1320001
0.49520093 0.39397749 1.1320001
0.49762493 0.39432555 1.133
0.49961147 0.39432555 1.133
0.50071257 0.39362946 1.131
0.50536239 0.39571768 1.1370001
0.50735593 0.39571768 1.1370001
0.50890148 0.39536965 1.136
0.51089329 0.39536965 1.136
0.51107913 0.39397749 1.1320001
0.51351714 0.39432555 1.133
0.51641363 0.39502162 1.1350001
0.51840371 0.39502162 1.1350001
0.51901823 0.39397749 1.1320001
0.52100301 0.39397749 1.1320001
0.52483577 0.39536965 1.136
0.52682757 0.39536965 1.136
0.52695733 0.39397749 1.1320001
0.52660578 0.39223734 1.1270001
0.52998883 0.39328143 1.13
0.53385317 0.39467359 1.1340001
0.53489643 0.39397749 1.1320001
0.53545833 0.3929334 1.1290001
0.53743786 0.3929334 1.1290001
0.54037297 0.39362946 1.131
0.54283547 0.39397749 1.1320001
0.54626417 0.39502162 1.1350001
0.54632199 0.39362946 1.131
0.54782021 0.39328143 1.13
0.54980147 0.39328143 1.13
0.55080616 0.39258537 1.128
0.55180383 0.39188927 1.126
0.55426985 0.39223734 1.1270001
0.55624586 0.39223734 1.1270001
0.55822188 0.39223734 1.1270001
0.56019789 0.39223734 1.1270001
0.32433423 0.4270936 1.2210001
0.31219852 0.40575638 1.1600001
0.3115235 0.40225849 1.1500001
0.3132672 0.4019087 1.149
0.31473297 0.40120912 1.1470001
0.31481099 0.39876059 1.1400001
0.31569818 0.39736143 1.136
0.31713066 0.39666185 1.1340001
0.31771189 0.3949129 1.1290001
0.32025772 0.39561248 1.131
0.32110107 0.39421332 1.1270001
0.32221708 0.39316395 1.1240001
0.32418782 0.39316395 1.1240001
0.32615858 0.39316395 1.1240001
0.32783738 0.39281416 1.123
0.33010006 0.39316395 1.1240001
0.33325255 0.39456311 1.128
0.33523032 0.39456311 1.128
0.3366102 0.39386353 1.126
0.33828375 0.39351374 1.125
0.3417685 0.39526269 1.13
0.34344557 0.3949129 1.1290001
0.34542507 0.3949129 1.1290001
0.3474046 0.3949129 1.1290001
0.3493841 0.3949129 1.1290001
0.35136363 0.3949129 1.1290001
0.35334313 0.3949129 1.1290001
0.35595208 0.39561248 1.131
0.35635272 0.39386353 1.126
0.35705405 0.39246437 1.1220001
0.35902131 0.39246437 1.1220001
0.36195374 0.39351374 1.125
0.36392626 0.39351374 1.125
0.36622399 0.39386353 1.126
0.36721724 0.39281416 1.123
0.369515 0.39316395 1.1240001
0.37148574 0.39316395 1.1240001
0.37345648 0.39316395 1.1240001
0.37542725 0.39316395 1.1240001
0.37840527 0.39421332 1.1270001
0.38173136 0.39561248 1.131
0.3823573 0.39421332 1.1270001
0.38194612 0.39176479 1.12
0.38356709 0.391415 1.1190001
0.38552907 0.391415 1.1190001
0.38714477 0.39106521 1.118
0.38910499 0.39106521 1.118
0.39246437 0.39246437 1.1220001
0.39443162 0.39246437 1.1220001
0.39639887 0.39246437 1.1220001
0.39943126 0.39351374 1.125
0.40283096 0.3949129 1.1290001
0.40481049 0.3949129 1.1290001
0.40678999 0.3949129 1.1290001
0.40876949 0.3949129 1.1290001
0.41256809 0.39666185 1.1340001
0.41455638 0.39666185 1.1340001
0.4172793 0.39736143 1.136
0.41927108 0.39736143 1.136
0.41903791 0.39526269 1.13
0.42139176 0.39561248 1.131
0.42337477 0.39561248 1.131
0.42460561 0.3949129 1.1290001
0.42658511 0.3949129 1.1290001
0.42818505 0.39456311 1.128
0.43092549 0.39526269 1.13
0.43252367 0.3949129 1.1290001
0.43565774 0.39596227 1.1320001
0.43764251 0.39596227 1.1320001
0.43923894 0.39561248 1.131
0.44161206 0.39596227 1.1320001
0.44359684 0.39596227 1.1320001
0.4436135 0.39421332 1.1270001
0.44558951 0.39421332 1.1270001
0.44557986 0.39246437 1.1220001
0.44635046 0.391415 1.1190001
0.44831243 0.391415 1.1190001
0.4506768 0.39176479 1.12
0.45264053 0.39176479 1.12
0.45419836 0.391415 1.1190001
0.45860624 0.39351374 1.125
0.46057874 0.39351374 1.125
0.46419588 0.3949129 1.1290001
0.46452373 0.39351374 1.125
0.46649626 0.39351374 1.125
0.47055084 0.39526269 1.13
0.47085941 0.39386353 1.126
0.47283366 0.39386353 1.126
0.47480792 0.39386353 1.126
0.47508845 0.39246437 1.1220001
0.47748089 0.39281416 1.123
0.48073068 0.39386353 1.126
0.48356232 0.39456311 1.128
0.48554006 0.39456311 1.128
0.48708564 0.39421332 1.1270001
0.48906165 0.39421332 1.1270001
0.49147335 0.39456311 1.128
0.49388859 0.3949129 1.1290001
0.49630728 0.39526269 1.13
0.49828857 0.39526269 1.13
0.49982712 0.3949129 1.1290001
0.50314003 0.39596227 1.1320001
0.50512481 0.39596227 1.1320001
0.50845349 0.39701164 1.1350001
0.50864464 0.39561248 1.131
0.51062763 0.39561248 1.131
0.51306391 0.39596227 1.1320001
0.51595867 0.39666185 1.1340001
0.51840371 0.39701164 1.1350001
0.51855975 0.39561248 1.131
0.52008247 0.39526269 1.13
0.52206379 0.39526269 1.13
0.52265376 0.39421332 1.1270001
0.52462977 0.39421332 1.1270001
0.52426946 0.39246437 1.1220001
0.52717471 0.39316395 1.1240001
0.52961624 0.39351374 1.125
0.53347886 0.3949129 1.1290001
0.53308696 0.39316395 1.1240001
0.53600979 0.39386353 1.126
0.53798401 0.39386353 1.126
0.54187644 0.39526269 1.13
0.54385769 0.39526269 1.13
0.54390681 0.39386353 1.126
0.54588103 0.39386353 1.126
0.55028802 0.39561248 1.131
0.55080616 0.39456311 1.128
0.55131376 0.39351374 1.125
0.55377805 0.39386353 1.126
0.55575234 0.39386353 1.126
0.55822188 0.39421332 1.1270001
0.56019789 0.39421332 1.1270001
0.32406861 0.42888287 1.22
0.32620767 0.42888287 1.22
0.31219852 0.40779027 1.1600001
0.3115235 0.40427482 1.1500001
0.3132672 0.40392327 1.149
0.31473297 0.40322021 1.1470001
0.31453484 0.40040785 1.1390001
0.31542027 0.39900169 1.1350001
0.31713066 0.39865014 1.1340001
0.31799328 0.39724398 1.13
0.31912509 0.39618933 1.1270001
0.32024634 0.39513472 1.1240001
0.32221708 0.39513472 1.1240001
0.32303414 0.39372852 1.12
0.32499787 0.39372852 1.12
0.32666966 0.39337698 1.1190001
0.32892534 0.39372852 1.12
0.33088908 0.39372852 1.12
0.33523032 0.39654088 1.128
0.33571336 0.39478317 1.123
0.33738166 0.39443162 1.1220001
0.34025624 0.39548624 1.125
0.34222874 0.39548624 1.125
0.34420124 0.39548624 1.125
0.34617373 0.39548624 1.125
0.34814626 0.39548624 1.125
0.35011876 0.39548624 1.125
0.35334313 0.39689243 1.1290001
0.35311958 0.39443162 1.1220001
0.35413739 0.39337698 1.1190001
0.35578114 0.39302546 1.118
0.35774136 0.39302546 1.118
0.3597016 0.39302546 1.118
0.36392626 0.39548624 1.125
0.36654922 0.39618933 1.1270001
0.36525527 0.39267391 1.1170001
0.36754251 0.39302546 1.118
0.36950272 0.39302546 1.118
0.37146294 0.39302546 1.118
0.37342319 0.39302546 1.118
0.37806952 0.39583778 1.126
0.38004377 0.39583778 1.126
0.38100022 0.39478317 1.123
0.38160512 0.39337698 1.1190001
0.38288152 0.39267391 1.1170001
0.38518453 0.39302546 1.118
0.38679847 0.39267391 1.1170001
0.38875696 0.39267391 1.1170001
0.39246437 0.39443162 1.1220001
0.39443162 0.39443162 1.1220001
0.39639887 0.39443162 1.1220001
0.39801106 0.39408007 1.1210001
0.40140375 0.39548624 1.125
0.40337625 0.39548624 1.125
0.40534875 0.39548624 1.125
0.40768331 0.39583778 1.126
0.41111284 0.39724398 1.13
0.4130941 0.39724398 1.13
0.41544268 0.39759549 1.131
0.41742572 0.39759549 1.131
0.41792542 0.39618933 1.1270001
0.4199014 0.39618933 1.1270001
0.42187741 0.39618933 1.1270001
0.42385343 0.39618933 1.1270001
0.42545158 0.39583778 1.126
0.42704624 0.39548624 1.125
0.42978144 0.39618933 1.1270001
0.43137434 0.39583778 1.126
0.43604261 0.39829859 1.133
0.43802914 0.39829859 1.133
0.44001564 0.39829859 1.133
0.44044173 0.39689243 1.1290001
0.44202936 0.39654088 1.128
0.44243261 0.39513472 1.1240001
0.44400799 0.39478317 1.123
0.44557986 0.39443162 1.1220001
0.4451538 0.39232236 1.1160001
0.4471105 0.39232236 1.1160001
0.44946963 0.39267391 1.1170001
0.45142809 0.39267391 1.1170001
0.45419836 0.39337698 1.1190001
0.45616034 0.39337698 1.1190001
0.46016935 0.39513472 1.1240001
0.46255124 0.39548624 1.125
0.46452373 0.39548624 1.125
0.46649626 0.39548624 1.125
0.46846876 0.39548624 1.125
0.47085941 0.39583778 1.126
0.47283366 0.39583778 1.126
0.47312123 0.39443162 1.1220001
0.47508845 0.39443162 1.1220001
0.4770557 0.39443162 1.1220001
0.478596 0.39408007 1.1210001
0.48184755 0.39513472 1.1240001
0.48381829 0.39513472 1.1240001
0.48535687 0.39478317 1.123
0.48732585 0.39478317 1.123
0.48929483 0.39478317 1.123
0.48995146 0.39372852 1.12
0.4919152 0.39372852 1.12
0.49564278 0.39513472 1.1240001
0.49805623 0.39548624 1.125
0.50180662 0.39689243 1.1290001
0.50333995 0.39654088 1.128
0.50666159 0.39759549 1.131
0.50864464 0.39759549 1.131
0.51107913 0.39794704 1.1320001
0.51306391 0.39794704 1.1320001
0.51504868 0.39794704 1.1320001
0.51383626 0.39548624 1.125
0.51351625 0.39372852 1.12
0.51640052 0.39443162 1.1220001
0.51698172 0.39337698 1.1190001
0.51894373 0.39337698 1.1190001
0.5218367 0.39408007 1.1210001
0.52426946 0.39443162 1.1220001
0.52623671 0.39443162 1.1220001
0.52820396 0.39443162 1.1220001
0.5306437 0.39478317 1.123
0.53071558 0.39337698 1.1190001
0.53267759 0.39337698 1.1190001
0.53607291 0.39443162 1.1220001
0.53804016 0.39443162 1.1220001
0.54096997 0.39513472 1.1240001
0.54294068 0.39513472 1.1240001
0.54539627 0.39548624 1.125
0.54834187 0.39618933 1.1270001
0.55080616 0.39654088 1.128
0.55131376 0.39548624 1.125
0.55377805 0.39583778 1.126
0.55328447 0.39408007 1.1210001
0.5557453 0.39443162 1.1220001
0.55970079 0.39583778 1.126
0.32406861 0.43102193 1.22
0.32620767 0.43102193 1.22
0.31300595 0.41088402 1.1630001
0.3115235 0.40629116 1.1500001
0.31353983 0.40629116 1.1500001
0.31363538 0.4038181 1.143
0.31481099 0.40275821 1.1400001
0.31569818 0.40134501 1.136
0.31713066 0.40063843 1.1340001
0.31799328 0.39922523 1.13
0.31912509 0.39816535 1.1270001
0.32024634 0.39710546 1.1240001
0.3210704 0.39569226 1.12
0.32216886 0.39463237 1.1170001
0.32383716 0.39427906 1.1160001
0.32579389 0.39427906 1.1160001
0.3280443 0.39463237 1.1170001
0.33088908 0.39569226 1.12
0.33285281 0.39569226 1.12
0.3345176 0.39533898 1.1190001
0.33617887 0.39498568 1.118
0.33934891 0.39639887 1.1220001
0.34131613 0.39639887 1.1220001
0.34297743 0.39604557 1.1210001
0.34340435 0.39427906 1.1160001
0.34567055 0.39463237 1.1170001
0.34762901 0.39463237 1.1170001
0.3495875 0.39463237 1.1170001
0.3509165 0.39392579 1.115
0.35318795 0.39427906 1.1160001
0.35514468 0.39427906 1.1160001
0.35678142 0.39392579 1.115
0.35841465 0.39357248 1.1140001
0.36069134 0.39392579 1.115
0.36297154 0.39427906 1.1160001
0.36427429 0.39357248 1.1140001
0.36754251 0.39498568 1.118
0.36950272 0.39498568 1.118
0.37146294 0.39498568 1.118
0.37342319 0.39498568 1.118
0.37538341 0.39498568 1.118
0.37734362 0.39498568 1.118
0.37964314 0.39533898 1.1190001
0.38194612 0.39569226 1.12
0.38390985 0.39569226 1.12
0.38518453 0.39498568 1.118
0.38714477 0.39498568 1.118
0.38875696 0.39463237 1.1170001
0.39246437 0.39639887 1.1220001
0.39443162 0.39639887 1.1220001
0.39639887 0.39639887 1.1220001
0.39836609 0.39639887 1.1220001
0.40140375 0.39745876 1.125
0.40194201 0.39604557 1.1210001
0.40462813 0.39675215 1.123
0.40768331 0.39781204 1.126
0.40965757 0.39781204 1.126
0.41163182 0.39781204 1.126
0.41397339 0.39816535 1.1270001
0.41558033 0.39781204 1.126
0.41792542 0.39816535 1.1270001
0.4199014 0.39816535 1.1270001
0.4207544 0.39710546 1.1240001
0.42234907 0.39675215 1.123
0.42431808 0.39675215 1.123
0.42628706 0.39675215 1.123
0.42673063 0.39533898 1.1190001
0.42830953 0.39498568 1.118
0.43219402 0.39675215 1.123
0.43686929 0.39922523 1.13
0.4384622 0.39887193 1.1290001
0.43810102 0.39675215 1.123
0.43928626 0.39604557 1.1210001
0.44085813 0.39569226 1.12
0.44282186 0.39569226 1.12
0.44478559 0.39569226 1.12
0.4451538 0.39427906 1.1160001
0.44590861 0.39321917 1.113
0.44786006 0.39321917 1.113
0.45102397 0.39427906 1.1160001
0.45298067 0.39427906 1.1160001
0.4549374 0.39427906 1.1160001
0.45689413 0.39427906 1.1160001
0.46090662 0.39604557 1.1210001
0.46287212 0.39604557 1.1210001
0.46483758 0.39604557 1.1210001
0.46555382 0.39498568 1.118
0.46751407 0.39498568 1.118
0.47073406 0.39604557 1.1210001
0.4714345 0.39498568 1.118
0.47339475 0.39498568 1.118
0.47535497 0.39498568 1.118
0.478596 0.39604557 1.1210001
0.48013279 0.39569226 1.12
0.48209652 0.39569226 1.12
0.48406026 0.39569226 1.12
0.48732585 0.39675215 1.123
0.48842344 0.39604557 1.1210001
0.48951399 0.39533898 1.1190001
0.48884073 0.39321917 1.113
0.49079219 0.39321917 1.113
0.49495724 0.39498568 1.118
0.50002873 0.39745876 1.125
0.50378615 0.39887193 1.1290001
0.50531769 0.39851865 1.128
0.50729543 0.39851865 1.128
0.50972468 0.39887193 1.1290001
0.51215744 0.39922523 1.13
0.5141387 0.39922523 1.13
0.51246601 0.39639887 1.1220001
0.51168227 0.39427906 1.1160001
0.51501977 0.39533898 1.1190001
0.51698172 0.39533898 1.1190001
0.51708865 0.39392579 1.115
0.51997465 0.39463237 1.1170001
0.52193314 0.39463237 1.1170001
0.52389163 0.39463237 1.1170001
0.52490854 0.39392579 1.115
0.52686352 0.39392579 1.115
0.52692139 0.39251259 1.1110001
0.52886933 0.39251259 1.1110001
0.53272843 0.39392579 1.115
0.53612196 0.39498568 1.118
0.54000735 0.39639887 1.1220001
0.54149157 0.39604557 1.1210001
0.54394186 0.39639887 1.1220001
0.54785532 0.39781204 1.126
0.54934126 0.39745876 1.125
0.55131376 0.39745876 1.125
0.55377805 0.39781204 1.126
0.55328447 0.39604557 1.1210001
0.5557453 0.39639887 1.1220001
0.55970079 0.39781204 1.126
0.32539675 0.43493626 1.225
0.32700983 0.43422616 1.223
0.31300595 0.41292316 1.1630001
0.3117944 0.40866256 1.151
0.31217661 0.40653226 1.1450001
0.3139098 0.40617719 1.1440001
0.31343025 0.40298176 1.1350001
0.31347495 0.40049639 1.128
0.31601202 0.40120649 1.13
0.31799328 0.40120649 1.13
0.31912509 0.40014136 1.1270001
0.31910667 0.39765599 1.12
0.3202104 0.39659086 1.1170001
0.32216886 0.39659086 1.1170001
0.32412735 0.39659086 1.1170001
0.32637775 0.39694589 1.118
0.3280443 0.39659086 1.1170001
0.32970732 0.39623579 1.1160001
0.33166403 0.39623579 1.1160001
0.33421865 0.39694589 1.118
0.33587816 0.39659086 1.1170001
0.33783665 0.39659086 1.1170001
0.33979511 0.39659086 1.1170001
0.34144765 0.39623579 1.1160001
0.34340435 0.39623579 1.1160001
0.34443268 0.39517066 1.113
0.34638414 0.39517066 1.113
0.34896156 0.39588076 1.115
0.3509165 0.39588076 1.115
0.35192207 0.39481559 1.1120001
0.35418999 0.39517066 1.113
0.35614145 0.39517066 1.113
0.35905811 0.39623579 1.1160001
0.36101484 0.39623579 1.1160001
0.36264631 0.39588076 1.115
0.36427429 0.39552569 1.1140001
0.36754251 0.39694589 1.118
0.36950272 0.39694589 1.118
0.37146294 0.39694589 1.118
0.37342319 0.39694589 1.118
0.37538341 0.39694589 1.118
0.37734362 0.39694589 1.118
0.37964314 0.39730096 1.1190001
0.38092306 0.39659086 1.1170001
0.38288152 0.39659086 1.1170001
0.38415095 0.39588076 1.115
0.38610592 0.39588076 1.115
0.38771284 0.39552569 1.1140001
0.39106521 0.39694589 1.118
0.39302546 0.39694589 1.118
0.39498568 0.39694589 1.118
0.39836609 0.39836609 1.1220001
0.40033334 0.39836609 1.1220001
0.40194201 0.39801106 1.1210001
0.40462813 0.39872116 1.123
0.40659711 0.39872116 1.123
0.40856612 0.39872116 1.123
0.4105351 0.39872116 1.123
0.41287142 0.39907619 1.1240001
0.41447309 0.39872116 1.123
0.4164421 0.39872116 1.123
0.41729334 0.39765599 1.12
0.41925707 0.39765599 1.12
0.4208447 0.39730096 1.1190001
0.42242885 0.39694589 1.118
0.42476866 0.39730096 1.1190001
0.42673063 0.39730096 1.1190001
0.42869264 0.39730096 1.1190001
0.43026975 0.39694589 1.118
0.43416303 0.39872116 1.123
0.43419021 0.39694589 1.118
0.43615043 0.39694589 1.118
0.43771878 0.39659086 1.1170001
0.43928364 0.39623579 1.1160001
0.44084498 0.39588076 1.115
0.44279996 0.39588076 1.115
0.44395715 0.39517066 1.113
0.44550797 0.39481559 1.1120001
0.44786006 0.39517066 1.113
0.44981152 0.39517066 1.113
0.45176297 0.39517066 1.113
0.45330679 0.39481559 1.1120001
0.45525649 0.39481559 1.1120001
0.45761737 0.39517066 1.113
0.45956883 0.39517066 1.113
0.46152028 0.39517066 1.113
0.46347174 0.39517066 1.113
0.4654232 0.39517066 1.113
0.46737465 0.39517066 1.113
0.46974781 0.39552569 1.1140001
0.47170103 0.39552569 1.1140001
0.47365424 0.39552569 1.1140001
0.47731519 0.39694589 1.118
0.47970411 0.39730096 1.1190001
0.47994432 0.39588076 1.115
0.48276368 0.39659086 1.1170001
0.48428819 0.39623579 1.1160001
0.48668063 0.39659086 1.1170001
0.48820165 0.39623579 1.1160001
0.48927993 0.39552569 1.1140001
0.49079219 0.39517066 1.113
0.49318635 0.39552569 1.1140001
0.49691746 0.39694589 1.118
0.50021636 0.39801106 1.1210001
0.50173384 0.39765599 1.12
0.50774515 0.40085146 1.1290001
0.50791878 0.39943126 1.125
0.51079774 0.40014136 1.1270001
0.51277375 0.40014136 1.1270001
0.51109576 0.39730096 1.1190001
0.51030678 0.39517066 1.113
0.5127185 0.39552569 1.1140001
0.51513374 0.39588076 1.115
0.51708865 0.39588076 1.115
0.5181126 0.39517066 1.113
0.5209986 0.39588076 1.115
0.52248454 0.39552569 1.1140001
0.5225547 0.39410549 1.11
0.52450091 0.39410549 1.11
0.52692139 0.39446056 1.1110001
0.52886933 0.39446056 1.1110001
0.53081727 0.39446056 1.1110001
0.53228569 0.39410549 1.11
0.53615707 0.39552569 1.1140001
0.53811026 0.39552569 1.1140001
0.5400635 0.39552569 1.1140001
0.5439629 0.39694589 1.118
0.54885292 0.39907619 1.1240001
0.54886347 0.39765599 1.12
0.551319 0.39801106 1.1210001
0.55328447 0.39801106 1.1210001
0.55524999 0.39801106 1.1210001
0.55721545 0.39801106 1.1210001
0.32247481 0.43315923 1.2140001
0.31016466 0.41389185 1.1600001
0.3119294 0.41353506 1.159
0.3117944 0.41068062 1.151
0.31217661 0.4085398 1.1450001
0.3139098 0.40818301 1.1440001
0.31343025 0.40497178 1.1350001
0.31375286 0.40283096 1.1290001
0.31629169 0.40354457 1.131
0.31799328 0.40318775 1.13
0.31912509 0.40211734 1.1270001
0.31939158 0.39997652 1.1210001
0.32049707 0.39890611 1.118
0.32245728 0.39890611 1.118
0.32412735 0.39854932 1.1170001
0.32637775 0.39890611 1.118
0.3280443 0.39854932 1.1170001
0.32970732 0.39819252 1.1160001
0.33166403 0.39819252 1.1160001
0.33362076 0.39819252 1.1160001
0.33527678 0.3978357 1.115
0.33723176 0.3978357 1.115
0.33918673 0.3978357 1.115
0.34114167 0.3978357 1.115
0.34248123 0.39712211 1.113
0.34412321 0.39676529 1.1120001
0.34669536 0.39747891 1.1140001
0.34770966 0.3964085 1.1110001
0.34965762 0.3964085 1.1110001
0.35192207 0.39676529 1.1120001
0.35418999 0.39712211 1.113
0.35614145 0.39712211 1.113
0.35777116 0.39676529 1.1120001
0.35939738 0.3964085 1.1110001
0.36102009 0.3960517 1.11
0.3629663 0.3960517 1.11
0.36655626 0.3978357 1.115
0.3685112 0.3978357 1.115
0.37046617 0.3978357 1.115
0.37242115 0.3978357 1.115
0.37437612 0.3978357 1.115
0.37633109 0.3978357 1.115
0.37828603 0.3978357 1.115
0.38092306 0.39854932 1.1170001
0.38253877 0.39819252 1.1160001
0.38415095 0.3978357 1.115
0.38610592 0.3978357 1.115
0.38806087 0.3978357 1.115
0.391415 0.39926293 1.1190001
0.39337698 0.39926293 1.1190001
0.39533898 0.39926293 1.1190001
0.39730096 0.39926293 1.1190001
0.40104693 0.40104693 1.1240001
0.40122491 0.39926293 1.1190001
0.4035472 0.39961973 1.12
0.40695918 0.40104693 1.1240001
0.40856612 0.40069014 1.123
0.4105351 0.40069014 1.123
0.41066748 0.39890611 1.118
0.41336587 0.39961973 1.12
0.41532961 0.39961973 1.12
0.41729334 0.39961973 1.12
0.41888273 0.39926293 1.1190001
0.42046863 0.39890611 1.118
0.42129532 0.3978357 1.115
0.42325029 0.3978357 1.115
0.42558661 0.39819252 1.1160001
0.4271602 0.3978357 1.115
0.42873034 0.39747891 1.1140001
0.43068352 0.39747891 1.1140001
0.43224838 0.39712211 1.113
0.43419984 0.39712211 1.113
0.4361513 0.39712211 1.113
0.43770915 0.39676529 1.1120001
0.44124037 0.39819252 1.1160001
0.44319707 0.39819252 1.1160001
0.44395715 0.39712211 1.113
0.44590861 0.39712211 1.113
0.44665289 0.3960517 1.11
0.4485991 0.3960517 1.11
0.45176297 0.39712211 1.113
0.45330679 0.39676529 1.1120001
0.45566592 0.39712211 1.113
0.45761737 0.39712211 1.113
0.45833009 0.3960517 1.11
0.46027631 0.3960517 1.11
0.46347174 0.39712211 1.113
0.46584138 0.39747891 1.1140001
0.4677946 0.39747891 1.1140001
0.46806109 0.3960517 1.11
0.4700073 0.3960517 1.11
0.47322905 0.39712211 1.113
0.47475356 0.39676529 1.1120001
0.47713196 0.39712211 1.113
0.47951388 0.39747891 1.1140001
0.48103487 0.39712211 1.113
0.48298636 0.39712211 1.113
0.48493782 0.39712211 1.113
0.48688927 0.39712211 1.113
0.48796231 0.3964085 1.1110001
0.48946929 0.3960517 1.11
0.49185821 0.3964085 1.1110001
0.49513957 0.39747891 1.1140001
0.49843147 0.39854932 1.1170001
0.49546218 0.39462447 1.1060001
0.4978511 0.39498129 1.107
0.49979204 0.39498129 1.107
0.50218624 0.39533809 1.108
0.50412893 0.39533809 1.108
0.50926882 0.3978357 1.115
0.50938982 0.3964085 1.1110001
0.51179802 0.39676529 1.1120001
0.51420969 0.39712211 1.113
0.51616114 0.39712211 1.113
0.5181126 0.39712211 1.113
0.5214659 0.39819252 1.1160001
0.52295357 0.3978357 1.115
0.52302545 0.3964085 1.1110001
0.52497339 0.3964085 1.1110001
0.52502429 0.39498129 1.107
0.5269652 0.39498129 1.107
0.52890617 0.39498129 1.107
0.53036755 0.39462447 1.1060001
0.5342319 0.3960517 1.11
0.53617811 0.3960517 1.11
0.54054826 0.3978357 1.115
0.54250324 0.3978357 1.115
0.54689974 0.39961973 1.12
0.54886347 0.39961973 1.12
0.55082721 0.39961973 1.12
0.55131024 0.39854932 1.1170001
0.55326873 0.39854932 1.1170001
0.55572426 0.39890611 1.118
0.30892769 0.4170014 1.1630001
0.30989727 0.41556716 1.159
0.31166026 0.41520861 1.1580001
0.31233618 0.41341582 1.153
0.31190398 0.41018882 1.1440001
0.31363538 0.40983027 1.143
0.31453484 0.40839604 1.1390001
0.31375286 0.40481049 1.1290001
0.31629169 0.40552759 1.131
0.31827471 0.40552759 1.131
0.31912509 0.40409335 1.1270001
0.31939158 0.40194201 1.1210001
0.32049707 0.40086636 1.118
0.32245728 0.40086636 1.118
0.3244175 0.40086636 1.118
0.32637775 0.40086636 1.118
0.3280443 0.40050781 1.1170001
0.33000275 0.40050781 1.1170001
0.33166403 0.40014923 1.1160001
0.33362076 0.40014923 1.1160001
0.33557749 0.40014923 1.1160001
0.33753419 0.40014923 1.1160001
0.33918673 0.39979067 1.115
0.34114167 0.39979067 1.115
0.34094268 0.39728078 1.108
0.34319484 0.39763933 1.1090001
0.34513929 0.39763933 1.1090001
0.3473967 0.39799789 1.11
0.34934291 0.39799789 1.11
0.35128909 0.39799789 1.11
0.35355353 0.39835647 1.1110001
0.35518149 0.39799789 1.11
0.3571277 0.39799789 1.11
0.3587504 0.39763933 1.1090001
0.36102009 0.39799789 1.11
0.3629663 0.39799789 1.11
0.36655626 0.39979067 1.115
0.3685112 0.39979067 1.115
0.37046617 0.39979067 1.115
0.37242115 0.39979067 1.115
0.37437612 0.39979067 1.115
0.37498102 0.39835647 1.1110001
0.37692896 0.39835647 1.1110001
0.37955898 0.39907357 1.113
0.38151044 0.39907357 1.113
0.38277283 0.39835647 1.1110001
0.38472077 0.39835647 1.1110001
0.38666874 0.39835647 1.1110001
0.391415 0.40122491 1.1190001
0.39232236 0.40014923 1.1160001
0.39427906 0.40014923 1.1160001
0.39659086 0.40050781 1.1170001
0.39854932 0.40050781 1.1170001
0.40014923 0.40014923 1.1160001
0.40246627 0.40050781 1.1170001
0.40551093 0.40158346 1.12
0.40747467 0.40158346 1.12
0.40834168 0.40050781 1.1170001
0.40956551 0.39979067 1.115
0.41188955 0.40014923 1.1160001
0.41384628 0.40014923 1.1160001
0.41543043 0.39979067 1.115
0.41738537 0.39979067 1.115
0.41934034 0.39979067 1.115
0.42016178 0.39871502 1.1120001
0.42173189 0.39835647 1.1110001
0.42367986 0.39835647 1.1110001
0.42486158 0.39763933 1.1090001
0.42680603 0.39763933 1.1090001
0.42875049 0.39763933 1.1090001
0.43030658 0.39728078 1.108
0.43224928 0.39728078 1.108
0.43575943 0.39871502 1.1120001
0.43770915 0.39871502 1.1120001
0.43886811 0.39799789 1.11
0.44200569 0.39907357 1.113
0.44236162 0.39763933 1.1090001
0.44430605 0.39763933 1.1090001
0.4462505 0.39763933 1.1090001
0.44819495 0.39763933 1.1090001
0.4501394 0.39763933 1.1090001
0.45208386 0.39763933 1.1090001
0.4544377 0.39799789 1.11
0.45679507 0.39835647 1.1110001
0.45874301 0.39835647 1.1110001
0.46069098 0.39835647 1.1110001
0.46263891 0.39835647 1.1110001
0.46458685 0.39835647 1.1110001
0.46653482 0.39835647 1.1110001
0.46848276 0.39835647 1.1110001
0.47043073 0.39835647 1.1110001
0.47322905 0.39907357 1.113
0.47518051 0.39907357 1.113
0.47756067 0.39943212 1.1140001
0.47951388 0.39943212 1.1140001
0.48060268 0.39871502 1.1120001
0.48298636 0.39907357 1.113
0.48493782 0.39907357 1.113
0.4864518 0.39871502 1.1120001
0.48796231 0.39835647 1.1110001
0.48991027 0.39835647 1.1110001
0.49230093 0.39871502 1.1120001
0.49513957 0.39943212 1.1140001
0.49664655 0.39907357 1.113
0.49411827 0.39548799 1.103
0.49605218 0.39548799 1.103
0.49798611 0.39548799 1.103
0.5003733 0.39584655 1.1040001
0.50230896 0.39584655 1.1040001
0.50789857 0.39871502 1.1120001
0.51030678 0.39907357 1.113
0.51225823 0.39907357 1.113
0.51420969 0.39907357 1.113
0.51616114 0.39907357 1.113
0.51857811 0.39943212 1.1140001
0.5214659 0.40014923 1.1160001
0.52295357 0.39979067 1.115
0.52302545 0.39835647 1.1110001
0.52308333 0.39692223 1.107
0.52502429 0.39692223 1.107
0.5269652 0.39692223 1.107
0.52986169 0.39763933 1.1090001
0.53180617 0.39763933 1.1090001
0.53375059 0.39763933 1.1090001
0.53569508 0.39763933 1.1090001
0.53909391 0.39871502 1.1120001
0.54250324 0.39979067 1.115
0.54445821 0.39979067 1.115
0.54445297 0.39835647 1.1110001
0.5464009 0.39835647 1.1110001
0.55131024 0.40050781 1.1170001
0.55326873 0.40050781 1.1170001
0.55373597 0.39943212 1.1140001
0.30759954 0.41723898 1.1580001
0.30829298 0.41543743 1.153
0.31031457 0.41543743 1.153
0.31206527 0.41507712 1.1520001
0.31217661 0.41255495 1.1450001
0.3139098 0.41219464 1.1440001
0.31508714 0.41111371 1.141
0.31542027 0.40895185 1.1350001
0.31629169 0.40751061 1.131
0.31827471 0.40751061 1.131
0.31940824 0.40642968 1.128
0.32081616 0.40570906 1.126
0.32164374 0.40426782 1.1220001
0.32216886 0.40246627 1.1170001
0.32296664 0.40102503 1.113
0.32491809 0.40102503 1.113
0.32686955 0.40102503 1.113
0.328821 0.40102503 1.113
0.33077246 0.40102503 1.113
0.33272392 0.40102503 1.113
0.3346754 0.40102503 1.113
0.33662686 0.40102503 1.113
0.3379699 0.40030441 1.1110001
0.33991787 0.40030441 1.1110001
0.34125039 0.39958379 1.1090001
0.34319484 0.39958379 1.1090001
0.34545049 0.3999441 1.11
0.34770966 0.40030441 1.1110001
0.34934291 0.3999441 1.11
0.35097262 0.39958379 1.1090001
0.35355353 0.40030441 1.1110001
0.35550147 0.40030441 1.1110001
0.35744944 0.40030441 1.1110001
0.35939738 0.40030441 1.1110001
0.36102009 0.3999441 1.11
0.3629663 0.3999441 1.11
0.36524126 0.40030441 1.1110001
0.3671892 0.40030441 1.1110001
0.36913717 0.40030441 1.1110001
0.37108511 0.40030441 1.1110001
0.37303305 0.40030441 1.1110001
0.37498102 0.40030441 1.1110001
0.37658969 0.3999441 1.11
0.37955898 0.40102503 1.113
0.38151044 0.40102503 1.113
0.38277283 0.40030441 1.1110001
0.38472077 0.40030441 1.1110001
0.38632071 0.3999441 1.11
0.39001584 0.40174565 1.115
0.39232236 0.40210596 1.1160001
0.39427906 0.40210596 1.1160001
0.39481559 0.40066472 1.1120001
0.39676529 0.40066472 1.1120001
0.39871502 0.40066472 1.1120001
0.40066472 0.40066472 1.1120001
0.40406269 0.40210596 1.1160001
0.40638322 0.40246627 1.1170001
0.40834168 0.40246627 1.1170001
0.40956551 0.40174565 1.115
0.41152048 0.40174565 1.115
0.41347545 0.40174565 1.115
0.41543043 0.40174565 1.115
0.41738537 0.40174565 1.115
0.41934034 0.40174565 1.115
0.41978395 0.40030441 1.1110001
0.42211148 0.40066472 1.1120001
0.42406121 0.40066472 1.1120001
0.42371228 0.39850286 1.1060001
0.42488176 0.39778224 1.1040001
0.42836389 0.39922348 1.108
0.43030658 0.39922348 1.108
0.43224928 0.39922348 1.108
0.43575943 0.40066472 1.1120001
0.43770915 0.40066472 1.1120001
0.43847272 0.39958379 1.1090001
0.44041717 0.39958379 1.1090001
0.44236162 0.39958379 1.1090001
0.44430605 0.39958379 1.1090001
0.44464093 0.39814255 1.105
0.44657838 0.39814255 1.105
0.4501394 0.39958379 1.1090001
0.45045325 0.39814255 1.105
0.45116246 0.39706162 1.102
0.45309463 0.39706162 1.102
0.45502681 0.39706162 1.102
0.45695898 0.39706162 1.102
0.46097323 0.39886317 1.107
0.46082333 0.39706162 1.102
0.4627555 0.39706162 1.102
0.46468768 0.39706162 1.102
0.46831357 0.39850286 1.1060001
0.47237867 0.40030441 1.1110001
0.47432664 0.40030441 1.1110001
0.47670329 0.40066472 1.1120001
0.47908342 0.40102503 1.113
0.4814671 0.40138534 1.1140001
0.48385423 0.40174565 1.115
0.48580921 0.40174565 1.115
0.48776418 0.40174565 1.115
0.48796231 0.40030441 1.1110001
0.48991027 0.40030441 1.1110001
0.49230093 0.40066472 1.1120001
0.49558404 0.40174565 1.115
0.49709278 0.40138534 1.1140001
0.49501422 0.39814255 1.105
0.49650192 0.39778224 1.1040001
0.49798611 0.39742193 1.103
0.49901357 0.39670131 1.1010001
0.50139898 0.39706162 1.102
0.50652838 0.39958379 1.1090001
0.5084728 0.39958379 1.1090001
0.51041722 0.39958379 1.1090001
0.51467168 0.40138534 1.1140001
0.51662493 0.40138534 1.1140001
0.51671612 0.3999441 1.11
0.51959682 0.40066472 1.1120001
0.51873243 0.39850286 1.1060001
0.52114236 0.39886317 1.107
0.52166575 0.39778224 1.1040001
0.52360141 0.39778224 1.1040001
0.52553713 0.39778224 1.1040001
0.52890617 0.39886317 1.107
0.53084707 0.39886317 1.107
0.53278804 0.39886317 1.107
0.53617811 0.3999441 1.11
0.5376395 0.39958379 1.1090001
0.54153013 0.40102503 1.113
0.54299331 0.40066472 1.1120001
0.54494303 0.40066472 1.1120001
0.5468927 0.40066472 1.1120001
0.55131024 0.40246627 1.1170001
0.55128747 0.40102503 1.113
0.55373597 0.40138534 1.1140001
0.30627137 0.41745901 1.153
0.30829298 0.41745901 1.153
0.31031457 0.41745901 1.153
0.31206527 0.41709694 1.1520001
0.3132672 0.41601077 1.149
0.3130866 0.41311425 1.141
0.31398255 0.41166601 1.1370001
0.31569818 0.41130394 1.136
0.31629169 0.40949363 1.131
0.31827471 0.40949363 1.131
0.31940824 0.40840745 1.128
0.32167092 0.40876949 1.1290001
0.32135707 0.405873 1.1210001
0.32216886 0.40442473 1.1170001
0.32296664 0.40297648 1.113
0.32462615 0.40261441 1.1120001
0.32540113 0.40116617 1.108
0.32763925 0.40152824 1.1090001
0.32988089 0.40189031 1.11
0.3318271 0.40189031 1.11
0.33347261 0.40152824 1.1090001
0.33662686 0.40297648 1.113
0.33827409 0.40261441 1.1120001
0.34022382 0.40261441 1.1120001
0.3415581 0.40189031 1.11
0.34350431 0.40189031 1.11
0.34607294 0.40261441 1.1120001
0.34802264 0.40261441 1.1120001
0.34965762 0.40225235 1.1110001
0.35033968 0.4008041 1.107
0.35259885 0.40116617 1.108
0.35422155 0.4008041 1.107
0.35616249 0.4008041 1.107
0.35810342 0.4008041 1.107
0.36004436 0.4008041 1.107
0.3619853 0.4008041 1.107
0.36392626 0.4008041 1.107
0.36751971 0.40261441 1.1120001
0.3694694 0.40261441 1.1120001
0.37108511 0.40225235 1.1110001
0.37303305 0.40225235 1.1110001
0.37498102 0.40225235 1.1110001
0.37489334 0.40008 1.105
0.37751284 0.4008041 1.107
0.37945378 0.4008041 1.107
0.38139471 0.4008041 1.107
0.38333565 0.4008041 1.107
0.38527659 0.4008041 1.107
0.39001584 0.40370062 1.115
0.39056465 0.40225235 1.1110001
0.39251259 0.40225235 1.1110001
0.39339539 0.40116617 1.108
0.39533809 0.40116617 1.108
0.39692223 0.4008041 1.107
0.40066472 0.40261441 1.1120001
0.4008041 0.4008041 1.107
0.40274504 0.4008041 1.107
0.40651384 0.40261441 1.1120001
0.40846354 0.40261441 1.1120001
0.41041327 0.40261441 1.1120001
0.41199213 0.40225235 1.1110001
0.41394007 0.40225235 1.1110001
0.41588804 0.40225235 1.1110001
0.41783598 0.40225235 1.1110001
0.41827255 0.4008041 1.107
0.42021352 0.4008041 1.107
0.42215446 0.4008041 1.107
0.42371228 0.40044203 1.1060001
0.42488176 0.39971793 1.1040001
0.42643082 0.39935586 1.103
0.42836475 0.39935586 1.103
0.43029869 0.39935586 1.103
0.4338001 0.4008041 1.107
0.43534741 0.40044203 1.1060001
0.43847272 0.40152824 1.1090001
0.44041717 0.40152824 1.1090001
0.44076607 0.40008 1.105
0.44270352 0.40008 1.105
0.44464093 0.40008 1.105
0.44657838 0.40008 1.105
0.44689223 0.39863172 1.1010001
0.44882265 0.39863172 1.1010001
0.45075306 0.39863172 1.1010001
0.45309463 0.39899379 1.102
0.45502681 0.39899379 1.102
0.45654434 0.39863172 1.1010001
0.45847476 0.39863172 1.1010001
0.46082333 0.39899379 1.102
0.4627555 0.39899379 1.102
0.46468768 0.39899379 1.102
0.46661985 0.39899379 1.102
0.47110313 0.40116617 1.108
0.47304583 0.40116617 1.108
0.4754172 0.40152824 1.1090001
0.47779208 0.40189031 1.11
0.4797383 0.40189031 1.11
0.48211846 0.40225235 1.1110001
0.48580921 0.40370062 1.115
0.48601437 0.40225235 1.1110001
0.48796231 0.40225235 1.1110001
0.48991027 0.40225235 1.1110001
0.49230093 0.40261441 1.1120001
0.49558404 0.40370062 1.115
0.49709278 0.40333855 1.1140001
0.49501422 0.40008 1.105
0.49695164 0.40008 1.105
0.49843758 0.39971793 1.1040001
0.49946681 0.39899379 1.102
0.50139898 0.39899379 1.102
0.50515813 0.40044203 1.1060001
0.50755578 0.4008041 1.107
0.50857627 0.40008 1.105
0.51189971 0.40116617 1.108
0.5138424 0.40116617 1.108
0.51531959 0.4008041 1.107
0.51772779 0.40116617 1.108
0.5173254 0.39935586 1.103
0.517847 0.39826965 1.1
0.51977569 0.39826965 1.1
0.52170432 0.39826965 1.1
0.5264892 0.40044203 1.1060001
0.52890617 0.4008041 1.107
0.53084707 0.4008041 1.107
0.53278804 0.4008041 1.107
0.53424591 0.40044203 1.1060001
0.53473073 0.39935586 1.103
0.53715122 0.39971793 1.1040001
0.53957516 0.40008 1.105
0.53955239 0.39863172 1.1010001
0.53951555 0.39718348 1.097
0.54193252 0.39754555 1.098
0.54385769 0.39754555 1.098
0.55174768 0.40189031 1.11
0.30334947 0.41547862 1.1420001
0.30615392 0.41657007 1.1450001
0.30816147 0.41657007 1.1450001
0.31016904 0.41657007 1.1450001
0.3108134 0.41475099 1.1400001
0.31198901 0.41365954 1.1370001
0.31343025 0.41293192 1.1350001
0.31430867 0.41147664 1.131
0.31517306 0.41002139 1.1270001
0.31714907 0.41002139 1.1270001
0.31969139 0.41074902 1.1290001
0.32138601 0.41038519 1.128
0.32078373 0.40711084 1.1190001
0.32130361 0.40529177 1.1140001
0.32209611 0.40383649 1.11
0.32462615 0.40456414 1.1120001
0.32540113 0.40310887 1.108
0.32763925 0.40347269 1.1090001
0.32988089 0.40383649 1.11
0.3318271 0.40383649 1.11
0.33347261 0.40347269 1.1090001
0.33541706 0.40347269 1.1090001
0.33705729 0.40310887 1.108
0.33899999 0.40310887 1.108
0.34032726 0.40238124 1.1060001
0.34226644 0.40238124 1.1060001
0.34482807 0.40310887 1.108
0.34677076 0.40310887 1.108
0.34839872 0.40274504 1.107
0.35065615 0.40310887 1.108
0.35291708 0.40347269 1.1090001
0.35454154 0.40310887 1.108
0.35680595 0.40347269 1.1090001
0.35842693 0.40310887 1.108
0.36036962 0.40310887 1.108
0.36100432 0.40165359 1.1040001
0.36293998 0.40165359 1.1040001
0.36553669 0.40238124 1.1060001
0.36747587 0.40238124 1.1060001
0.36774501 0.40056214 1.1010001
0.36967543 0.40056214 1.1010001
0.37160584 0.40056214 1.1010001
0.37455407 0.40165359 1.1040001
0.37648976 0.40165359 1.1040001
0.37842545 0.40165359 1.1040001
0.38036111 0.40165359 1.1040001
0.38264307 0.40201741 1.105
0.38423249 0.40165359 1.1040001
0.38896647 0.40456414 1.1120001
0.3909162 0.40456414 1.1120001
0.3914527 0.40310887 1.108
0.39339539 0.40310887 1.108
0.39533809 0.40310887 1.108
0.39728078 0.40310887 1.108
0.40066472 0.40456414 1.1120001
0.4008041 0.40274504 1.107
0.40238124 0.40238124 1.1060001
0.40432042 0.40238124 1.1060001
0.4062596 0.40238124 1.1060001
0.4081988 0.40238124 1.1060001
0.41050881 0.40274504 1.107
0.41244975 0.40274504 1.107
0.41439068 0.40274504 1.107
0.41633162 0.40274504 1.107
0.41713902 0.40165359 1.1040001
0.41907471 0.40165359 1.1040001
0.4210104 0.40165359 1.1040001
0.42256299 0.40128979 1.103
0.42411205 0.40092596 1.102
0.425271 0.40019834 1.1
0.42719966 0.40019834 1.1
0.42990857 0.40092596 1.102
0.43223262 0.40128979 1.103
0.43534741 0.40238124 1.1060001
0.43689123 0.40201741 1.105
0.43882865 0.40201741 1.105
0.44076607 0.40201741 1.105
0.44230288 0.40165359 1.1040001
0.44222662 0.39983451 1.0990001
0.44496182 0.40056214 1.1010001
0.44689223 0.40056214 1.1010001
0.44882265 0.40056214 1.1010001
0.44952485 0.39947069 1.098
0.45186117 0.39983451 1.0990001
0.45296228 0.39910689 1.097
0.45405635 0.39837924 1.095
0.4572255 0.39947069 1.098
0.45789614 0.39837924 1.095
0.46023598 0.39874306 1.0960001
0.46300098 0.39947069 1.098
0.46619642 0.40056214 1.1010001
0.46897721 0.40128979 1.103
0.47133806 0.40165359 1.1040001
0.47370246 0.40201741 1.105
0.47563988 0.40201741 1.105
0.4775773 0.40201741 1.105
0.4799487 0.40238124 1.1060001
0.48232359 0.40274504 1.107
0.48426452 0.40274504 1.107
0.48444864 0.40128979 1.103
0.48638254 0.40128979 1.103
0.48875919 0.40165359 1.1040001
0.49247277 0.40310887 1.108
0.49396923 0.40274504 1.107
0.49501422 0.40201741 1.105
0.49695164 0.40201741 1.105
0.49843758 0.40165359 1.1040001
0.50082654 0.40201741 1.105
0.50276393 0.40201741 1.105
0.50515813 0.40238124 1.1060001
0.50755578 0.40274504 1.107
0.50903648 0.40238124 1.1060001
0.51189971 0.40310887 1.108
0.5138424 0.40310887 1.108
0.51392305 0.40165359 1.1040001
0.51585871 0.40165359 1.1040001
0.5173254 0.40128979 1.103
0.517847 0.40019834 1.1
0.51977569 0.40019834 1.1
0.52170432 0.40019834 1.1
0.5264892 0.40238124 1.1060001
0.526995 0.40128979 1.103
0.52892894 0.40128979 1.103
0.53278804 0.40274504 1.107
0.53183073 0.40056214 1.1010001
0.53279155 0.39983451 1.0990001
0.5332588 0.39874306 1.0960001
0.53566873 0.39910689 1.097
0.53612196 0.39801544 1.0940001
0.53804016 0.39801544 1.0940001
0.5399583 0.39801544 1.0940001
0.54237175 0.39837924 1.095
0.54478872 0.39874306 1.0960001
0.30149004 0.41492194 1.1350001
0.30401486 0.41565308 1.1370001
0.3060084 0.41565308 1.1370001
0.30773103 0.41528752 1.136
0.30972281 0.41528752 1.136
0.31006822 0.4130941 1.13
0.31232566 0.41345966 1.131
0.31319705 0.41199738 1.1270001
0.31517306 0.41199738 1.1270001
0.31714907 0.41199738 1.1270001
0.31969139 0.41272852 1.1290001
0.32110107 0.41199738 1.1270001
0.32193041 0.4105351 1.123
0.32216886 0.40834168 1.1170001
0.3209354 0.40432042 1.1060001
0.32316652 0.40468597 1.107
0.32452008 0.40395483 1.105
0.3264575 0.40395483 1.105
0.32869214 0.40432042 1.1060001
0.33063132 0.40432042 1.1060001
0.3331719 0.40505156 1.108
0.33541706 0.40541711 1.1090001
0.33705729 0.40505156 1.108
0.33899999 0.40505156 1.108
0.34032726 0.40432042 1.1060001
0.34226644 0.40432042 1.1060001
0.34482807 0.40505156 1.108
0.34677076 0.40505156 1.108
0.34871346 0.40505156 1.108
0.34939024 0.40358928 1.1040001
0.35164416 0.40395483 1.105
0.35358158 0.40395483 1.105
0.35551903 0.40395483 1.105
0.35842693 0.40505156 1.108
0.35939389 0.40395483 1.105
0.36133131 0.40395483 1.105
0.36293998 0.40358928 1.1040001
0.36388418 0.40249255 1.1010001
0.36614683 0.40285814 1.102
0.36774501 0.40249255 1.1010001
0.36967543 0.40249255 1.1010001
0.37126833 0.402127 1.1
0.37353626 0.40249255 1.1010001
0.37717181 0.40432042 1.1060001
0.37739712 0.40249255 1.1010001
0.37932754 0.40249255 1.1010001
0.38264307 0.40395483 1.105
0.38458052 0.40395483 1.105
0.38756731 0.40505156 1.108
0.38951001 0.40505156 1.108
