# .PCD v0.7 - Point Cloud Data file format
VERSION 0.7
FIELDS x y z
SIZE 4 4 4
TYPE F F F
COUNT 1 1 1
WIDTH 1443
HEIGHT 1
VIEWPOINT 0 0 0 1 0 0 0
POINTS 1443
DATA ascii
-0.2532725 0.1193459 0.61600006
-0.25219244 0.1193459 0.61600006
-0.2511124 0.1193459 0.61600006
-0.25043824 0.11953963 0.61700004
-0.24976058 0.11973338 0.61800003
-0.24907941 0.11992712 0.61900002
-0.24879538 0.12031461 0.62100005
-0.24810544 0.12050835 0.62200004
-0.24701487 0.12050835 0.62200004
-0.24592428 0.12050835 0.62200004
-0.24522734 0.1207021 0.62300003
-0.24491875 0.12108959 0.625
-0.24382292 0.12108959 0.625
-0.24311544 0.12128332 0.62600005
-0.24240448 0.12147707 0.62700003
-0.4385604 0.16949561 0.86700004
-0.43653616 0.16930011 0.86600006
-0.43501776 0.16930011 0.86600006
-0.29551205 0.12003496 0.61400002
-0.29395598 0.11983945 0.61300004
-0.2924034 0.11964396 0.61200005
-0.2903783 0.11925296 0.61000001
-0.2902573 0.11964396 0.61200005
-0.28871176 0.11944846 0.611
-0.28811124 0.11964396 0.61200005
-0.28656918 0.11944846 0.611
-0.2854979 0.11944846 0.611
-0.2844266 0.11944846 0.611
-0.28335533 0.11944846 0.611
-0.28274605 0.11964396 0.61200005
-0.28167298 0.11964396 0.61200005
-0.28105846 0.11983945 0.61300004
-0.27861342 0.11925296 0.61000001
-0.27663392 0.11886197 0.60800004
-0.27556789 0.11886197 0.60800004
-0.27495334 0.11905747 0.60900003
-0.27253637 0.11847098 0.60600001
-0.27147385 0.11847098 0.60600001
-0.27085757 0.11866648 0.60700005
-0.27023774 0.11886197 0.60800004
-0.26961446 0.11905747 0.60900003
-0.26810572 0.11886197 0.60800004
-0.26791811 0.11925296 0.61000001
-0.26728603 0.11944846 0.611
-0.26752186 0.12003496 0.61400002
-0.26731321 0.12042595 0.61600006
-0.26666534 0.12062144 0.61700004
-0.26601398 0.12081694 0.61800003
-0.26450172 0.12062144 0.61700004
-0.26256606 0.12023045 0.61500001
-0.26148775 0.12023045 0.61500001
-0.26125631 0.12062144 0.61700004
-0.26059619 0.12081694 0.61800003
-0.25867277 0.12042595 0.61600006
-0.25759271 0.12042595 0.61600006
-0.25692907 0.12062144 0.61700004
-0.25584728 0.12062144 0.61700004
-0.25476548 0.12062144 0.61700004
-0.25409481 0.12081694 0.61800003
-0.25219244 0.12042595 0.61600006
-0.2511124 0.12042595 0.61600006
-0.25043824 0.12062144 0.61700004
-0.24976058 0.12081694 0.61800003
-0.24907941 0.12101243 0.61900002
-0.24839473 0.12120793 0.62
-0.24770655 0.12140343 0.62100005
-0.24701487 0.12159893 0.62200004
-0.24552891 0.12140343 0.62100005
-0.24483371 0.12159893 0.62200004
-0.24374314 0.12159893 0.62200004
-0.2434328 0.12198992 0.62400001
-0.24272709 0.12218542 0.625
-0.24201787 0.12238091 0.62600005
-0.4400779 0.17160749 0.87000006
-0.43804842 0.17141025 0.86900002
-0.43652478 0.17141025 0.86900002
-0.29551205 0.1211115 0.61400002
-0.2953946 0.121506 0.61600006
-0.2924034 0.120717 0.61200005
-0.29085433 0.12051975 0.611
-0.28978303 0.12051975 0.611
-0.28871176 0.12051975 0.611
-0.28716969 0.1203225 0.61000001
-0.28610018 0.1203225 0.61000001
-0.28503063 0.1203225 0.61000001
-0.2844266 0.12051975 0.611
-0.28335533 0.12051975 0.611
-0.28274605 0.120717 0.61200005
-0.28167298 0.120717 0.61200005
-0.28105846 0.12091425 0.61300004
-0.27861342 0.1203225 0.61000001
-0.27663392 0.119928 0.60800004
-0.27556789 0.119928 0.60800004
-0.27405038 0.11973075 0.60700005
-0.27253637 0.1195335 0.60600001
-0.27147385 0.1195335 0.60600001
-0.27085757 0.11973075 0.60700005
-0.2697933 0.11973075 0.60700005
-0.268729 0.11973075 0.60700005
-0.26810572 0.119928 0.60800004
-0.26791811 0.1203225 0.61000001
-0.26728603 0.12051975 0.611
-0.26708615 0.12091425 0.61300004
-0.26687926 0.12130875 0.61500001
-0.26666534 0.12170325 0.61700004
-0.26601398 0.1219005 0.61800003
-0.2653591 0.12209775 0.61900002
-0.26384684 0.1219005 0.61800003
-0.2623381 0.12170325 0.61700004
-0.26125631 0.12170325 0.61700004
-0.26017451 0.12170325 0.61700004
-0.25867277 0.121506 0.61600006
-0.25759271 0.121506 0.61600006
-0.25651267 0.121506 0.61600006
-0.25543261 0.121506 0.61600006
-0.25517839 0.1219005 0.61800003
-0.25409481 0.1219005 0.61800003
-0.25219244 0.121506 0.61600006
-0.2511124 0.121506 0.61600006
-0.25043824 0.12170325 0.61700004
-0.24976058 0.1219005 0.61800003
-0.24907941 0.12209775 0.61900002
-0.2479941 0.12209775 0.61900002
-0.24730766 0.122295 0.62
-0.24661773 0.12249225 0.62100005
-0.24552891 0.12249225 0.62100005
-0.24483371 0.1226895 0.62200004
-0.24374314 0.1226895 0.62200004
-0.2434328 0.123084 0.62400001
-0.24272709 0.12328125 0.625
-0.24201787 0.1234785 0.62600005
-0.24130513 0.12367575 0.62700003
-0.24212131 0.124662 0.63200003
-0.2417759 0.12505651 0.634
-0.4400779 0.1731329 0.87000006
-0.43804842 0.17293389 0.86900002
-0.43652478 0.17293389 0.86900002
-0.29503077 0.12198904 0.61300004
-0.2944355 0.12218805 0.61400002
-0.2924034 0.12179004 0.61200005
-0.29085433 0.12159104 0.611
-0.28883448 0.12119303 0.60900003
-0.2877667 0.12119303 0.60900003
-0.28716969 0.12139203 0.61000001
-0.28563115 0.12119303 0.60900003
-0.2854979 0.12159104 0.611
-0.2844266 0.12159104 0.611
-0.28335533 0.12159104 0.611
-0.28228402 0.12159104 0.611
-0.28167298 0.12179004 0.61200005
-0.28105846 0.12198904 0.61300004
-0.27952692 0.12179004 0.61200005
-0.27663392 0.12099402 0.60800004
-0.27556789 0.12099402 0.60800004
-0.27450186 0.12099402 0.60800004
-0.27253637 0.12059602 0.60600001
-0.27147385 0.12059602 0.60600001
-0.27041134 0.12059602 0.60600001
-0.2697933 0.12079502 0.60700005
-0.268729 0.12079502 0.60700005
-0.26854667 0.12119303 0.60900003
-0.26835731 0.12159104 0.611
-0.26772347 0.12179004 0.61200005
-0.26752186 0.12218805 0.61400002
-0.26687926 0.12238705 0.61500001
-0.26580095 0.12238705 0.61500001
-0.26601398 0.12298406 0.61800003
-0.2653591 0.12318306 0.61900002
-0.26341993 0.12278505 0.61700004
-0.26148775 0.12238705 0.61500001
-0.26083288 0.12258605 0.61600006
-0.26017451 0.12278505 0.61700004
-0.25825286 0.12238705 0.61500001
-0.25759271 0.12258605 0.61600006
-0.25651267 0.12258605 0.61600006
-0.25543261 0.12258605 0.61600006
-0.25517839 0.12298406 0.61800003
-0.25409481 0.12298406 0.61800003
-0.25301126 0.12298406 0.61800003
-0.25152004 0.12278505 0.61700004
-0.25084415 0.12298406 0.61800003
-0.24976058 0.12298406 0.61800003
-0.24867702 0.12298406 0.61800003
-0.24759346 0.12298406 0.61800003
-0.24730766 0.12338207 0.62
-0.24661773 0.12358107 0.62100005
-0.24552891 0.12358107 0.62100005
-0.24444009 0.12358107 0.62100005
-0.24374314 0.12378007 0.62200004
-0.24265257 0.12378007 0.62200004
-0.24272709 0.12437708 0.625
-0.24201787 0.12457608 0.62600005
-0.24130513 0.12477509 0.62700003
-0.24135509 0.1253721 0.63000005
-0.24139455 0.12596911 0.63300002
-0.24028468 0.12596911 0.63300002
-0.43906623 0.17425679 0.86800003
-0.43754432 0.17425679 0.86800003
-0.29503077 0.12306383 0.61300004
-0.29395598 0.12306383 0.61300004
-0.2924034 0.12286308 0.61200005
-0.2903783 0.12246156 0.61000001
-0.28930876 0.12246156 0.61000001
-0.2877667 0.12226081 0.60900003
-0.28669894 0.12226081 0.60900003
-0.28610018 0.12246156 0.61000001
-0.2854979 0.12266232 0.611
-0.2844266 0.12266232 0.611
-0.28335533 0.12266232 0.611
-0.28228402 0.12266232 0.611
-0.28167298 0.12286308 0.61200005
-0.28059995 0.12286308 0.61200005
-0.27952692 0.12286308 0.61200005
-0.2775439 0.12246156 0.61000001
-0.27647436 0.12246156 0.61000001
-0.27450186 0.12206005 0.60800004
-0.27343583 0.12206005 0.60800004
-0.2723698 0.12206005 0.60800004
-0.27130377 0.12206005 0.60800004
-0.2697933 0.1218593 0.60700005
-0.268729 0.1218593 0.60700005
-0.26854667 0.12226081 0.60900003
-0.26791811 0.12246156 0.61000001
-0.26684856 0.12246156 0.61000001
-0.26752186 0.1232646 0.61400002
-0.26731321 0.12366611 0.61600006
-0.26666534 0.12386686 0.61700004
-0.26558354 0.12386686 0.61700004
-0.2653591 0.12426838 0.61900002
-0.26341993 0.12386686 0.61700004
-0.26148775 0.12346535 0.61500001
-0.26040944 0.12346535 0.61500001
-0.25848779 0.12306383 0.61300004
-0.25825286 0.12346535 0.61500001
-0.25759271 0.12366611 0.61600006
-0.25692907 0.12386686 0.61700004
-0.25584728 0.12386686 0.61700004
-0.25435257 0.12366611 0.61600006
-0.25450596 0.12426838 0.61900002
-0.25342065 0.12426838 0.61900002
-0.25152004 0.12386686 0.61700004
-0.25084415 0.12406762 0.61800003
-0.24976058 0.12406762 0.61800003
-0.24867702 0.12406762 0.61800003
-0.24759346 0.12406762 0.61800003
-0.24770655 0.12466989 0.62100005
-0.24701487 0.12487064 0.62200004
-0.24552891 0.12466989 0.62100005
-0.24444009 0.12466989 0.62100005
-0.24452688 0.12527215 0.62400001
-0.2434328 0.12527215 0.62400001
-0.24272709 0.12547292 0.625
-0.24201787 0.12567367 0.62600005
-0.24168998 0.12607519 0.62800002
-0.2417382 0.12667745 0.63100004
-0.2410132 0.12687822 0.63200003
-0.23990509 0.12687822 0.63200003
-0.4400779 0.1761837 0.87000006
-0.4385525 0.1761837 0.87000006
-0.29503077 0.12413863 0.61300004
-0.2944355 0.12434114 0.61400002
-0.29335895 0.12434114 0.61400002
-0.29133037 0.12393612 0.61200005
-0.2902573 0.12393612 0.61200005
-0.28871176 0.12373361 0.611
-0.28669894 0.12332859 0.60900003
-0.28703821 0.12393612 0.61200005
-0.2854979 0.12373361 0.611
-0.2844266 0.12373361 0.611
-0.28381908 0.12393612 0.61200005
-0.28274605 0.12393612 0.61200005
-0.28167298 0.12393612 0.61200005
-0.28105846 0.12413863 0.61300004
-0.27998367 0.12413863 0.61300004
-0.2775439 0.1235311 0.61000001
-0.27647436 0.1235311 0.61000001
-0.27495334 0.12332859 0.60900003
-0.27388558 0.12332859 0.60900003
-0.27281779 0.12332859 0.60900003
-0.27175 0.12332859 0.60900003
-0.2697933 0.12292357 0.60700005
-0.268729 0.12292357 0.60700005
-0.26810572 0.12312608 0.60800004
-0.26660046 0.12292357 0.60700005
-0.26553619 0.12292357 0.60700005
-0.26577902 0.1235311 0.61000001
-0.26601136 0.12413863 0.61300004
-0.26536876 0.12434114 0.61400002
-0.26472265 0.12454365 0.61500001
-0.26364434 0.12454365 0.61500001
-0.26256606 0.12454365 0.61500001
-0.26148775 0.12454365 0.61500001
-0.26040944 0.12454365 0.61500001
-0.25890946 0.12434114 0.61400002
-0.257413 0.12413863 0.61300004
-0.25759271 0.12474616 0.61600006
-0.25692907 0.12494867 0.61700004
-0.25626194 0.12515117 0.61800003
-0.25476548 0.12494867 0.61700004
-0.25491714 0.1255562 0.62
-0.25342065 0.12535369 0.61900002
-0.25152004 0.12494867 0.61700004
-0.25084415 0.12515117 0.61800003
-0.24976058 0.12515117 0.61800003
-0.24907941 0.12535369 0.61900002
-0.24839473 0.1255562 0.62
-0.24810544 0.12596121 0.62200004
-0.24701487 0.12596121 0.62200004
-0.24552891 0.12575871 0.62100005
-0.24483371 0.12596121 0.62200004
-0.24452688 0.12636624 0.62400001
-0.24460314 0.12697376 0.62700003
-0.24350381 0.12697376 0.62700003
-0.24279107 0.12717628 0.62800002
-0.24207485 0.12737879 0.62900001
-0.24212131 0.12798631 0.63200003
-0.24139455 0.12818883 0.63300002
-0.24028468 0.12818883 0.63300002
-0.43754873 0.17668778 0.86500007
-0.43451983 0.176075 0.86200005
-0.43351078 0.17627926 0.86300004
-0.4314971 0.176075 0.86200005
-0.29503077 0.12521343 0.61300004
-0.2944355 0.12541768 0.61400002
-0.29335895 0.12541768 0.61400002
-0.2918064 0.12521343 0.61300004
-0.29073161 0.12521343 0.61300004
-0.28918427 0.12500916 0.61200005
-0.28764048 0.1248049 0.611
-0.28703821 0.12500916 0.61200005
-0.2854979 0.1248049 0.611
-0.2844266 0.1248049 0.611
-0.28381908 0.12500916 0.61200005
-0.28320804 0.12521343 0.61300004
-0.28213325 0.12521343 0.61300004
-0.28105846 0.12521343 0.61300004
-0.27952692 0.12500916 0.61200005
-0.27845389 0.12500916 0.61200005
-0.27692759 0.1248049 0.611
-0.27540484 0.12460063 0.61000001
-0.27433529 0.12460063 0.61000001
-0.27281779 0.12439637 0.60900003
-0.27130377 0.1241921 0.60800004
-0.27068222 0.12439637 0.60900003
-0.26961446 0.12439637 0.60900003
-0.26854667 0.12439637 0.60900003
-0.26747888 0.12439637 0.60900003
-0.2664111 0.12439637 0.60900003
-0.26534334 0.12439637 0.60900003
-0.26557741 0.12500916 0.61200005
-0.26493657 0.12521343 0.61300004
-0.26429221 0.12541768 0.61400002
-0.26278695 0.12521343 0.61300004
-0.26213911 0.12541768 0.61400002
-0.26106256 0.12541768 0.61400002
-0.25998601 0.12541768 0.61400002
-0.25848779 0.12521343 0.61300004
-0.257413 0.12521343 0.61300004
-0.25801089 0.12603047 0.61700004
-0.25651267 0.12582621 0.61600006
-0.25584728 0.12603047 0.61700004
-0.25517839 0.12623474 0.61800003
-0.25409481 0.12623474 0.61800003
-0.25301126 0.12623474 0.61800003
-0.2519277 0.12623474 0.61800003
-0.25125003 0.12643901 0.61900002
-0.25056887 0.12664327 0.62
-0.24988419 0.12684754 0.62100005
-0.24879538 0.12684754 0.62100005
-0.24810544 0.12705179 0.62200004
-0.24741198 0.12725605 0.62300003
-0.24671504 0.12746032 0.62400001
-0.24562095 0.12746032 0.62400001
-0.24452688 0.12746032 0.62400001
-0.24460314 0.12807311 0.62700003
-0.24389218 0.12827738 0.62800002
-0.24317768 0.12848164 0.62900001
-0.24284455 0.12889016 0.63100004
-0.2425044 0.12929869 0.63300002
-0.2417759 0.12950295 0.634
-0.24066429 0.12950295 0.634
-0.4385604 0.17861645 0.86700004
-0.4350239 0.17779239 0.86300004
-0.43351078 0.17779239 0.86300004
-0.43199766 0.17779239 0.86300004
-0.29551205 0.12649423 0.61400002
-0.2944355 0.12649423 0.61400002
-0.29335895 0.12649423 0.61400002
-0.29228243 0.12649423 0.61400002
-0.29073161 0.12628822 0.61300004
-0.28918427 0.1260822 0.61200005
-0.28811124 0.1260822 0.61200005
-0.28656918 0.12587619 0.611
-0.28503063 0.12567016 0.61000001
-0.28396109 0.12567016 0.61000001
-0.28381908 0.1260822 0.61200005
-0.28274605 0.1260822 0.61200005
-0.28167298 0.1260822 0.61200005
-0.28014147 0.12587619 0.611
-0.27861342 0.12567016 0.61000001
-0.2775439 0.12567016 0.61000001
-0.27647436 0.12567016 0.61000001
-0.27585632 0.12587619 0.611
-0.27478504 0.12587619 0.611
-0.27371374 0.12587619 0.611
-0.27264246 0.12587619 0.611
-0.27112669 0.12567016 0.61000001
-0.27005717 0.12567016 0.61000001
-0.26898763 0.12567016 0.61000001
-0.26791811 0.12567016 0.61000001
-0.2664111 0.12546416 0.60900003
-0.26534334 0.12546416 0.60900003
-0.26514345 0.12587619 0.611
-0.26407215 0.12587619 0.611
-0.26343131 0.1260822 0.61200005
-0.26278695 0.12628822 0.61300004
-0.26213911 0.12649423 0.61400002
-0.26106256 0.12649423 0.61400002
-0.25998601 0.12649423 0.61400002
-0.25848779 0.12628822 0.61300004
-0.25825286 0.12670025 0.61500001
-0.25717455 0.12670025 0.61500001
-0.25651267 0.12690626 0.61600006
-0.25543261 0.12690626 0.61600006
-0.25476548 0.12711228 0.61700004
-0.25491714 0.12773034 0.62
-0.25301126 0.12731829 0.61800003
-0.2519277 0.12731829 0.61800003
-0.25165594 0.12773034 0.62
-0.25056887 0.12773034 0.62
-0.24988419 0.12793635 0.62100005
-0.24879538 0.12793635 0.62100005
-0.24810544 0.12814237 0.62200004
-0.24701487 0.12814237 0.62200004
-0.24631967 0.12834838 0.62300003
-0.24522734 0.12834838 0.62300003
-0.24452688 0.1285544 0.62400001
-0.24382292 0.12876041 0.625
-0.24389218 0.12937847 0.62800002
-0.24356429 0.1297905 0.63000005
-0.24284455 0.12999652 0.63100004
-0.24288751 0.13061456 0.634
-0.2417759 0.13061456 0.634
-0.43754873 0.17972104 0.86500007
-0.4350239 0.17930551 0.86300004
-0.43351078 0.17930551 0.86300004
-0.43249825 0.17951328 0.86400002
-0.2944355 0.12757078 0.61400002
-0.29335895 0.12757078 0.61400002
-0.2918064 0.12736301 0.61300004
-0.2902573 0.12715524 0.61200005
-0.28918427 0.12715524 0.61200005
-0.288582 0.12736301 0.61300004
-0.28750721 0.12736301 0.61300004
-0.2854979 0.12694746 0.611
-0.2844266 0.12694746 0.611
-0.28381908 0.12715524 0.61200005
-0.28320804 0.12736301 0.61300004
-0.28213325 0.12736301 0.61300004
-0.28059995 0.12715524 0.61200005
-0.27907017 0.12694746 0.611
-0.27799889 0.12694746 0.611
-0.27647436 0.1267397 0.61000001
-0.27585632 0.12694746 0.611
-0.27478504 0.12694746 0.611
-0.27371374 0.12694746 0.611
-0.27264246 0.12694746 0.611
-0.27157116 0.12694746 0.611
-0.27049989 0.12694746 0.611
-0.26942858 0.12694746 0.611
-0.26835731 0.12694746 0.611
-0.26597366 0.12632416 0.60800004
-0.26534334 0.12653193 0.60900003
-0.26514345 0.12694746 0.611
-0.26407215 0.12694746 0.611
-0.26343131 0.12715524 0.61200005
-0.26278695 0.12736301 0.61300004
-0.26171216 0.12736301 0.61300004
-0.26148775 0.12777855 0.61500001
-0.26083288 0.12798631 0.61600006
-0.25933114 0.12777855 0.61500001
-0.25825286 0.12777855 0.61500001
-0.25759271 0.12798631 0.61600006
-0.25692907 0.12819409 0.61700004
-0.25584728 0.12819409 0.61700004
-0.25517839 0.12840186 0.61800003
-0.25450596 0.12860963 0.61900002
-0.25260186 0.12819409 0.61700004
-0.2519277 0.12840186 0.61800003
-0.25165594 0.12881739 0.62
-0.25097302 0.12902518 0.62100005
-0.25028658 0.12923294 0.62200004
-0.24879538 0.12902518 0.62100005
-0.24930207 0.12985624 0.625
-0.24820624 0.12985624 0.625
-0.2475058 0.13006403 0.62600005
-0.24640821 0.13006403 0.62600005
-0.24452688 0.12964848 0.62400001
-0.24382292 0.12985624 0.625
-0.24389218 0.13047956 0.62800002
-0.24356429 0.13089509 0.63000005
-0.2424597 0.13089509 0.63000005
-0.43704289 0.18102816 0.86400002
-0.4350239 0.18081863 0.86300004
-0.43250611 0.18039958 0.86100006
-0.43099651 0.18039958 0.86100006
-0.2953946 0.12906638 0.61600006
-0.29288119 0.1284378 0.61300004
-0.2918064 0.1284378 0.61300004
-0.29073161 0.1284378 0.61300004
-0.28965679 0.1284378 0.61300004
-0.28952354 0.12885685 0.61500001
-0.28844523 0.12885685 0.61500001
-0.28596514 0.12822828 0.61200005
-0.28489211 0.12822828 0.61200005
-0.28381908 0.12822828 0.61200005
-0.28320804 0.1284378 0.61300004
-0.28213325 0.1284378 0.61300004
-0.28105846 0.1284378 0.61300004
-0.27952692 0.12822828 0.61200005
-0.27845389 0.12822828 0.61200005
-0.27783409 0.1284378 0.61300004
-0.27675927 0.1284378 0.61300004
-0.27523476 0.12822828 0.61200005
-0.27371374 0.12801875 0.611
-0.27264246 0.12801875 0.611
-0.27157116 0.12801875 0.611
-0.27049989 0.12801875 0.611
-0.26986957 0.12822828 0.61200005
-0.26791811 0.12780923 0.61000001
-0.26597366 0.12739019 0.60800004
-0.26534334 0.12759972 0.60900003
-0.26514345 0.12801875 0.611
-0.26450437 0.12822828 0.61200005
-0.26300088 0.12801875 0.611
-0.26278695 0.1284378 0.61300004
-0.26171216 0.1284378 0.61300004
-0.26063737 0.1284378 0.61300004
-0.26040944 0.12885685 0.61500001
-0.25933114 0.12885685 0.61500001
-0.25825286 0.12885685 0.61500001
-0.25759271 0.12906638 0.61600006
-0.25692907 0.1292759 0.61700004
-0.25543261 0.12906638 0.61600006
-0.25517839 0.12948541 0.61800003
-0.25368366 0.1292759 0.61700004
-0.25219244 0.12906638 0.61600006
-0.25152004 0.1292759 0.61700004
-0.25125003 0.12969494 0.61900002
-0.25097302 0.13011399 0.62100005
-0.25028658 0.13032351 0.62200004
-0.24999727 0.13074256 0.62400001
-0.24930207 0.13095208 0.625
-0.24820624 0.13095208 0.625
-0.24790117 0.13137113 0.62700003
-0.24680182 0.13137113 0.62700003
-0.24609436 0.13158065 0.62800002
-0.24460314 0.13137113 0.62700003
-0.24544562 0.13241875 0.63200003
-0.24433751 0.13241875 0.63200003
-0.2451537 0.13346636 0.63700002
-0.24403682 0.13346636 0.63700002
-0.43906623 0.18338814 0.86800003
-0.4350239 0.18233176 0.86300004
-0.43250611 0.1819092 0.86100006
-0.43099651 0.1819092 0.86100006
-0.29288119 0.12951259 0.61300004
-0.2918064 0.12951259 0.61300004
-0.29073161 0.12951259 0.61300004
-0.28965679 0.12951259 0.61300004
-0.28952354 0.12993515 0.61500001
-0.28844523 0.12993515 0.61500001
-0.28643242 0.12951259 0.61300004
-0.28535762 0.12951259 0.61300004
-0.28381908 0.12930132 0.61200005
-0.28320804 0.12951259 0.61300004
-0.28259349 0.12972388 0.61400002
-0.28105846 0.12951259 0.61300004
-0.27998367 0.12951259 0.61300004
-0.27936387 0.12972388 0.61400002
-0.27874056 0.12993515 0.61500001
-0.27766225 0.12993515 0.61500001
-0.27523476 0.12930132 0.61200005
-0.27371374 0.12909004 0.611
-0.27264246 0.12909004 0.611
-0.2724601 0.12951259 0.61300004
-0.27049989 0.12909004 0.611
-0.26898763 0.12887877 0.61000001
-0.26703969 0.12845621 0.60800004
-0.26553619 0.12824494 0.60700005
-0.26447192 0.12824494 0.60700005
-0.2647095 0.12887877 0.61000001
-0.26407215 0.12909004 0.611
-0.26257044 0.12887877 0.61000001
-0.26235828 0.12930132 0.61200005
-0.26171216 0.12951259 0.61300004
-0.26063737 0.12951259 0.61300004
-0.26040944 0.12993515 0.61500001
-0.25933114 0.12993515 0.61500001
-0.25825286 0.12993515 0.61500001
-0.25801089 0.1303577 0.61700004
-0.25692907 0.1303577 0.61700004
-0.25584728 0.1303577 0.61700004
-0.25476548 0.1303577 0.61700004
-0.25409481 0.13056898 0.61800003
-0.25178304 0.12993515 0.61500001
-0.2511124 0.13014643 0.61600006
-0.25125003 0.13078025 0.61900002
-0.25056887 0.13099153 0.62
-0.25028658 0.13141409 0.62200004
-0.24999727 0.13183664 0.62400001
-0.24930207 0.13204792 0.625
-0.24820624 0.13204792 0.625
-0.24829654 0.13268174 0.62800002
-0.24719545 0.13268174 0.62800002
-0.24609436 0.13268174 0.62800002
-0.24538338 0.13289303 0.62900001
-0.24505726 0.13331558 0.63100004
-0.24472412 0.13373813 0.63300002
-0.24361427 0.13373813 0.63300002
-0.24403682 0.13458323 0.63700002
-0.2433013 0.13479452 0.63800001
-0.4385604 0.184697 0.86700004
-0.43552801 0.18405792 0.86400002
-0.43250611 0.18341883 0.86100006
-0.42899421 0.1825667 0.85700005
-0.42649394 0.18214065 0.85500002
-0.42549193 0.18235368 0.85600007
-0.29431453 0.13122648 0.61600006
-0.29323447 0.13122648 0.61600006
-0.29215443 0.13122648 0.61600006
-0.29107437 0.13122648 0.61600006
-0.28952354 0.13101345 0.61500001
-0.28844523 0.13101345 0.61500001
-0.28643242 0.13058738 0.61300004
-0.28489211 0.13037436 0.61200005
-0.28381908 0.13037436 0.61200005
-0.28274605 0.13037436 0.61200005
-0.28213325 0.13058738 0.61300004
-0.28105846 0.13058738 0.61300004
-0.28044039 0.13080043 0.61400002
-0.27936387 0.13080043 0.61400002
-0.27828732 0.13080043 0.61400002
-0.27766225 0.13101345 0.61500001
-0.27568448 0.13058738 0.61300004
-0.27416173 0.13037436 0.61200005
-0.27308866 0.13037436 0.61200005
-0.2724601 0.13058738 0.61300004
-0.2709426 0.13037436 0.61200005
-0.26986957 0.13037436 0.61200005
-0.26747888 0.12973528 0.60900003
-0.2664111 0.12973528 0.60900003
-0.26577902 0.1299483 0.61000001
-0.2647095 0.1299483 0.61000001
-0.26363996 0.1299483 0.61000001
-0.26257044 0.1299483 0.61000001
-0.2619296 0.13016133 0.611
-0.26171216 0.13058738 0.61300004
-0.26148775 0.13101345 0.61500001
-0.26040944 0.13101345 0.61500001
-0.25933114 0.13101345 0.61500001
-0.25867277 0.13122648 0.61600006
-0.25801089 0.13143951 0.61700004
-0.25692907 0.13143951 0.61700004
-0.25584728 0.13143951 0.61700004
-0.25476548 0.13143951 0.61700004
-0.25286135 0.13101345 0.61500001
-0.25178304 0.13101345 0.61500001
-0.2511124 0.13122648 0.61600006
-0.25084415 0.13165253 0.61800003
-0.25016472 0.13186558 0.61900002
-0.25028658 0.13250466 0.62200004
-0.25039792 0.13314375 0.625
-0.24970096 0.13335678 0.62600005
-0.24860337 0.13335678 0.62600005
-0.24790117 0.13356981 0.62700003
-0.24719545 0.13378283 0.62800002
-0.24609436 0.13378283 0.62800002
-0.24577349 0.1342089 0.63000005
-0.24544562 0.13463496 0.63200003
-0.24472412 0.13484798 0.63300002
-0.24361427 0.13484798 0.63300002
-0.24288751 0.13506103 0.634
-0.2433013 0.13591313 0.63800001
-0.24218267 0.13591313 0.63800001
-0.4385604 0.18621714 0.86700004
-0.43451983 0.18514323 0.86200005
-0.43150148 0.18449888 0.85900003
-0.42899421 0.18406932 0.85700005
-0.42699277 0.18385454 0.85600007
-0.42400071 0.18321018 0.85300004
-0.42250511 0.18321018 0.85300004
-0.30251312 0.1340248 0.62400001
-0.30093598 0.13381001 0.62300003
-0.29936239 0.13359523 0.62200004
-0.29731274 0.13316567 0.62
-0.29479232 0.13252132 0.61700004
-0.29323447 0.13230653 0.61600006
-0.29215443 0.13230653 0.61600006
-0.29154688 0.13252132 0.61700004
-0.28999433 0.13230653 0.61600006
-0.28844523 0.13209175 0.61500001
-0.28643242 0.13166218 0.61300004
-0.28489211 0.1314474 0.61200005
-0.28381908 0.1314474 0.61200005
-0.28274605 0.1314474 0.61200005
-0.28167298 0.1314474 0.61200005
-0.28059995 0.1314474 0.61200005
-0.28044039 0.13187696 0.61400002
-0.27890888 0.13166218 0.61300004
-0.27828732 0.13187696 0.61400002
-0.27766225 0.13209175 0.61500001
-0.27613422 0.13187696 0.61400002
-0.27460968 0.13166218 0.61300004
-0.27398112 0.13187696 0.61400002
-0.27290457 0.13187696 0.61400002
-0.27182803 0.13187696 0.61400002
-0.26986957 0.1314474 0.61200005
-0.26747888 0.13080305 0.60900003
-0.2664111 0.13080305 0.60900003
-0.26577902 0.13101783 0.61000001
-0.26514345 0.13123262 0.611
-0.26407215 0.13123262 0.611
-0.26386178 0.13166218 0.61300004
-0.26278695 0.13166218 0.61300004
-0.26171216 0.13166218 0.61300004
-0.26148775 0.13209175 0.61500001
-0.26083288 0.13230653 0.61600006
-0.25975284 0.13230653 0.61600006
-0.25867277 0.13230653 0.61600006
-0.25801089 0.13252132 0.61700004
-0.25692907 0.13252132 0.61700004
-0.25543261 0.13230653 0.61600006
-0.25435257 0.13230653 0.61600006
-0.2524502 0.13187696 0.61400002
-0.25137365 0.13187696 0.61400002
-0.25152004 0.13252132 0.61700004
-0.25084415 0.1327361 0.61800003
-0.25016472 0.13295089 0.61900002
-0.25028658 0.13359523 0.62200004
-0.25039792 0.13423958 0.625
-0.24970096 0.13445437 0.62600005
-0.24860337 0.13445437 0.62600005
-0.24790117 0.13466915 0.62700003
-0.24719545 0.13488393 0.62800002
-0.24609436 0.13488393 0.62800002
-0.24616362 0.13552828 0.63100004
-0.24583399 0.13595785 0.63300002
-0.24472412 0.13595785 0.63300002
-0.24361427 0.13595785 0.63300002
-0.24288751 0.13617264 0.634
-0.2433013 0.13703176 0.63800001
-0.24180308 0.13681698 0.63700002
-0.43704289 0.18708768 0.86400002
-0.43401575 0.18643807 0.86100006
-0.43049681 0.18557192 0.85700005
-0.42799306 0.18513885 0.85500002
-0.42599511 0.18492231 0.85400003
-0.42400071 0.18470578 0.85300004
-0.42250511 0.18470578 0.85300004
-0.30251312 0.13511887 0.62400001
-0.30045295 0.1346858 0.62200004
-0.29888108 0.13446927 0.62100005
-0.29731274 0.13425273 0.62
-0.29574788 0.1340362 0.61900002
-0.29418653 0.13381965 0.61800003
-0.29262871 0.13360313 0.61700004
-0.29154688 0.13360313 0.61700004
-0.28905278 0.13295351 0.61400002
-0.28750721 0.13273698 0.61300004
-0.2854979 0.13230391 0.611
-0.2844266 0.13230391 0.611
-0.28381908 0.13252044 0.61200005
-0.28274605 0.13252044 0.61200005
-0.28167298 0.13252044 0.61200005
-0.28151694 0.13295351 0.61400002
-0.28044039 0.13295351 0.61400002
-0.27981886 0.13317005 0.61500001
-0.27828732 0.13295351 0.61400002
-0.27766225 0.13317005 0.61500001
-0.27613422 0.13295351 0.61400002
-0.27505767 0.13295351 0.61400002
-0.27442735 0.13317005 0.61500001
-0.27334905 0.13317005 0.61500001
-0.2709426 0.13252044 0.61200005
-0.26986957 0.13252044 0.61200005
-0.26791811 0.13208736 0.61000001
-0.26684856 0.13208736 0.61000001
-0.26621473 0.13230391 0.611
-0.26601136 0.13273698 0.61300004
-0.26493657 0.13273698 0.61300004
-0.26386178 0.13273698 0.61300004
-0.26278695 0.13273698 0.61300004
-0.26171216 0.13273698 0.61300004
-0.26148775 0.13317005 0.61500001
-0.26125631 0.13360313 0.61700004
-0.26017451 0.13360313 0.61700004
-0.25867277 0.13338658 0.61600006
-0.25801089 0.13360313 0.61700004
-0.25692907 0.13360313 0.61700004
-0.25543261 0.13338658 0.61600006
-0.25393966 0.13317005 0.61500001
-0.2524502 0.13295351 0.61400002
-0.25137365 0.13295351 0.61400002
-0.2519277 0.13381965 0.61800003
-0.25165594 0.13425273 0.62
-0.25056887 0.13425273 0.62
-0.25028658 0.1346858 0.62200004
-0.25039792 0.13533542 0.625
-0.24970096 0.13555196 0.62600005
-0.24939764 0.13598503 0.62800002
-0.2490873 0.1364181 0.63000005
-0.2479827 0.1364181 0.63000005
-0.2468781 0.1364181 0.63000005
-0.24655373 0.13685118 0.63200003
-0.24583399 0.13706771 0.63300002
-0.24472412 0.13706771 0.63300002
-0.24361427 0.13706771 0.63300002
-0.24403682 0.13793385 0.63700002
-0.2433013 0.13815039 0.63800001
-0.24180308 0.13793385 0.63700002
-0.43501952 0.1877294 0.86000001
-0.43149534 0.18685624 0.85600007
-0.42898983 0.18641967 0.85400003
-0.42699188 0.18620136 0.85300004
-0.42549631 0.18620136 0.85300004
-0.42449778 0.18641967 0.85400003
-0.30299792 0.13643125 0.625
-0.29996991 0.13555808 0.62100005
-0.29888108 0.13555808 0.62100005
-0.29779226 0.13555808 0.62100005
-0.29622567 0.1353398 0.62
-0.29418653 0.13490322 0.61800003
-0.29310298 0.13490322 0.61800003
-0.29154688 0.13468494 0.61700004
-0.28952354 0.13424835 0.61500001
-0.28797624 0.13403006 0.61400002
-0.28689969 0.13403006 0.61400002
-0.28535762 0.13381177 0.61300004
-0.28428283 0.13381177 0.61300004
-0.28320804 0.13381177 0.61300004
-0.28167298 0.13359348 0.61200005
-0.28151694 0.13403006 0.61400002
-0.28044039 0.13403006 0.61400002
-0.27981886 0.13424835 0.61500001
-0.27828732 0.13403006 0.61400002
-0.27766225 0.13424835 0.61500001
-0.27613422 0.13403006 0.61400002
-0.27505767 0.13403006 0.61400002
-0.27398112 0.13403006 0.61400002
-0.27201563 0.13359348 0.61200005
-0.27138531 0.13381177 0.61300004
-0.27031052 0.13381177 0.61300004
-0.2687965 0.13359348 0.61200005
-0.26772347 0.13359348 0.61200005
-0.26708615 0.13381177 0.61300004
-0.26601136 0.13381177 0.61300004
-0.26493657 0.13381177 0.61300004
-0.26386178 0.13381177 0.61300004
-0.26278695 0.13381177 0.61300004
-0.2608583 0.13337518 0.611
-0.26148775 0.13424835 0.61500001
-0.26083288 0.13446663 0.61600006
-0.26017451 0.13468494 0.61700004
-0.25951263 0.13490322 0.61800003
-0.25717455 0.13424835 0.61500001
-0.25651267 0.13446663 0.61600006
-0.25543261 0.13446663 0.61600006
-0.25435257 0.13446663 0.61600006
-0.2532725 0.13446663 0.61600006
-0.25219244 0.13446663 0.61600006
-0.2519277 0.13490322 0.61800003
-0.25246772 0.13577639 0.62200004
-0.25137717 0.13577639 0.62200004
-0.25028658 0.13577639 0.62200004
-0.24959664 0.13599467 0.62300003
-0.24850431 0.13599467 0.62300003
-0.24820624 0.13643125 0.625
-0.24711041 0.13643125 0.625
-0.24680182 0.13686784 0.62700003
-0.24570249 0.13686784 0.62700003
-0.24538338 0.13730441 0.62900001
-0.24544562 0.13795927 0.63200003
-0.24511074 0.13839586 0.634
-0.24361427 0.13817757 0.63300002
-0.2425044 0.13817757 0.63300002
-0.2425386 0.13883244 0.63600004
-0.24142347 0.13883244 0.63600004
-0.43299618 0.18835708 0.85600007
-0.42998308 0.18769696 0.85300004
-0.42798516 0.18747692 0.85200006
-0.42699188 0.18769696 0.85300004
-0.42499748 0.18747692 0.85200006
-0.42400071 0.18769696 0.85300004
-0.30299792 0.13752708 0.625
-0.30093598 0.137087 0.62300003
-0.29936239 0.13686696 0.62200004
-0.29779226 0.13664691 0.62100005
-0.29622567 0.13642687 0.62
-0.29466256 0.13620682 0.61900002
-0.29262871 0.13576673 0.61700004
-0.29107437 0.1355467 0.61600006
-0.28952354 0.13532665 0.61500001
-0.28844523 0.13532665 0.61500001
-0.28736696 0.13532665 0.61500001
-0.28628865 0.13532665 0.61500001
-0.28428283 0.13488656 0.61300004
-0.28320804 0.13488656 0.61300004
-0.28167298 0.13466652 0.61200005
-0.28151694 0.13510661 0.61400002
-0.28089714 0.13532665 0.61500001
-0.27981886 0.13532665 0.61500001
-0.27828732 0.13510661 0.61400002
-0.27766225 0.13532665 0.61500001
-0.27613422 0.13510661 0.61400002
-0.27505767 0.13510661 0.61400002
-0.27308866 0.13466652 0.61200005
-0.27201563 0.13466652 0.61200005
-0.27138531 0.13488656 0.61300004
-0.27031052 0.13488656 0.61300004
-0.26923573 0.13488656 0.61300004
-0.26816094 0.13488656 0.61300004
-0.26708615 0.13488656 0.61300004
-0.26601136 0.13488656 0.61300004
-0.26493657 0.13488656 0.61300004
-0.26386178 0.13488656 0.61300004
-0.26278695 0.13488656 0.61300004
-0.2608583 0.13444647 0.611
-0.26148775 0.13532665 0.61500001
-0.26040944 0.13532665 0.61500001
-0.25975284 0.1355467 0.61600006
-0.25867277 0.1355467 0.61600006
-0.25717455 0.13532665 0.61500001
-0.25651267 0.1355467 0.61600006
-0.25543261 0.1355467 0.61600006
-0.25435257 0.1355467 0.61600006
-0.2532725 0.1355467 0.61600006
-0.25219244 0.1355467 0.61600006
-0.25152004 0.13576673 0.61700004
-0.25206181 0.13664691 0.62100005
-0.25097302 0.13664691 0.62100005
-0.25109136 0.13730703 0.62400001
-0.25039792 0.13752708 0.625
-0.24930207 0.13752708 0.625
-0.24820624 0.13752708 0.625
-0.24711041 0.13752708 0.625
-0.24680182 0.13796717 0.62700003
-0.24570249 0.13796717 0.62700003
-0.24538338 0.13840726 0.62900001
-0.24544562 0.13906738 0.63200003
-0.24472412 0.13928743 0.63300002
-0.24361427 0.13928743 0.63300002
-0.2425044 0.13928743 0.63300002
-0.2425386 0.13994756 0.63600004
-0.24104388 0.13972752 0.63500005
-0.42996117 0.18852717 0.85000002
-0.429479 0.18897076 0.85200006
-0.42748281 0.18874896 0.85100001
-0.42699188 0.18919255 0.85300004
-0.42549631 0.18919255 0.85300004
-0.42400071 0.18919255 0.85300004
-0.30299792 0.13862291 0.625
-0.30093598 0.13817932 0.62300003
-0.29936239 0.13795753 0.62200004
-0.29779226 0.13773572 0.62100005
-0.29622567 0.13751394 0.62
-0.2951386 0.13751394 0.62
-0.29310298 0.13707034 0.61800003
-0.29107437 0.13662675 0.61600006
-0.29046509 0.13684854 0.61700004
-0.28938329 0.13684854 0.61700004
-0.28830147 0.13684854 0.61700004
-0.28675416 0.13662675 0.61600006
-0.28428283 0.13596135 0.61300004
-0.28367004 0.13618316 0.61400002
-0.28259349 0.13618316 0.61400002
-0.28243396 0.13662675 0.61600006
-0.28135389 0.13662675 0.61600006
-0.27936387 0.13618316 0.61400002
-0.27828732 0.13618316 0.61400002
-0.27630779 0.13573956 0.61200005
-0.27568448 0.13596135 0.61300004
-0.27460968 0.13596135 0.61300004
-0.27308866 0.13573956 0.61200005
-0.27201563 0.13573956 0.61200005
-0.27138531 0.13596135 0.61300004
-0.27031052 0.13596135 0.61300004
-0.26923573 0.13596135 0.61300004
-0.26816094 0.13596135 0.61300004
-0.26708615 0.13596135 0.61300004
-0.26601136 0.13596135 0.61300004
-0.26493657 0.13596135 0.61300004
-0.26386178 0.13596135 0.61300004
-0.26278695 0.13596135 0.61300004
-0.2608583 0.13551776 0.611
-0.26148775 0.13640495 0.61500001
-0.26040944 0.13640495 0.61500001
-0.25890946 0.13618316 0.61400002
-0.25783291 0.13618316 0.61400002
-0.25717455 0.13640495 0.61500001
-0.25651267 0.13662675 0.61600006
-0.25501794 0.13640495 0.61500001
-0.25435257 0.13662675 0.61600006
-0.2532725 0.13662675 0.61600006
-0.25301126 0.13707034 0.61800003
-0.2519277 0.13707034 0.61800003
-0.25165594 0.13751394 0.62
-0.25056887 0.13751394 0.62
-0.25109136 0.13840112 0.62400001
-0.25039792 0.13862291 0.625
-0.24930207 0.13862291 0.625
-0.24820624 0.13862291 0.625
-0.24790117 0.1390665 0.62700003
-0.24719545 0.13928831 0.62800002
-0.24609436 0.13928831 0.62800002
-0.24577349 0.1397319 0.63000005
-0.24544562 0.14017549 0.63200003
-0.24472412 0.1403973 0.63300002
-0.24322942 0.14017549 0.63200003
-0.2425044 0.1403973 0.63300002
-0.2425386 0.14106268 0.63600004
-0.2395255 0.1399537 0.63100004
-0.42591447 0.1882291 0.84200007
-0.42544633 0.18867619 0.84400004
-0.42547351 0.18934685 0.84700006
-0.42599073 0.19024105 0.85100001
-0.42549631 0.19068815 0.85300004
-0.42499486 0.19113524 0.85500002
-0.30299792 0.13971876 0.625
-0.30045295 0.1390481 0.62200004
-0.29936239 0.1390481 0.62200004
-0.29827181 0.1390481 0.62200004
-0.29670346 0.13882455 0.62100005
-0.2951386 0.13860101 0.62
-0.29405153 0.13860101 0.62
-0.29296446 0.13860101 0.62
-0.29093584 0.1381539 0.61800003
-0.28985229 0.1381539 0.61800003
-0.28923601 0.13837744 0.61900002
-0.28768519 0.1381539 0.61800003
-0.28428283 0.13703614 0.61300004
-0.28320804 0.13703614 0.61300004
-0.28259349 0.13725969 0.61400002
-0.28197545 0.13748325 0.61500001
-0.28089714 0.13748325 0.61500001
-0.27936387 0.13725969 0.61400002
-0.27828732 0.13725969 0.61400002
-0.27630779 0.1368126 0.61200005
-0.27613422 0.13725969 0.61400002
-0.27460968 0.13703614 0.61300004
-0.27308866 0.1368126 0.61200005
-0.27201563 0.1368126 0.61200005
-0.27138531 0.13703614 0.61300004
-0.27031052 0.13703614 0.61300004
-0.26923573 0.13703614 0.61300004
-0.26816094 0.13703614 0.61300004
-0.26708615 0.13703614 0.61300004
-0.26644531 0.13725969 0.61400002
-0.26536876 0.13725969 0.61400002
-0.26386178 0.13703614 0.61300004
-0.26278695 0.13703614 0.61300004
-0.26171216 0.13703614 0.61300004
-0.26063737 0.13703614 0.61300004
-0.25998601 0.13725969 0.61400002
-0.25848779 0.13703614 0.61300004
-0.257413 0.13703614 0.61300004
-0.25717455 0.13748325 0.61500001
-0.25609624 0.13748325 0.61500001
-0.2546033 0.13725969 0.61400002
-0.25393966 0.13748325 0.61500001
-0.2532725 0.1377068 0.61600006
-0.25260186 0.13793035 0.61700004
-0.25274301 0.13860101 0.62
-0.25206181 0.13882455 0.62100005
-0.25137717 0.1390481 0.62200004
-0.25149375 0.13971876 0.625
-0.25039792 0.13971876 0.625
-0.24930207 0.13971876 0.625
-0.2490005 0.14016585 0.62700003
-0.24790117 0.14016585 0.62700003
-0.24640821 0.1399423 0.62600005
-0.24570249 0.14016585 0.62700003
-0.24616362 0.14106005 0.63100004
-0.24583399 0.14150715 0.63300002
-0.24356429 0.14083649 0.63000005
-0.2424597 0.14083649 0.63000005
-0.24135509 0.14083649 0.63000005
-0.24139455 0.14150715 0.63300002
-0.2395255 0.14106005 0.63100004
-0.42439696 0.1890295 0.83900005
-0.42191774 0.18857889 0.83700001
-0.42045021 0.18857889 0.83700001
-0.42599073 0.19173314 0.85100001
-0.42599511 0.19240904 0.85400003
-0.42499486 0.19263434 0.85500002
-0.30202833 0.14036398 0.62300003
-0.30045295 0.14013867 0.62200004
-0.29888108 0.13991337 0.62100005
-0.29827181 0.14013867 0.62200004
-0.29718122 0.14013867 0.62200004
-0.29609066 0.14013867 0.62200004
-0.2945258 0.13991337 0.62100005
-0.29296446 0.13968806 0.62
-0.29140663 0.13946277 0.61900002
-0.29032132 0.13946277 0.61900002
-0.28923601 0.13946277 0.61900002
-0.28721967 0.13901216 0.61700004
-0.28428283 0.13811094 0.61300004
-0.28320804 0.13811094 0.61300004
-0.28259349 0.13833624 0.61400002
-0.28197545 0.13856155 0.61500001
-0.28044039 0.13833624 0.61400002
-0.27936387 0.13833624 0.61400002
-0.27828732 0.13833624 0.61400002
-0.27630779 0.13788565 0.61200005
-0.27568448 0.13811094 0.61300004
-0.27460968 0.13811094 0.61300004
-0.27353489 0.13811094 0.61300004
-0.2724601 0.13811094 0.61300004
-0.27138531 0.13811094 0.61300004
-0.27031052 0.13811094 0.61300004
-0.26923573 0.13811094 0.61300004
-0.26816094 0.13811094 0.61300004
-0.26708615 0.13811094 0.61300004
-0.26644531 0.13833624 0.61400002
-0.26536876 0.13833624 0.61400002
-0.26386178 0.13811094 0.61300004
-0.2619296 0.13766034 0.611
-0.26171216 0.13811094 0.61300004
-0.26106256 0.13833624 0.61400002
-0.25956258 0.13811094 0.61300004
-0.25848779 0.13811094 0.61300004
-0.257413 0.13811094 0.61300004
-0.25675637 0.13833624 0.61400002
-0.25567985 0.13833624 0.61400002
-0.2546033 0.13833624 0.61400002
-0.25393966 0.13856155 0.61500001
-0.25450596 0.13946277 0.61900002
-0.25342065 0.13946277 0.61900002
-0.25274301 0.13968806 0.62
-0.25246772 0.14013867 0.62200004
-0.25178128 0.14036398 0.62300003
-0.25149375 0.14081459 0.625
-0.25039792 0.14081459 0.625
-0.24930207 0.14081459 0.625
-0.2490005 0.14126518 0.62700003
-0.2475058 0.14103989 0.62600005
-0.24640821 0.14103989 0.62600005
-0.24609436 0.14149049 0.62800002
-0.24538338 0.14171579 0.62900001
-0.24505726 0.14216641 0.63100004
-0.24433751 0.14239171 0.63200003
-0.24284455 0.14216641 0.63100004
-0.2417382 0.14216641 0.63100004
-0.24139455 0.142617 0.63300002
-0.23990509 0.14239171 0.63200003
-0.42338529 0.19004643 0.83700001
-0.42090958 0.18959232 0.83500004
-0.41944554 0.18959232 0.83500004
-0.41748095 0.18936525 0.83400005
-0.30202833 0.14145631 0.62300003
-0.30045295 0.14122924 0.62200004
-0.2979185 0.14054808 0.61900002
-0.29683319 0.14054808 0.61900002
-0.29622567 0.14077513 0.62
-0.29609066 0.14122924 0.62200004
-0.29500008 0.14122924 0.62200004
-0.29343697 0.14100219 0.62100005
-0.29187739 0.14077513 0.62
-0.29032132 0.14054808 0.61900002
-0.28923601 0.14054808 0.61900002
-0.28675416 0.1398669 0.61600006
-0.2856741 0.1398669 0.61600006
-0.28413203 0.13963985 0.61500001
-0.28351399 0.1398669 0.61600006
-0.28151694 0.13941279 0.61400002
-0.28089714 0.13963985 0.61500001
-0.27936387 0.13941279 0.61400002
-0.27919379 0.1398669 0.61600006
-0.27630779 0.13895868 0.61200005
-0.27568448 0.13918574 0.61300004
-0.27460968 0.13918574 0.61300004
-0.27353489 0.13918574 0.61300004
-0.27157116 0.13873163 0.611
-0.27138531 0.13918574 0.61300004
-0.27031052 0.13918574 0.61300004
-0.26923573 0.13918574 0.61300004
-0.26816094 0.13918574 0.61300004
-0.26708615 0.13918574 0.61300004
-0.26644531 0.13941279 0.61400002
-0.26536876 0.13941279 0.61400002
-0.26386178 0.13918574 0.61300004
-0.2619296 0.13873163 0.611
-0.26171216 0.13918574 0.61300004
-0.26021221 0.13895868 0.61200005
-0.25956258 0.13918574 0.61300004
-0.25848779 0.13918574 0.61300004
-0.257413 0.13918574 0.61300004
-0.25675637 0.13941279 0.61400002
-0.25567985 0.13941279 0.61400002
-0.25501794 0.13963985 0.61500001
-0.25435257 0.1398669 0.61600006
-0.2553283 0.14100219 0.62100005
-0.25423947 0.14100219 0.62100005
-0.25315064 0.14100219 0.62100005
-0.25246772 0.14122924 0.62200004
-0.25258958 0.14191042 0.625
-0.25149375 0.14191042 0.625
-0.25039792 0.14191042 0.625
-0.25009984 0.14236453 0.62700003
-0.2490005 0.14236453 0.62700003
-0.24671504 0.14168335 0.62400001
-0.24640821 0.14213747 0.62600005
-0.24609436 0.14259158 0.62800002
-0.24538338 0.14281864 0.62900001
-0.2446689 0.14304569 0.63000005
-0.24433751 0.14349981 0.63200003
-0.24284455 0.14327276 0.63100004
-0.2417382 0.14327276 0.63100004
-0.24139455 0.14372687 0.63300002
-0.24142347 0.14440803 0.63600004
-0.42136195 0.19059873 0.83300006
-0.41788509 0.18968348 0.82900006
-0.41542691 0.18922587 0.82700002
-0.41347632 0.18899706 0.82600003
-0.30202833 0.14254864 0.62300003
-0.30045295 0.14231981 0.62200004
-0.2979185 0.14163339 0.61900002
-0.29683319 0.14163339 0.61900002
-0.29622567 0.1418622 0.62
-0.29656669 0.14254864 0.62300003
-0.29500008 0.14231981 0.62200004
-0.29343697 0.14209101 0.62100005
-0.29234818 0.14209101 0.62100005
-0.29079032 0.1418622 0.62
-0.28923601 0.14163339 0.61900002
-0.28768519 0.14140458 0.61800003
-0.28613785 0.14117576 0.61700004
-0.28505605 0.14117576 0.61700004
-0.28351399 0.14094695 0.61600006
-0.28197545 0.14071815 0.61500001
-0.28089714 0.14071815 0.61500001
-0.27981886 0.14071815 0.61500001
-0.27828732 0.14048934 0.61400002
-0.27675927 0.14026053 0.61300004
-0.27568448 0.14026053 0.61300004
-0.27460968 0.14026053 0.61300004
-0.27353489 0.14026053 0.61300004
-0.2724601 0.14026053 0.61300004
-0.27138531 0.14026053 0.61300004
-0.27031052 0.14026053 0.61300004
-0.26923573 0.14026053 0.61300004
-0.26816094 0.14026053 0.61300004
-0.26708615 0.14026053 0.61300004
-0.26644531 0.14048934 0.61400002
-0.26536876 0.14048934 0.61400002
-0.26386178 0.14026053 0.61300004
-0.2619296 0.1398029 0.611
-0.26171216 0.14026053 0.61300004
-0.25978702 0.1398029 0.611
-0.25956258 0.14026053 0.61300004
-0.25848779 0.14026053 0.61300004
-0.25783291 0.14048934 0.61400002
-0.25717455 0.14071815 0.61500001
-0.25609624 0.14071815 0.61500001
-0.25501794 0.14071815 0.61500001
-0.25476548 0.14117576 0.61700004
-0.2553283 0.14209101 0.62100005
-0.25383008 0.1418622 0.62
-0.25315064 0.14209101 0.62100005
-0.25246772 0.14231981 0.62200004
-0.25218543 0.14277744 0.62400001
-0.25109136 0.14277744 0.62400001
-0.24999727 0.14277744 0.62400001
-0.24930207 0.14300625 0.625
-0.2490005 0.14346386 0.62700003
-0.24671504 0.14277744 0.62400001
-0.24601458 0.14300625 0.625
-0.24570249 0.14346386 0.62700003
-0.24499327 0.14369267 0.62800002
-0.24428053 0.14392149 0.62900001
-0.24317768 0.14392149 0.62900001
-0.24168998 0.14369267 0.62800002
-0.24135509 0.1441503 0.63000005
-0.2425386 0.14552316 0.63600004
-0.24180308 0.14575197 0.63700002
-0.24181972 0.1464384 0.64000005
-0.24182586 0.14712483 0.64300001
-0.41832691 0.19067587 0.82700002
-0.41536465 0.18998419 0.82400006
-0.41391993 0.18998419 0.82400006
-0.41347632 0.19044532 0.82600003
-0.30202833 0.14364095 0.62300003
-0.30045295 0.1434104 0.62200004
-0.2979185 0.1427187 0.61900002
-0.29683319 0.1427187 0.61900002
-0.2981368 0.14387152 0.62400001
-0.29704273 0.14387152 0.62400001
-0.29500008 0.1434104 0.62200004
-0.29390952 0.1434104 0.62200004
-0.29234818 0.14317983 0.62100005
-0.29032132 0.1427187 0.61900002
-0.2878342 0.14202701 0.61600006
-0.28675416 0.14202701 0.61600006
-0.28613785 0.14225757 0.61700004
-0.28505605 0.14225757 0.61700004
-0.28351399 0.14202701 0.61600006
-0.28197545 0.14179645 0.61500001
-0.28089714 0.14179645 0.61500001
-0.27981886 0.14179645 0.61500001
-0.27874056 0.14179645 0.61500001
-0.27766225 0.14179645 0.61500001
-0.27568448 0.14133532 0.61300004
-0.27460968 0.14133532 0.61300004
-0.27353489 0.14133532 0.61300004
-0.2724601 0.14133532 0.61300004
-0.27138531 0.14133532 0.61300004
-0.27031052 0.14133532 0.61300004
-0.26923573 0.14133532 0.61300004
-0.26903585 0.14179645 0.61500001
-0.26708615 0.14133532 0.61300004
-0.26601136 0.14133532 0.61300004
-0.26536876 0.14156589 0.61400002
-0.26343131 0.14110476 0.61200005
-0.2619296 0.14087419 0.611
-0.26171216 0.14133532 0.61300004
-0.26021221 0.14110476 0.61200005
-0.25956258 0.14133532 0.61300004
-0.25848779 0.14133532 0.61300004
-0.25783291 0.14156589 0.61400002
-0.25675637 0.14156589 0.61400002
-0.25609624 0.14179645 0.61500001
-0.25501794 0.14179645 0.61500001
-0.25435257 0.14202701 0.61600006
-0.2553283 0.14317983 0.62100005
-0.25383008 0.14294927 0.62
-0.25355831 0.1434104 0.62200004
-0.25246772 0.1434104 0.62200004
-0.25178128 0.14364095 0.62300003
-0.25109136 0.14387152 0.62400001
-0.24999727 0.14387152 0.62400001
-0.2489032 0.14387152 0.62400001
-0.24860337 0.14433265 0.62600005
-0.24711041 0.14410208 0.625
-0.24601458 0.14410208 0.625
-0.24570249 0.14456321 0.62700003
-0.24499327 0.14479378 0.62800002
-0.24428053 0.14502433 0.62900001
-0.24279107 0.14479378 0.62800002
-0.24092028 0.14433265 0.62600005
-0.240972 0.14502433 0.62900001
-0.2425386 0.14663827 0.63600004
-0.24142347 0.14663827 0.63600004
-0.24181972 0.14756054 0.64000005
-0.24069759 0.14756054 0.64000005
-0.23994981 0.1477911 0.64100003
-0.41883275 0.1923582 0.82800007
-0.4143565 0.1909643 0.82200003
-0.41291526 0.1909643 0.82200003
-0.41097343 0.19073199 0.82100004
-0.30202833 0.14473328 0.62300003
-0.30045295 0.14450097 0.62200004
-0.29888108 0.14426865 0.62100005
-0.29779226 0.14426865 0.62100005
-0.2981368 0.1449656 0.62400001
-0.29704273 0.1449656 0.62400001
-0.29500008 0.14450097 0.62200004
-0.29343697 0.14426865 0.62100005
-0.29234818 0.14426865 0.62100005
-0.29032132 0.14380401 0.61900002
-0.2878342 0.14310707 0.61600006
-0.28675416 0.14310707 0.61600006
-0.28613785 0.14333938 0.61700004
-0.28505605 0.14333938 0.61700004
-0.28397426 0.14333938 0.61700004
-0.28289244 0.14333938 0.61700004
-0.28089714 0.14287475 0.61500001
-0.27981886 0.14287475 0.61500001
-0.27874056 0.14287475 0.61500001
-0.27766225 0.14287475 0.61500001
-0.27568448 0.14241011 0.61300004
-0.27460968 0.14241011 0.61300004
-0.27353489 0.14241011 0.61300004
-0.27334905 0.14287475 0.61500001
-0.27227074 0.14287475 0.61500001
-0.27119246 0.14287475 0.61500001
-0.26967493 0.14264244 0.61400002
-0.26859838 0.14264244 0.61400002
-0.26795754 0.14287475 0.61500001
-0.26687926 0.14287475 0.61500001
-0.26450437 0.14217781 0.61200005
-0.26300088 0.14194548 0.611
-0.2619296 0.14194548 0.611
-0.2608583 0.14194548 0.611
-0.26021221 0.14217781 0.61200005
-0.25871572 0.14194548 0.611
-0.25764444 0.14194548 0.611
-0.25783291 0.14264244 0.61400002
-0.25633821 0.14241011 0.61300004
-0.25526342 0.14241011 0.61300004
-0.25501794 0.14287475 0.61500001
-0.25517839 0.1435717 0.61800003
-0.25491714 0.14403634 0.62
-0.25423947 0.14426865 0.62100005
-0.25355831 0.14450097 0.62200004
-0.25246772 0.14450097 0.62200004
-0.25178128 0.14473328 0.62300003
-0.25068897 0.14473328 0.62300003
-0.24999727 0.1449656 0.62400001
-0.2489032 0.1449656 0.62400001
-0.24741198 0.14473328 0.62300003
-0.24711041 0.14519791 0.625
-0.24719545 0.14589487 0.62800002
-0.24648623 0.14612718 0.62900001
-0.24616362 0.14659181 0.63100004
-0.24428053 0.14612718 0.62900001
-0.24279107 0.14589487 0.62800002
-0.24168998 0.14589487 0.62800002
-0.240972 0.14612718 0.62900001
-0.24215725 0.14752108 0.63500005
-0.24104388 0.14752108 0.63500005
-0.24144189 0.14845034 0.63900006
-0.2403215 0.14845034 0.63900006
-0.23994981 0.14891498 0.64100003
-0.41630358 0.1926396 0.82300001
-0.41234016 0.19146925 0.81800002
-0.41090593 0.19146925 0.81800002
-0.40947172 0.19146925 0.81800002
-0.40803748 0.19146925 0.81800002
-0.41057983 0.19334182 0.82600003
-0.40962687 0.19357589 0.82700002
-0.30045295 0.14559154 0.62200004
-0.29888108 0.14535747 0.62100005
-0.29779226 0.14535747 0.62100005
-0.29765901 0.14582561 0.62300003
-0.29704273 0.14605968 0.62400001
-0.29547435 0.14582561 0.62300003
-0.29343697 0.14535747 0.62100005
-0.29234818 0.14535747 0.62100005
-0.28985229 0.14465526 0.61800003
-0.2878342 0.14418712 0.61600006
-0.28675416 0.14418712 0.61600006
-0.28613785 0.14442119 0.61700004
