# .PCD v0.7 - Point Cloud Data file format
VERSION 0.7
FIELDS x y z
SIZE 4 4 4
TYPE F F F
COUNT 1 1 1
WIDTH 718
HEIGHT 1
VIEWPOINT 0 0 0 1 0 0 0
POINTS 718
DATA ascii
0.13994756 0.10650098 1.0040001
0.14170791 0.10650098 1.0040001
0.14066467 0.11020226 1.0220001
0.13980816 0.10815349 1.003
0.14156677 0.10815349 1.003
0.14418274 0.10880047 1.0090001
0.14667509 0.10933962 1.0140001
0.12824669 0.11210375 1.023
0.13016747 0.11221334 1.024
0.13914454 0.11221334 1.024
0.14052704 0.11188458 1.021
0.14064451 0.11056958 1.0090001
0.14241362 0.11056958 1.0090001
0.14418274 0.11056958 1.0090001
0.14667509 0.1111175 1.0140001
0.1490386 0.11155583 1.018
0.11478635 0.11300672 1.0150001
0.11656598 0.11300672 1.0150001
0.11834562 0.11300672 1.0150001
0.12012525 0.11300672 1.0150001
0.12286571 0.11389741 1.023
0.12465937 0.11389741 1.023
0.12645303 0.11389741 1.023
0.12824669 0.11389741 1.023
0.13914454 0.11400875 1.024
0.14052704 0.11367474 1.021
0.14231719 0.11367474 1.021
0.14368391 0.11334073 1.018
0.1454688 0.11334073 1.018
0.14681976 0.11300672 1.0150001
0.14889219 0.11322939 1.0170001
0.051826779 0.11331618 1.0020001
0.099450819 0.11557798 1.0220001
0.10651413 0.11546489 1.021
0.10756174 0.11467326 1.0140001
0.10944745 0.11478635 1.0150001
0.11122708 0.11478635 1.0150001
0.11300672 0.11478635 1.0150001
0.11467326 0.11467326 1.0140001
0.11645114 0.11467326 1.0140001
0.11822902 0.11467326 1.0140001
0.12036195 0.11501253 1.0170001
0.12286571 0.11569107 1.023
0.12465937 0.11569107 1.023
0.1260822 0.1153518 1.0200001
0.1278706 0.1153518 1.0200001
0.12991323 0.11557798 1.0220001
0.13170514 0.11557798 1.0220001
0.14093995 0.11580416 1.024
0.14231719 0.11546489 1.021
0.14368391 0.11512562 1.018
0.1454688 0.11512562 1.018
0.14739835 0.11523871 1.0190001
0.149185 0.11523871 1.0190001
0.15097164 0.11523871 1.0190001
0.05011991 0.11518786 1.003
0.051878504 0.11518786 1.003
0.053476665 0.11484333 1
0.055174768 0.11472849 0.99900007
0.056926351 0.11472849 0.99900007
0.10293382 0.11725504 1.021
0.1046214 0.1171402 1.0200001
0.1064098 0.1171402 1.0200001
0.10745566 0.11633629 1.013
0.10923179 0.11633629 1.013
0.11100791 0.11633629 1.013
0.11278404 0.11633629 1.013
0.11467326 0.11645114 1.0140001
0.11645114 0.11645114 1.0140001
0.11822902 0.11645114 1.0140001
0.1200069 0.11645114 1.0140001
0.12465937 0.11748473 1.023
0.1260822 0.1171402 1.0200001
0.1278706 0.1171402 1.0200001
0.129659 0.1171402 1.0200001
0.13170514 0.11736988 1.0220001
0.13349704 0.11736988 1.0220001
0.13528895 0.11736988 1.0220001
0.13914454 0.11759957 1.024
0.14093995 0.11759957 1.024
0.14231719 0.11725504 1.021
0.14410734 0.11725504 1.021
0.1454688 0.11691051 1.018
0.14725369 0.11691051 1.018
0.149185 0.11702535 1.0190001
0.15097164 0.11702535 1.0190001
0.15275829 0.11702535 1.0190001
0.15499993 0.11736988 1.0220001
0.15709867 0.11759957 1.024
-0.160494 0.11414813 0.97900003
-0.15877748 0.11414813 0.97900003
-0.15738183 0.11438133 0.98100007
-0.15597916 0.11461452 0.98300004
-0.15425563 0.11461452 0.98300004
-0.15222177 0.11438133 0.98100007
-0.13012627 0.11461452 0.98300004
-0.12827212 0.11449792 0.98200005
-0.12667921 0.11461452 0.98300004
-0.12482857 0.11449792 0.98200005
-0.12298143 0.11438133 0.98100007
-0.11746106 0.11403154 0.97800004
-0.1157463 0.11403154 0.97800004
-0.11391494 0.11391494 0.97700006
0.04493355 0.11717965 1.005
0.04669565 0.11717965 1.005
0.048216667 0.11659667 1
0.05011991 0.11694646 1.003
0.051878504 0.11694646 1.003
0.053476665 0.11659667 1
0.055174768 0.11648007 0.99900007
0.056926351 0.11648007 0.99900007
0.058736667 0.11659667 1
0.066275999 0.11752944 1.008
0.068110861 0.11764604 1.0090001
0.069879979 0.11764604 1.0090001
0.071578078 0.11752944 1.008
0.073345438 0.11752944 1.008
0.082671419 0.11822902 1.0140001
0.087397531 0.11741284 1.0070001
0.089428768 0.11776263 1.01
0.091380224 0.11799583 1.0120001
0.093522802 0.11846221 1.016
0.095022775 0.11811242 1.013
0.096703343 0.11799583 1.0120001
0.098575026 0.11811242 1.013
0.10035115 0.11811242 1.013
0.10202646 0.11799583 1.0120001
0.10369827 0.11787923 1.011
0.10547089 0.11787923 1.011
0.10713743 0.11776263 1.01
0.1089083 0.11776263 1.01
0.11067916 0.11776263 1.01
0.11245003 0.11776263 1.01
0.1142209 0.11776263 1.01
0.11610661 0.11787923 1.011
0.11787923 0.11787923 1.011
0.11965185 0.11787923 1.011
0.1225054 0.1189286 1.0200001
0.1242938 0.1189286 1.0200001
0.1260822 0.1189286 1.0200001
0.12749451 0.11857881 1.0170001
0.12927765 0.11857881 1.0170001
0.13131852 0.118812 1.0190001
0.13310517 0.118812 1.0190001
0.13489182 0.118812 1.0190001
0.13708086 0.11916179 1.0220001
0.13873689 0.1190452 1.021
0.14052704 0.1190452 1.021
0.14231719 0.1190452 1.021
0.14410734 0.1190452 1.021
0.14589749 0.1190452 1.021
0.14739835 0.118812 1.0190001
0.149185 0.118812 1.0190001
0.15097164 0.118812 1.0190001
0.15275829 0.118812 1.0190001
0.15499993 0.11916179 1.0220001
0.15694524 0.11927839 1.023
-0.19231875 0.11539125 0.97500002
-0.19100024 0.11562795 0.97700006
-0.160494 0.11586465 0.97900003
-0.15812875 0.11539125 0.97500002
-0.15657967 0.1155096 0.97600007
-0.15502711 0.11562795 0.97700006
-0.1533141 0.11562795 0.97700006
-0.15144593 0.1155096 0.97600007
-0.15004151 0.1157463 0.97800004
-0.14832674 0.1157463 0.97800004
-0.14616224 0.11539125 0.97500002
-0.14445275 0.11539125 0.97500002
-0.14362167 0.11610135 0.98100007
-0.13039102 0.11657475 0.98500007
-0.12840274 0.11633805 0.98300004
-0.12667921 0.11633805 0.98300004
-0.12495568 0.11633805 0.98300004
-0.12285607 0.115983 0.98000002
-0.1211378 0.115983 0.98000002
-0.11941953 0.115983 0.98000002
-0.11770126 0.115983 0.98000002
-0.11586465 0.11586465 0.97900003
-0.11426473 0.115983 0.98000002
-0.11139365 0.11657475 0.98500007
-0.11000063 0.1169298 0.98800004
-0.10826834 0.1169298 0.98800004
0.041285738 0.1185867 1.0020001
0.043042582 0.1185867 1.0020001
0.044799421 0.1185867 1.0020001
0.04655626 0.1185867 1.0020001
0.048168451 0.11823165 0.99900007
0.04992003 0.11823165 0.99900007
0.051619887 0.1181133 0.99800003
0.053369712 0.1181133 0.99800003
0.055119541 0.1181133 0.99800003
0.056869365 0.1181133 0.99800003
0.05867793 0.11823165 0.99900007
0.060490001 0.11835 1
0.062430061 0.11870505 1.003
0.064188659 0.11870505 1.003
0.066144496 0.1190601 1.006
0.067908354 0.1190601 1.006
0.069672205 0.1190601 1.006
0.071365051 0.11894175 1.005
0.073127151 0.11894175 1.005
0.07488925 0.11894175 1.005
0.077108972 0.11965185 1.011
0.078881592 0.11965185 1.011
0.080893539 0.1200069 1.0140001
0.082671419 0.1200069 1.0140001
0.085546888 0.1190601 1.006
0.087310739 0.1190601 1.006
0.089340225 0.11941515 1.0090001
0.091109335 0.11941515 1.0090001
0.092878446 0.11941515 1.0090001
0.094366156 0.1190601 1.006
0.096130006 0.1190601 1.006
0.097893856 0.1190601 1.006
0.099657714 0.1190601 1.006
0.10172401 0.11941515 1.0090001
0.10380084 0.1197702 1.0120001
0.10515792 0.1192968 1.008
0.1068192 0.11917845 1.0070001
0.10869264 0.1192968 1.008
0.11046 0.1192968 1.008
0.11211602 0.11917845 1.0070001
0.11399472 0.1192968 1.008
0.11610661 0.11965185 1.011
0.11776263 0.1195335 1.01
0.11965185 0.11965185 1.011
0.12214509 0.12036195 1.0170001
0.1242938 0.120717 1.0200001
0.12546416 0.12012525 1.0150001
0.12749451 0.12036195 1.0170001
0.1288963 0.1200069 1.0140001
0.13080305 0.12012525 1.0150001
0.13297455 0.1204803 1.018
0.13475944 0.1204803 1.018
0.13654433 0.1204803 1.018
0.13873689 0.12083535 1.021
0.14052704 0.12083535 1.021
0.14231719 0.12083535 1.021
0.14410734 0.12083535 1.021
0.1454688 0.1204803 1.018
0.14739835 0.12059865 1.0190001
0.149185 0.12059865 1.0190001
0.15097164 0.12059865 1.0190001
0.15275829 0.12059865 1.0190001
0.15499993 0.1209537 1.0220001
0.15633158 0.12059865 1.0190001
-0.19212151 0.11698065 0.97400004
-0.19021825 0.11686055 0.97300005
-0.18773729 0.11638013 0.96900004
-0.18603832 0.11638013 0.96900004
-0.16887406 0.11626003 0.96800005
-0.16683142 0.11601982 0.96600002
-0.16513769 0.11601982 0.96600002
-0.15983824 0.11710075 0.97500002
-0.15812875 0.11710075 0.97500002
-0.15657967 0.11722086 0.97600007
-0.15518577 0.11746106 0.97800004
-0.15300025 0.11710075 0.97500002
-0.15098041 0.11686055 0.97300005
-0.14927441 0.11686055 0.97300005
-0.14756842 0.11686055 0.97300005
-0.14601234 0.11698065 0.97400004
-0.14474906 0.11734096 0.97700006
-0.14274324 0.11710075 0.97500002
-0.1403105 0.11650024 0.97000003
-0.13860977 0.11650024 0.97000003
-0.13632342 0.11746106 0.97800004
-0.13460866 0.11746106 0.97800004
-0.1314474 0.11770126 0.98000002
-0.12972914 0.11770126 0.98000002
-0.12801087 0.11770126 0.98000002
-0.1262926 0.11770126 0.98000002
-0.1243201 0.11746106 0.97800004
-0.12260534 0.11746106 0.97800004
-0.12126141 0.11782137 0.98100007
-0.11954139 0.11782137 0.98100007
-0.11746106 0.11746106 0.97800004
-0.11562795 0.11734096 0.97700006
-0.11426473 0.11770126 0.98000002
-0.11243162 0.11758116 0.97900003
-0.11071511 0.11758116 0.97900003
-0.1089986 0.11758116 0.97900003
-0.10739166 0.11770126 0.98000002
-0.10578123 0.11782137 0.98100007
0.041285738 0.12034354 1.0020001
0.042870753 0.11986312 0.99800003
0.044620581 0.11986312 0.99800003
0.046370406 0.11986312 0.99800003
0.048168451 0.11998323 0.99900007
0.049820088 0.11974302 0.99700004
0.051568162 0.11974302 0.99700004
0.053423189 0.11998323 0.99900007
0.055119541 0.11986312 0.99800003
0.056869365 0.11986312 0.99800003
0.05867793 0.11998323 0.99900007
0.06042951 0.11998323 0.99900007
0.062243331 0.12010333 1
0.064188659 0.12046364 1.003
0.065881498 0.12034354 1.0020001
0.067638338 0.12034354 1.0020001
0.069395177 0.12034354 1.0020001
0.071152017 0.12034354 1.0020001
0.072617806 0.11986312 0.99800003
0.074367635 0.11986312 0.99800003
0.0770327 0.12130436 1.01
0.079037637 0.12166467 1.013
0.080813766 0.12166467 1.013
0.082671419 0.12178478 1.0140001
0.083366618 0.12022343 1.001
0.085461847 0.12070385 1.005
0.087223947 0.12070385 1.005
0.089074589 0.12082395 1.006
0.090657853 0.12058374 1.0040001
0.092418201 0.12058374 1.0040001
0.09408474 0.12046364 1.003
0.095843337 0.12046364 1.003
0.097893856 0.12082395 1.006
0.099756777 0.12094405 1.0070001
0.10182483 0.12130436 1.01
0.1035957 0.12130436 1.01
0.10526224 0.12118426 1.0090001
0.10703135 0.12118426 1.0090001
0.10880047 0.12118426 1.0090001
0.11046 0.12106416 1.008
0.11222736 0.12106416 1.008
0.11410781 0.12118426 1.0090001
0.11576208 0.12106416 1.008
0.11752944 0.12106416 1.008
0.1192968 0.12106416 1.008
0.12142447 0.12142447 1.011
0.12356266 0.12178478 1.0140001
0.12534054 0.12178478 1.0140001
0.12699306 0.12166467 1.013
0.1288963 0.12178478 1.0140001
0.13067418 0.12178478 1.0140001
0.13245206 0.12178478 1.0140001
0.13422994 0.12178478 1.0140001
0.13614196 0.12190488 1.0150001
0.13832924 0.12226519 1.018
0.13997649 0.12214509 1.0170001
0.14175963 0.12214509 1.0170001
0.14368391 0.12226519 1.018
0.1456117 0.12238529 1.0190001
0.14739835 0.12238529 1.0190001
0.149185 0.12238529 1.0190001
0.15097164 0.12238529 1.0190001
0.15275829 0.12238529 1.0190001
0.1546966 0.1225054 1.0200001
-0.19711411 0.11759168 0.96500003
-0.19481462 0.11722611 0.96200007
-0.19332866 0.11734797 0.96300006
-0.19164021 0.11734797 0.96300006
-0.18995175 0.11734797 0.96300006
-0.18787229 0.11710425 0.96100003
-0.18657483 0.11734797 0.96300006
-0.18488637 0.11734797 0.96300006
-0.18319792 0.11734797 0.96300006
-0.18150945 0.11734797 0.96300006
-0.18150155 0.11844468 0.97200006
-0.17620736 0.11832282 0.97100008
-0.17360631 0.11771354 0.96600002
-0.17191258 0.11771354 0.96600002
-0.17021886 0.11771354 0.96600002
-0.16835068 0.11759168 0.96500003
-0.16648601 0.11746982 0.96400005
-0.16462485 0.11734797 0.96300006
-0.16361317 0.1178354 0.96700007
-0.16141537 0.11746982 0.96400005
-0.15972516 0.11746982 0.96400005
-0.15934645 0.11844468 0.97200006
-0.1576422 0.11844468 0.97200006
-0.1560984 0.11856654 0.97300005
-0.15439239 0.11856654 0.97300005
-0.15252948 0.11844468 0.97200006
-0.1505149 0.11820097 0.97000003
-0.14881417 0.11820097 0.97000003
-0.14756842 0.11856654 0.97300005
-0.14601234 0.11868839 0.97400004
-0.14430459 0.11868839 0.97400004
-0.14245044 0.11856654 0.97300005
-0.14045514 0.11832282 0.97100008
-0.13860977 0.11820097 0.97000003
-0.13705018 0.11832282 0.97100008
-0.13548708 0.11844468 0.97200006
-0.13378283 0.11844468 0.97200006
-0.13248625 0.11881025 0.97500002
-0.13050848 0.11856654 0.97300005
-0.12906724 0.11881025 0.97500002
-0.12735775 0.11881025 0.97500002
-0.1262926 0.11941953 0.98000002
-0.12419298 0.11905396 0.97700006
-0.12235461 0.11893211 0.97600007
-0.12064336 0.11893211 0.97600007
-0.11929768 0.11929768 0.97900003
-0.11746106 0.11917582 0.97800004
-0.11562795 0.11905396 0.97700006
-0.11391494 0.11905396 0.97700006
-0.11220194 0.11905396 0.97700006
-0.11037584 0.11893211 0.97600007
-0.10910993 0.11941953 0.98000002
-0.10706291 0.11905396 0.97700006
-0.10534991 0.11905396 0.97700006
-0.10384905 0.11929768 0.97900003
0.041285738 0.12210038 1.0020001
0.042870753 0.12161295 0.99800003
0.044620581 0.12161295 0.99800003
0.046416871 0.12173481 0.99900007
0.048216667 0.12185667 1
0.049870059 0.12161295 0.99800003
0.051619887 0.12161295 0.99800003
0.053369712 0.12161295 0.99800003
0.055009078 0.12136924 0.99600005
0.056755401 0.12136924 0.99600005
0.058560457 0.1214911 0.99700004
0.06042951 0.12173481 0.99900007
0.062243331 0.12185667 1
0.063996665 0.12185667 1
0.065881498 0.12210038 1.0020001
0.067638338 0.12210038 1.0020001
0.069395177 0.12210038 1.0020001
0.071152017 0.12210038 1.0020001
0.072617806 0.12161295 0.99800003
0.074367635 0.12161295 0.99800003
0.076346271 0.12197852 1.001
0.078101359 0.12197852 1.001
0.07985644 0.12197852 1.001
0.081611529 0.12197852 1.001
0.083366618 0.12197852 1.001
0.085121706 0.12197852 1.001
0.086876787 0.12197852 1.001
0.088808961 0.12222224 1.003
0.090386964 0.12197852 1.001
0.092418201 0.12234409 1.0040001
0.094178542 0.12234409 1.0040001
0.095938891 0.12234409 1.0040001
0.09769924 0.12234409 1.0040001
0.099459589 0.12234409 1.0040001
0.10152239 0.12270966 1.0070001
0.10328799 0.12270966 1.0070001
0.10494927 0.12258781 1.006
0.10671312 0.12258781 1.006
0.10847698 0.12258781 1.006
0.11013125 0.12246595 1.005
0.11222736 0.12283152 1.008
0.11410781 0.12295338 1.0090001
0.11541755 0.12246595 1.005
0.11717965 0.12246595 1.005
0.11894175 0.12246595 1.005
0.12106416 0.12283152 1.008
0.12319709 0.12319709 1.011
0.12509333 0.12331895 1.0120001
0.12674233 0.12319709 1.011
0.12851495 0.12319709 1.011
0.13028757 0.12319709 1.011
0.13245206 0.12356266 1.0140001
0.13383281 0.12319709 1.011
0.13560542 0.12319709 1.011
0.1377857 0.12356266 1.0140001
0.13956358 0.12356266 1.0140001
0.14175963 0.12392823 1.0170001
0.14368391 0.12405009 1.018
0.1454688 0.12405009 1.018
0.14739835 0.12417194 1.0190001
0.149185 0.12417194 1.0190001
0.15097164 0.12417194 1.0190001
0.15260838 0.12405009 1.018
-0.19711411 0.11928365 0.96500003
-0.19481462 0.11891282 0.96200007
-0.19312792 0.11891282 0.96200007
-0.19144121 0.11891282 0.96200007
-0.18995175 0.11903643 0.96300006
-0.18826328 0.11903643 0.96300006
-0.18657483 0.11903643 0.96300006
-0.18450239 0.11878921 0.96100003
-0.18243696 0.11854199 0.95900005
-0.18150945 0.11903643 0.96300006
-0.18056791 0.11953087 0.96700007
-0.17868745 0.11940726 0.96600002
-0.17699374 0.11940726 0.96600002
-0.17530002 0.11940726 0.96600002
-0.17306715 0.11903643 0.96300006
-0.17137869 0.11903643 0.96300006
-0.16969022 0.11903643 0.96300006
-0.16800177 0.11903643 0.96300006
-0.16665871 0.11928365 0.96500003
-0.1647958 0.11916004 0.96400005
-0.16395158 0.11977809 0.96900004
-0.16175026 0.11940726 0.96600002
-0.16005655 0.11940726 0.96600002
-0.1591825 0.12002531 0.97100008
-0.15731783 0.1199017 0.97000003
-0.15593795 0.12014892 0.97200006
-0.15423372 0.12014892 0.97200006
-0.15221563 0.1199017 0.97000003
-0.1505149 0.1199017 0.97000003
-0.14866075 0.11977809 0.96900004
-0.14696176 0.11977809 0.96900004
-0.1454127 0.1199017 0.97000003
-0.14386012 0.12002531 0.97100008
-0.14215763 0.12002531 0.97100008
-0.14045514 0.12002531 0.97100008
-0.13875267 0.12002531 0.97100008
-0.13719133 0.12014892 0.97200006
-0.13562647 0.12027253 0.97300005
-0.13364521 0.12002531 0.97100008
-0.1320786 0.12014892 0.97200006
-0.13037436 0.12014892 0.97200006
-0.12867013 0.12014892 0.97200006
-0.12696588 0.12014892 0.97200006
-0.12590599 0.12076697 0.97700006
-0.12381163 0.12039614 0.97400004
-0.12197852 0.12027253 0.97300005
-0.12027253 0.12027253 0.97300005
-0.11893211 0.12064336 0.97600007
-0.11710075 0.12051975 0.97500002
-0.1152729 0.12039614 0.97400004
-0.11344855 0.12027253 0.97300005
-0.11220194 0.12076697 0.97700006
-0.11014966 0.12039614 0.97400004
-0.10877592 0.12076697 0.97700006
-0.10706291 0.12076697 0.97700006
-0.10534991 0.12076697 0.97700006
-0.10384905 0.12101419 0.97900003
-0.10213254 0.12101419 0.97900003
-0.10041603 0.12101419 0.97900003
0.041203335 0.12361 1
0.042913709 0.12348639 0.99900007
0.044665288 0.12348639 0.99900007
0.046463333 0.12361 1
0.048120234 0.12336278 0.99800003
0.049720149 0.12299195 0.99500006
0.051464718 0.12299195 0.99500006
0.053369712 0.12336278 0.99800003
0.055009078 0.12311556 0.99600005
0.056755401 0.12311556 0.99600005
0.058560457 0.12323917 0.99700004
0.060308531 0.12323917 0.99700004
0.062243331 0.12361 1
0.063996665 0.12361 1
0.065684251 0.12348639 0.99900007
0.067435831 0.12348639 0.99900007
0.06911815 0.12336278 0.99800003
0.070867978 0.12336278 0.99800003
0.072472282 0.12311556 0.99600005
0.074218601 0.12311556 0.99600005
0.07596492 0.12311556 0.99600005
0.077711239 0.12311556 0.99600005
0.079617113 0.12336278 0.99800003
0.081366941 0.12336278 0.99800003
0.096034452 0.12422805 1.005
0.12509333 0.12509333 1.0120001
0.13396518 0.12509333 1.0120001
0.13573956 0.12509333 1.0120001
0.13792159 0.12546416 1.0150001
0.13970122 0.12546416 1.0150001
0.14148085 0.12546416 1.0150001
0.14326048 0.12546416 1.0150001
0.14518301 0.12558776 1.016
0.1469644 0.12558776 1.016
-0.19880608 0.12097561 0.96500003
-0.19650133 0.12059952 0.96200007
-0.19481462 0.12059952 0.96200007
-0.1927264 0.1203488 0.96000004
-0.1910432 0.1203488 0.96000004
-0.18995175 0.12072489 0.96300006
-0.18787229 0.12047416 0.96100003
-0.18618734 0.12047416 0.96100003
-0.18450239 0.12047416 0.96100003
-0.18243696 0.12022343 0.95900005
-0.18113248 0.12047416 0.96100003
-0.17944753 0.12047416 0.96100003
-0.17776258 0.12047416 0.96100003
-0.17607762 0.12047416 0.96100003
-0.1747556 0.12072489 0.96300006
-0.17306715 0.12072489 0.96300006
-0.17137869 0.12072489 0.96300006
-0.16969022 0.12072489 0.96300006
-0.16800177 0.12072489 0.96300006
-0.16665871 0.12097561 0.96500003
-0.1647958 0.12085025 0.96400005
-0.16395158 0.12147707 0.96900004
-0.16225259 0.12147707 0.96900004
-0.1605536 0.12147707 0.96900004
-0.15934645 0.12185316 0.97200006
-0.15748002 0.12172779 0.97100008
-0.15577753 0.12172779 0.97100008
-0.15407504 0.12172779 0.97100008
-0.15190178 0.1213517 0.96800005
-0.15020455 0.1213517 0.96800005
-0.14835392 0.12122634 0.96700007
-0.14665844 0.12122634 0.96700007
-0.14511287 0.1213517 0.96800005
-0.14341566 0.1213517 0.96800005
-0.14171843 0.1213517 0.96800005
-0.1403105 0.12160243 0.97000003
-0.13860977 0.12160243 0.97000003
-0.13719133 0.12185316 0.97200006
-0.13562647 0.12197852 0.97300005
-0.13378283 0.12185316 0.97200006
-0.13221449 0.12197852 0.97300005
-0.13037436 0.12185316 0.97200006
-0.12867013 0.12185316 0.97200006
-0.12696588 0.12185316 0.97200006
-0.12577713 0.12235461 0.97600007
-0.12381163 0.12210388 0.97400004
-0.12210388 0.12210388 0.97400004
-0.12039614 0.12210388 0.97400004
-0.11856654 0.12197852 0.97300005
-0.11722086 0.12235461 0.97600007
-0.1152729 0.12210388 0.97400004
-0.11356515 0.12210388 0.97400004
-0.11174256 0.12197852 0.97300005
-0.11014966 0.12210388 0.97400004
-0.10855325 0.12222925 0.97500002
-0.10684375 0.12222925 0.97500002
-0.10513425 0.12222925 0.97500002
-0.10363691 0.12247998 0.97700006
-0.10181957 0.12235461 0.97600007
-0.10021089 0.12247998 0.97700006
0.041203335 0.12536334 1
0.042956665 0.12536334 1
0.044709999 0.12536334 1
0.046370406 0.12511261 0.99800003
0.048120234 0.12511261 0.99800003
0.049720149 0.12473652 0.99500006
0.051464718 0.12473652 0.99500006
0.053369712 0.12511261 0.99800003
0.062181089 0.12523797 0.99900007
0.063932672 0.12523797 0.99900007
0.065684251 0.12523797 0.99900007
0.067435831 0.12523797 0.99900007
-0.1990121 0.1227947 0.96600002
-0.19670559 0.12241335 0.96300006
-0.19461212 0.12215912 0.96100003
-0.19292715 0.12215912 0.96100003
-0.1912422 0.12215912 0.96100003
-0.18955725 0.12215912 0.96100003
-0.18787229 0.12215912 0.96100003
-0.18618734 0.12215912 0.96100003
-0.18450239 0.12215912 0.96100003
-0.18243696 0.12190488 0.95900005
-0.172528 0.122032 0.96000004
-0.17102276 0.12215912 0.96100003
-0.16933781 0.12215912 0.96100003
-0.16800177 0.12241335 0.96300006
-0.16648601 0.12254047 0.96400005
-0.1647958 0.12254047 0.96400005
-0.16344398 0.1227947 0.96600002
-0.16225259 0.12317605 0.96900004
-0.1605536 0.12317605 0.96900004
-0.1591825 0.12343028 0.97100008
-0.15748002 0.12343028 0.97100008
-0.15577753 0.12343028 0.97100008
-0.15407504 0.12343028 0.97100008
-0.15221563 0.12330317 0.97000003
-0.15035973 0.12317605 0.96900004
-0.14835392 0.12292182 0.96700007
-0.14665844 0.12292182 0.96700007
-0.14511287 0.12304893 0.96800005
-0.14341566 0.12304893 0.96800005
-0.14171843 0.12304893 0.96800005
-0.1400212 0.12304893 0.96800005
-0.13832398 0.12304893 0.96800005
-0.13676789 0.12317605 0.96900004
-0.13548708 0.1235574 0.97200006
-0.13378283 0.1235574 0.97200006
-0.13221449 0.12368452 0.97300005
-0.13050848 0.12368452 0.97300005
-0.12880249 0.12368452 0.97300005
-0.1270965 0.12368452 0.97300005
-0.12539051 0.12368452 0.97300005
-0.12381163 0.12381163 0.97400004
-0.12210388 0.12381163 0.97400004
-0.12039614 0.12381163 0.97400004
-0.11856654 0.12368452 0.97300005
-0.11710075 0.12393875 0.97500002
-0.11515455 0.12368452 0.97300005
-0.11344855 0.12368452 0.97300005
-0.11174256 0.12368452 0.97300005
-0.11026275 0.12393875 0.97500002
-0.10855325 0.12393875 0.97500002
-0.10684375 0.12393875 0.97500002
-0.10524208 0.12406587 0.97600007
-0.10363691 0.12419298 0.97700006
-0.10181957 0.12406587 0.97600007
-0.10021089 0.12419298 0.97700006
0.042956665 0.12711667 1
0.044709999 0.12711667 1
0.046370406 0.12686244 0.99800003
0.048120234 0.12686244 0.99800003
-0.1990121 0.12448842 0.96600002
-0.16648601 0.12423068 0.96400005
-0.1647958 0.12423068 0.96400005
-0.16344398 0.12448842 0.96600002
-0.16225259 0.12487503 0.96900004
-0.16071931 0.1250039 0.97000003
-0.1591825 0.12513277 0.97100008
-0.15748002 0.12513277 0.97100008
-0.15529624 0.12474616 0.96800005
-0.15359901 0.12474616 0.96800005
-0.15174486 0.12461729 0.96700007
-0.15004939 0.12461729 0.96700007
-0.1468101 0.12474616 0.96800005
-0.14341566 0.12474616 0.96800005
-0.13548708 0.12526163 0.97200006
-0.13392048 0.12539051 0.97300005
-0.13221449 0.12539051 0.97300005
-0.13050848 0.12539051 0.97300005
-0.12880249 0.12539051 0.97300005
-0.12722713 0.12551938 0.97400004
-0.12551938 0.12551938 0.97400004
-0.12381163 0.12551938 0.97400004
-0.12210388 0.12551938 0.97400004
-0.12039614 0.12551938 0.97400004
-0.16225259 0.12657401 0.96900004
-0.16088499 0.12683526 0.97100008
0.18981937 0.13895868 1.036
