# .PCD v0.7 - Point Cloud Data file format
VERSION 0.7
FIELDS x y z
SIZE 4 4 4
TYPE F F F
COUNT 1 1 1
WIDTH 1412
HEIGHT 1
VIEWPOINT 0 0 0 1 0 0 0
POINTS 1412
DATA ascii
-0.19734468 0.15374979 0.44400004
-0.19656619 0.15374979 0.44400004
-0.19534676 0.15340352 0.44300002
-0.19457003 0.15340352 0.44300002
-0.1937933 0.15340352 0.44300002
-0.19258088 0.15305723 0.44200003
-0.19223985 0.15340352 0.44300002
-0.19103092 0.15305723 0.44200003
-0.19025595 0.15305723 0.44200003
-0.18905228 0.15271094 0.44100001
-0.18827906 0.15271094 0.44100001
-0.18750586 0.15271094 0.44100001
-0.18800291 0.15374979 0.44400004
-0.18680276 0.15340352 0.44300002
-0.18518619 0.15271094 0.44100001
-0.18483114 0.15305723 0.44200003
-0.18405616 0.15305723 0.44200003
-0.18369585 0.15340352 0.44300002
-0.18291913 0.15340352 0.44300002
-0.18214241 0.15340352 0.44300002
-0.18218449 0.15409608 0.44500002
-0.1818119 0.15444237 0.44600001
-0.18143581 0.15478864 0.44700003
-0.18105622 0.15513493 0.44800001
-0.18027072 0.15513493 0.44800001
-0.17948523 0.15513493 0.44800001
-0.17830084 0.15478864 0.44700003
-0.17711999 0.15444237 0.44600001
-0.17673337 0.15478864 0.44700003
-0.17594963 0.15478864 0.44700003
-0.17555776 0.15513493 0.44800001
-0.17477226 0.15513493 0.44800001
-0.17359841 0.15478864 0.44700003
-0.17281467 0.15478864 0.44700003
-0.17203093 0.15478864 0.44700003
-0.17086409 0.15444237 0.44600001
-0.16970074 0.15409608 0.44500002
-0.16854092 0.15374979 0.44400004
-0.16814028 0.15409608 0.44500002
-0.16660787 0.15340352 0.44300002
-0.16583115 0.15340352 0.44300002
-0.165427 0.15374979 0.44400004
-0.16464852 0.15374979 0.44400004
-0.1646082 0.15444237 0.44600001
-0.16382621 0.15444237 0.44600001
-0.16304421 0.15444237 0.44600001
-0.16226223 0.15444237 0.44600001
-0.16148025 0.15444237 0.44600001
-0.16069826 0.15444237 0.44600001
-0.16027483 0.15478864 0.44700003
-0.15913428 0.15444237 0.44600001
-0.1583523 0.15444237 0.44600001
-0.15721701 0.15409608 0.44500002
-0.15643679 0.15409608 0.44500002
-0.15600634 0.15444237 0.44600001
-0.15557238 0.15478864 0.44700003
-0.15409608 0.15409608 0.44500002
-0.15331584 0.15409608 0.44500002
-0.15287839 0.15444237 0.44600001
-0.15175538 0.15409608 0.44500002
-0.15063588 0.15374979 0.44400004
-0.1498574 0.15374979 0.44400004
-0.14874315 0.15340352 0.44300002
-0.14830044 0.15374979 0.44400004
-0.14785421 0.15409608 0.44500002
-0.14707398 0.15409608 0.44500002
-0.14629374 0.15409608 0.44500002
-0.14551352 0.15409608 0.44500002
-0.14473328 0.15409608 0.44500002
-0.14395306 0.15409608 0.44500002
-0.14317282 0.15409608 0.44500002
-0.14239258 0.15409608 0.44500002
-0.14161235 0.15409608 0.44500002
-0.14083211 0.15409608 0.44500002
-0.14005189 0.15409608 0.44500002
-0.13927165 0.15409608 0.44500002
-0.13849142 0.15409608 0.44500002
-0.13740171 0.15374979 0.44400004
-0.13662323 0.15374979 0.44400004
-0.1355388 0.15340352 0.44300002
-0.13506629 0.15374979 0.44400004
-0.1348927 0.15444237 0.44600001
-0.13381001 0.15409608 0.44500002
-0.13302979 0.15409608 0.44500002
-0.13195236 0.15374979 0.44400004
-0.13117388 0.15374979 0.44400004
-0.1303954 0.15374979 0.44400004
-0.12961692 0.15374979 0.44400004
-0.12883843 0.15374979 0.44400004
-0.12777154 0.15340352 0.44300002
-0.1269948 0.15340352 0.44300002
-0.12621808 0.15340352 0.44300002
-0.12544136 0.15340352 0.44300002
-0.12466463 0.15340352 0.44300002
-0.1238879 0.15340352 0.44300002
-0.12311117 0.15340352 0.44300002
-0.1220583 0.15305723 0.44200003
-0.12128332 0.15305723 0.44200003
-0.12105364 0.15374979 0.44400004
-0.12081694 0.15444237 0.44600001
-0.11976582 0.15409608 0.44500002
-0.11978773 0.15513493 0.44800001
-0.11900224 0.15513493 0.44800001
-0.11821675 0.15513493 0.44800001
-0.11743125 0.15513493 0.44800001
-0.11664576 0.15513493 0.44800001
-0.11586027 0.15513493 0.44800001
-0.11533163 0.15548122 0.44900003
-0.11403417 0.15478864 0.44700003
-0.11299707 0.15444237 0.44600001
-0.11221509 0.15444237 0.44600001
-0.1114331 0.15444237 0.44600001
-0.11040302 0.15409608 0.44500002
-0.10524646 0.15340352 0.44300002
-0.046528205 0.15444237 0.44600001
-0.045746218 0.15444237 0.44600001
-0.040272314 0.15444237 0.44600001
-0.039490327 0.15444237 0.44600001
-0.038621549 0.15409608 0.44500002
-0.023690164 0.15340352 0.44300002
-0.022913437 0.15340352 0.44300002
-0.02218668 0.15374979 0.44400004
-0.0214082 0.15374979 0.44400004
-0.020629721 0.15374979 0.44400004
-0.01980653 0.15340352 0.44300002
-0.019029804 0.15340352 0.44300002
-0.018253077 0.15340352 0.44300002
-0.01747635 0.15340352 0.44300002
-0.016699623 0.15340352 0.44300002
-0.01595884 0.15374979 0.44400004
-0.01518036 0.15374979 0.44400004
-0.014337007 0.15305723 0.44200003
-0.011313383 0.15409608 0.44500002
-0.01055682 0.15444237 0.44600001
-0.0097529162 0.15409608 0.44500002
-0.008972683 0.15409608 0.44500002
-0.0082108602 0.15444237 0.44600001
-0.0074288733 0.15444237 0.44600001
-0.0066468865 0.15444237 0.44600001
-0.0058649001 0.15444237 0.44600001
-0.0050829132 0.15444237 0.44600001
-0.0042912834 0.15409608 0.44500002
-0.00351105 0.15409608 0.44500002
-0.0027308166 0.15409608 0.44500002
-0.0019505833 0.15409608 0.44500002
-0.00116772 0.15374979 0.44400004
-0.00038923998 0.15374979 0.44400004
0.00038748665 0.15305723 0.44200003
0.00116246 0.15305723 0.44200003
0.00193305 0.15271094 0.44100001
0.00270627 0.15271094 0.44100001
0.00348738 0.15305723 0.44200003
0.0043009268 0.15444237 0.44600001
0.0050829132 0.15444237 0.44600001
0.0058912002 0.15513493 0.44800001
0.00666179 0.15478864 0.44700003
0.0074122166 0.15409608 0.44500002
0.0081924498 0.15409608 0.44500002
0.0089525199 0.15374979 0.44400004
0.0097090835 0.15340352 0.44300002
0.01050948 0.15374979 0.44400004
0.011262537 0.15340352 0.44300002
0.012039263 0.15340352 0.44300002
0.01284492 0.15374979 0.44400004
0.0136234 0.15374979 0.44400004
0.01440188 0.15374979 0.44400004
0.01518036 0.15374979 0.44400004
0.01595884 0.15374979 0.44400004
0.01673732 0.15374979 0.44400004
0.017436899 0.15305723 0.44200003
0.018211873 0.15305723 0.44200003
0.019029804 0.15340352 0.44300002
0.01980653 0.15340352 0.44300002
0.020722646 0.15444237 0.44600001
0.0214082 0.15374979 0.44400004
0.022236649 0.15409608 0.44500002
0.023016883 0.15409608 0.44500002
0.023797117 0.15409608 0.44500002
0.02468781 0.15478864 0.44700003
0.025471549 0.15478864 0.44700003
0.026255289 0.15478864 0.44700003
0.02709952 0.15513493 0.44800001
0.027885012 0.15513493 0.44800001
0.028670507 0.15513493 0.44800001
0.029455999 0.15513493 0.44800001
0.030308997 0.15548122 0.44900003
0.031096242 0.15548122 0.44900003
0.031883489 0.15548122 0.44900003
0.032670736 0.15548122 0.44900003
0.033383466 0.15513493 0.44800001
0.034168959 0.15513493 0.44800001
0.035032477 0.15548122 0.44900003
0.035739947 0.15513493 0.44800001
0.036525439 0.15513493 0.44800001
0.037310932 0.15513493 0.44800001
0.038096428 0.15513493 0.44800001
0.03888192 0.15513493 0.44800001
0.039667413 0.15513493 0.44800001
0.040543202 0.15548122 0.44900003
0.041422501 0.15582749 0.45000002
0.042305302 0.15617378 0.45100003
0.043096058 0.15617378 0.45100003
0.043789499 0.15582749 0.45000002
0.044677563 0.15617378 0.45100003
0.045569133 0.15652007 0.45200002
0.046464209 0.15686634 0.45300001
0.04725847 0.15686634 0.45300001
0.047946654 0.15652007 0.45200002
0.048631329 0.15617378 0.45100003
0.049422082 0.15617378 0.45100003
0.050212838 0.15617378 0.45100003
0.050890498 0.15582749 0.45000002
0.051679499 0.15582749 0.45000002
0.052468501 0.15582749 0.45000002
0.053257499 0.15582749 0.45000002
0.0540465 0.15582749 0.45000002
0.054957356 0.15617378 0.45100003
0.055748109 0.15617378 0.45100003
0.056664225 0.15652007 0.45200002
0.057456732 0.15652007 0.45200002
0.058249239 0.15652007 0.45200002
0.05917237 0.15686634 0.45300001
0.059834253 0.15652007 0.45200002
0.060760889 0.15686634 0.45300001
0.061691035 0.15721263 0.45400003
0.062349409 0.15686634 0.45300001
0.063143671 0.15686634 0.45300001
0.063937932 0.15686634 0.45300001
0.064875089 0.15721263 0.45400003
0.065815747 0.15755892 0.45500001
0.066613518 0.15755892 0.45500001
0.067411281 0.15755892 0.45500001
0.068209052 0.15755892 0.45500001
0.06915848 0.15790521 0.45600003
0.070111416 0.15825148 0.45700002
0.070912689 0.15825148 0.45700002
0.071713962 0.15825148 0.45700002
0.072673909 0.15859777 0.45800003
0.07347694 0.15859777 0.45800003
0.07411778 0.15825148 0.45700002
0.075082995 0.15859777 0.45800003
0.076051712 0.15894406 0.45900002
0.076856486 0.15894406 0.45900002
0.077661268 0.15894406 0.45900002
0.078295097 0.15859777 0.45800003
0.079098128 0.15859777 0.45800003
0.079901151 0.15859777 0.45800003
0.080880389 0.15894406 0.45900002
0.081863135 0.15929033 0.46000001
0.082669668 0.15929033 0.46000001
0.083657667 0.15963662 0.46100003
0.085274242 0.15963662 0.46100003
0.08912193 0.15929033 0.46000001
0.090123966 0.15963662 0.46100003
0.09093225 0.15963662 0.46100003
0.094369657 0.1599829 0.46200001
0.095179699 0.1599829 0.46200001
-0.2339385 0.15661649 0.45000002
-0.2331495 0.15661649 0.45000002
-0.2323605 0.15661649 0.45000002
-0.23002769 0.15557238 0.44700003
-0.22821824 0.15487632 0.44500002
-0.22743802 0.15487632 0.44500002
-0.22563909 0.15418024 0.44300002
-0.22435477 0.15383221 0.44200003
-0.22307397 0.15348417 0.44100001
-0.22230075 0.15348417 0.44100001
-0.22052287 0.1527881 0.43900001
-0.21975316 0.1527881 0.43900001
-0.21898344 0.1527881 0.43900001
-0.21821372 0.1527881 0.43900001
-0.21744402 0.1527881 0.43900001
-0.2166743 0.1527881 0.43900001
-0.21639639 0.15313613 0.44000003
-0.21660505 0.15383221 0.44200003
-0.21583007 0.15383221 0.44200003
-0.21554165 0.15418024 0.44300002
-0.21524972 0.15452828 0.44400004
-0.21495429 0.15487632 0.44500002
-0.21465534 0.15522435 0.44600001
-0.21387336 0.15522435 0.44600001
-0.21165802 0.15418024 0.44300002
-0.21135733 0.15452828 0.44400004
-0.21010455 0.15418024 0.44300002
-0.20932783 0.15418024 0.44300002
-0.20902188 0.15452828 0.44400004
-0.20777439 0.15418024 0.44300002
-0.20653039 0.15383221 0.44200003
-0.20668644 0.15452828 0.44400004
-0.20590796 0.15452828 0.44400004
-0.20420547 0.15383221 0.44200003
-0.20435099 0.15452828 0.44400004
-0.20311402 0.15418024 0.44300002
-0.20233729 0.15418024 0.44300002
-0.20110558 0.15383221 0.44200003
-0.2003306 0.15383221 0.44200003
-0.19955564 0.15383221 0.44200003
-0.19923039 0.15418024 0.44300002
-0.19890164 0.15452828 0.44400004
-0.19767694 0.15418024 0.44300002
-0.1969002 0.15418024 0.44300002
-0.19612348 0.15418024 0.44300002
-0.19490579 0.15383221 0.44200003
-0.19457003 0.15418024 0.44300002
-0.1937933 0.15418024 0.44300002
-0.19258088 0.15383221 0.44200003
-0.190938 0.15313613 0.44000003
-0.19016653 0.15313613 0.44000003
-0.18939507 0.15313613 0.44000003
-0.18819492 0.1527881 0.43900001
-0.18785213 0.15313613 0.44000003
-0.18708067 0.15313613 0.44000003
-0.18715605 0.15383221 0.44200003
-0.18595941 0.15348417 0.44100001
-0.18476626 0.15313613 0.44000003
-0.18483114 0.15383221 0.44200003
-0.18447258 0.15418024 0.44300002
-0.18369585 0.15418024 0.44300002
-0.18291913 0.15418024 0.44300002
-0.18214241 0.15418024 0.44300002
-0.18218449 0.15487632 0.44500002
-0.1818119 0.15522435 0.44600001
-0.18102992 0.15522435 0.44600001
-0.18065207 0.15557238 0.44700003
-0.17986833 0.15557238 0.44700003
-0.17828332 0.15487632 0.44500002
-0.17750308 0.15487632 0.44500002
-0.17672285 0.15487632 0.44500002
-0.17594261 0.15487632 0.44500002
-0.17516237 0.15487632 0.44500002
-0.17516589 0.15557238 0.44700003
-0.17438215 0.15557238 0.44700003
-0.17282169 0.15487632 0.44500002
-0.17204145 0.15487632 0.44500002
-0.17203093 0.15557238 0.44700003
-0.17086409 0.15522435 0.44600001
-0.16970074 0.15487632 0.44500002
-0.16702253 0.15313613 0.44000003
-0.16625106 0.15313613 0.44000003
-0.16585569 0.15348417 0.44100001
-0.16508247 0.15348417 0.44100001
-0.16468184 0.15383221 0.44200003
-0.16390686 0.15383221 0.44200003
-0.1646082 0.15522435 0.44600001
-0.16345888 0.15487632 0.44500002
-0.16267864 0.15487632 0.44500002
-0.16189842 0.15487632 0.44500002
-0.16148025 0.15522435 0.44600001
-0.16069826 0.15522435 0.44600001
-0.16027483 0.15557238 0.44700003
-0.15949109 0.15557238 0.44700003
-0.1576422 0.15452828 0.44400004
-0.15686372 0.15452828 0.44400004
-0.15643679 0.15487632 0.44500002
-0.15565655 0.15487632 0.44500002
-0.15522435 0.15522435 0.44600001
-0.15374979 0.15452828 0.44400004
-0.15297131 0.15452828 0.44400004
-0.15253562 0.15487632 0.44500002
-0.15141436 0.15452828 0.44400004
-0.15063588 0.15452828 0.44400004
-0.1498574 0.15452828 0.44400004
-0.14907892 0.15452828 0.44400004
-0.14796643 0.15418024 0.44300002
-0.14752196 0.15452828 0.44400004
-0.14674348 0.15452828 0.44400004
-0.145965 0.15452828 0.44400004
-0.14518651 0.15452828 0.44400004
-0.14440803 0.15452828 0.44400004
-0.14362957 0.15452828 0.44400004
-0.14285108 0.15452828 0.44400004
-0.1420726 0.15452828 0.44400004
-0.14129412 0.15452828 0.44400004
-0.14051564 0.15452828 0.44400004
-0.13910772 0.15383221 0.44200003
-0.13864571 0.15418024 0.44300002
-0.1381802 0.15452828 0.44400004
-0.1367828 0.15383221 0.44200003
-0.13600782 0.15383221 0.44200003
-0.13523285 0.15383221 0.44200003
-0.13506629 0.15452828 0.44400004
-0.13459025 0.15487632 0.44500002
-0.13350932 0.15452828 0.44400004
-0.13243189 0.15418024 0.44300002
-0.13165517 0.15418024 0.44300002
-0.13087845 0.15418024 0.44300002
-0.13010171 0.15418024 0.44300002
-0.12903306 0.15383221 0.44200003
-0.12825808 0.15383221 0.44200003
-0.12777154 0.15418024 0.44300002
-0.1269948 0.15418024 0.44300002
-0.12621808 0.15418024 0.44300002
-0.12544136 0.15418024 0.44300002
-0.12466463 0.15418024 0.44300002
-0.1238879 0.15418024 0.44300002
-0.12311117 0.15418024 0.44300002
-0.1220583 0.15383221 0.44200003
-0.12128332 0.15383221 0.44200003
-0.120781 0.15418024 0.44300002
-0.12054605 0.15487632 0.44500002
-0.11976582 0.15487632 0.44500002
-0.11898559 0.15487632 0.44500002
-0.11873661 0.15557238 0.44700003
-0.11795287 0.15557238 0.44700003
-0.11716913 0.15557238 0.44700003
-0.11638539 0.15557238 0.44700003
-0.11560165 0.15557238 0.44700003
-0.11507478 0.15592043 0.44800001
-0.11428928 0.15592043 0.44800001
-0.11350378 0.15592043 0.44800001
-0.11196348 0.15487632 0.44500002
-0.1109334 0.15452828 0.44400004
-0.11015492 0.15452828 0.44400004
-0.10937644 0.15452828 0.44400004
-0.02208674 0.15383221 0.44200003
-0.021311767 0.15383221 0.44200003
-0.020536793 0.15383221 0.44200003
-0.019761819 0.15383221 0.44200003
-0.019029804 0.15418024 0.44300002
-0.018211873 0.15383221 0.44200003
-0.017436899 0.15383221 0.44200003
-0.016661927 0.15383221 0.44200003
-0.015886953 0.15383221 0.44200003
-0.01511198 0.15383221 0.44200003
-0.014337007 0.15383221 0.44200003
-0.01353135 0.15348417 0.44100001
-0.01128796 0.15452828 0.44400004
-0.01053315 0.15487632 0.44500002
-0.0097310003 0.15452828 0.44400004
-0.0089525199 0.15452828 0.44400004
-0.0082108602 0.15522435 0.44600001
-0.0074288733 0.15522435 0.44600001
-0.00666179 0.15557238 0.44700003
-0.0058912002 0.15592043 0.44800001
-0.0050943098 0.15557238 0.44700003
-0.0043009268 0.15522435 0.44600001
-0.0035031601 0.15452828 0.44400004
-0.0027246799 0.15452828 0.44400004
-0.0019462 0.15452828 0.44400004
-0.00116772 0.15452828 0.44400004
-0.00038923998 0.15452828 0.44400004
0.00038748665 0.15383221 0.44200003
0.00116246 0.15383221 0.44200003
0.00193305 0.15348417 0.44100001
0.00270627 0.15348417 0.44100001
0.00348738 0.15383221 0.44200003
0.0042623533 0.15383221 0.44200003
0.0050373268 0.15383221 0.44200003
0.0058254502 0.15418024 0.44300002
0.00657237 0.15348417 0.44100001
0.0073455898 0.15348417 0.44100001
0.0081372196 0.15383221 0.44200003
0.0089121936 0.15383221 0.44200003
0.0096871667 0.15383221 0.44200003
0.01048581 0.15418024 0.44300002
0.011237113 0.15383221 0.44200003
0.012012087 0.15383221 0.44200003
0.01284492 0.15452828 0.44400004
0.0136234 0.15452828 0.44400004
0.01440188 0.15452828 0.44400004
0.01518036 0.15452828 0.44400004
0.015922897 0.15418024 0.44300002
0.016699623 0.15418024 0.44300002
0.01739745 0.15348417 0.44100001
0.018253077 0.15418024 0.44300002
0.019029804 0.15418024 0.44300002
0.01980653 0.15418024 0.44300002
0.020583257 0.15418024 0.44300002
0.0214082 0.15452828 0.44400004
0.022136711 0.15418024 0.44300002
0.022913437 0.15418024 0.44300002
0.023743641 0.15452828 0.44400004
0.024632581 0.15522435 0.44600001
0.025414566 0.15522435 0.44600001
0.026196552 0.15522435 0.44600001
0.02709952 0.15592043 0.44800001
0.027885012 0.15592043 0.44800001
0.028670507 0.15592043 0.44800001
0.029455999 0.15592043 0.44800001
0.030308997 0.15626846 0.44900003
0.031096242 0.15626846 0.44900003
0.031883489 0.15626846 0.44900003
0.032670736 0.15626846 0.44900003
0.033457983 0.15626846 0.44900003
0.03424523 0.15626846 0.44900003
0.035032477 0.15626846 0.44900003
0.035819724 0.15626846 0.44900003
0.036606971 0.15626846 0.44900003
0.037310932 0.15592043 0.44800001
0.038096428 0.15592043 0.44800001
0.03888192 0.15592043 0.44800001
0.039667413 0.15592043 0.44800001
0.040543202 0.15626846 0.44900003
0.041422501 0.15661649 0.45000002
0.042305302 0.15696454 0.45100003
0.043096058 0.15696454 0.45100003
0.043886811 0.15696454 0.45100003
0.044677563 0.15696454 0.45100003
0.045669951 0.1576606 0.45300001
0.046464209 0.1576606 0.45300001
0.047154147 0.15731257 0.45200002
0.047946654 0.15731257 0.45200002
0.048739161 0.15731257 0.45200002
0.049531665 0.15731257 0.45200002
0.050324172 0.15731257 0.45200002
0.05100359 0.15696454 0.45100003
0.051679499 0.15661649 0.45000002
0.052468501 0.15661649 0.45000002
0.053257499 0.15661649 0.45000002
0.054166604 0.15696454 0.45100003
0.054957356 0.15696454 0.45100003
0.055871721 0.15731257 0.45200002
0.056664225 0.15731257 0.45200002
0.057456732 0.15731257 0.45200002
0.058378108 0.1576606 0.45300001
0.05917237 0.1576606 0.45300001
0.059966631 0.1576606 0.45300001
0.060760889 0.1576606 0.45300001
0.061826915 0.15835668 0.45500001
0.062349409 0.1576606 0.45300001
0.063283056 0.15800865 0.45400003
0.063937932 0.1576606 0.45300001
0.064875089 0.15800865 0.45400003
0.065815747 0.15835668 0.45500001
0.066613518 0.15835668 0.45500001
0.067559436 0.15870471 0.45600003
0.068358958 0.15870471 0.45600003
0.06915848 0.15870471 0.45600003
0.070264831 0.15940079 0.45800003
0.071067862 0.15940079 0.45800003
0.071870886 0.15940079 0.45800003
0.072673909 0.15940079 0.45800003
0.07347694 0.15940079 0.45800003
0.07411778 0.15905276 0.45700002
0.07491906 0.15905276 0.45700002
0.075886019 0.15940079 0.45800003
0.07668905 0.15940079 0.45800003
0.077492073 0.15940079 0.45800003
0.078295097 0.15940079 0.45800003
0.079098128 0.15940079 0.45800003
0.079901151 0.15940079 0.45800003
0.080880389 0.15974882 0.45900002
0.081685171 0.15974882 0.45900002
0.082489952 0.15974882 0.45900002
0.083294727 0.15974882 0.45900002
0.093357109 0.1604449 0.46100003
-0.22614054 0.15215865 0.43500003
-0.23263139 0.15705571 0.44900003
-0.23132779 0.15670592 0.44800001
-0.22951308 0.15600634 0.44600001
-0.22821824 0.15565655 0.44500002
-0.22692692 0.15530676 0.44400004
-0.22512975 0.15460718 0.44200003
-0.22435477 0.15460718 0.44200003
-0.22357981 0.15460718 0.44200003
-0.22230075 0.15425739 0.44100001
-0.22052287 0.15355781 0.43900001
-0.21975316 0.15355781 0.43900001
-0.21848463 0.15320802 0.43800002
-0.21771666 0.15320802 0.43800002
-0.21744402 0.15355781 0.43900001
-0.2166743 0.15355781 0.43900001
-0.21639639 0.1539076 0.44000003
-0.21562493 0.1539076 0.44000003
-0.21583007 0.15460718 0.44200003
-0.21554165 0.15495697 0.44300002
-0.21524972 0.15530676 0.44400004
-0.21495429 0.15565655 0.44500002
-0.21417405 0.15565655 0.44500002
-0.21339382 0.15565655 0.44500002
-0.21165802 0.15495697 0.44300002
-0.21040526 0.15460718 0.44200003
-0.20915601 0.15425739 0.44100001
-0.20838279 0.15425739 0.44100001
-0.20760956 0.15425739 0.44100001
-0.20683634 0.15425739 0.44100001
-0.20559587 0.1539076 0.44000003
-0.2048244 0.1539076 0.44000003
-0.20451669 0.15425739 0.44100001
-0.20235746 0.15320802 0.43800002
-0.20251 0.1539076 0.44000003
-0.20219703 0.15425739 0.44100001
-0.20188056 0.15460718 0.44200003
-0.20065059 0.15425739 0.44100001
-0.19987737 0.15425739 0.44100001
-0.19910415 0.15425739 0.44100001
-0.19788119 0.1539076 0.44000003
-0.19845366 0.15495697 0.44300002
-0.19767694 0.15495697 0.44300002
-0.1969002 0.15495697 0.44300002
-0.19656619 0.15530676 0.44400004
-0.19578771 0.15530676 0.44400004
-0.19500923 0.15530676 0.44400004
-0.19423077 0.15530676 0.44400004
-0.19301657 0.15495697 0.44300002
-0.190938 0.1539076 0.44000003
-0.18886994 0.15285823 0.43700001
-0.18810374 0.15285823 0.43700001
-0.18819492 0.15355781 0.43900001
-0.1874252 0.15355781 0.43900001
-0.18665548 0.15355781 0.43900001
-0.1863092 0.1539076 0.44000003
-0.18553773 0.1539076 0.44000003
-0.18476626 0.1539076 0.44000003
-0.18441297 0.15425739 0.44100001
-0.18447258 0.15495697 0.44300002
-0.18411052 0.15530676 0.44400004
-0.18291913 0.15495697 0.44300002
-0.18214241 0.15495697 0.44300002
-0.18218449 0.15565655 0.44500002
-0.1818119 0.15600634 0.44600001
-0.18062401 0.15565655 0.44500002
-0.17984378 0.15565655 0.44500002
-0.17906354 0.15565655 0.44500002
-0.17708141 0.15460718 0.44200003
-0.17630643 0.15460718 0.44200003
-0.17553146 0.15460718 0.44200003
-0.17515187 0.15495697 0.44300002
-0.17398152 0.15460718 0.44200003
-0.17399028 0.15530676 0.44400004
-0.17282169 0.15495697 0.44300002
-0.17165659 0.15460718 0.44200003
-0.170495 0.15425739 0.44100001
-0.16972178 0.15425739 0.44100001
-0.16818236 0.15355781 0.43900001
-0.1670313 0.15320802 0.43800002
-0.16550414 0.15250844 0.43600002
-0.16511753 0.15285823 0.43700001
-0.16435133 0.15285823 0.43700001
-0.16358513 0.15285823 0.43700001
-0.16356409 0.15355781 0.43900001
-0.16279437 0.15355781 0.43900001
-0.16350096 0.15495697 0.44300002
-0.16345888 0.15565655 0.44500002
-0.16267864 0.15565655 0.44500002
-0.16189842 0.15565655 0.44500002
-0.16111818 0.15565655 0.44500002
-0.16069826 0.15600634 0.44600001
-0.16027483 0.15635613 0.44700003
-0.15877748 0.15565655 0.44500002
-0.15728715 0.15495697 0.44300002
-0.15580383 0.15425739 0.44100001
-0.15573369 0.15495697 0.44300002
-0.15460718 0.15460718 0.44200003
-0.15348417 0.15425739 0.44100001
-0.15271094 0.15425739 0.44100001
-0.15228225 0.15460718 0.44200003
-0.15150729 0.15460718 0.44200003
-0.15073231 0.15460718 0.44200003
-0.15029661 0.15495697 0.44300002
-0.14951988 0.15495697 0.44300002
-0.14874315 0.15495697 0.44300002
-0.14796643 0.15495697 0.44300002
-0.14752196 0.15530676 0.44400004
-0.14641297 0.15495697 0.44300002
-0.14563625 0.15495697 0.44300002
-0.14485952 0.15495697 0.44300002
-0.14440803 0.15530676 0.44400004
-0.14330608 0.15495697 0.44300002
-0.14220761 0.15460718 0.44200003
-0.14143263 0.15460718 0.44200003
-0.14065766 0.15460718 0.44200003
-0.13988268 0.15460718 0.44200003
-0.13879299 0.15425739 0.44100001
-0.13833274 0.15460718 0.44200003
-0.13755776 0.15460718 0.44200003
-0.13616386 0.1539076 0.44000003
-0.1353924 0.1539076 0.44000003
-0.13492689 0.15425739 0.44100001
-0.13445787 0.15460718 0.44200003
-0.13398536 0.15495697 0.44300002
-0.13260724 0.15425739 0.44100001
-0.13213295 0.15460718 0.44200003
-0.13135798 0.15460718 0.44200003
-0.130583 0.15460718 0.44200003
-0.12980804 0.15460718 0.44200003
-0.12903306 0.15460718 0.44200003
-0.12825808 0.15460718 0.44200003
-0.12748311 0.15460718 0.44200003
-0.12670814 0.15460718 0.44200003
-0.12593317 0.15460718 0.44200003
-0.12515819 0.15460718 0.44200003
-0.12466463 0.15495697 0.44300002
-0.12360825 0.15460718 0.44200003
-0.12283327 0.15460718 0.44200003
-0.1220583 0.15460718 0.44200003
-0.12128332 0.15460718 0.44200003
-0.120781 0.15495697 0.44300002
-0.12027516 0.15530676 0.44400004
-0.11976582 0.15565655 0.44500002
-0.11898559 0.15565655 0.44500002
-0.11793972 0.15530676 0.44400004
-0.11742511 0.15565655 0.44500002
-0.11690701 0.15600634 0.44600001
-0.11612502 0.15600634 0.44600001
-0.11534303 0.15600634 0.44600001
-0.11481791 0.15635613 0.44700003
-0.11403417 0.15635613 0.44700003
-0.11299707 0.15600634 0.44600001
-0.11196348 0.15565655 0.44500002
-0.02049033 0.15425739 0.44100001
-0.01971711 0.15425739 0.44100001
-0.018943889 0.15425739 0.44100001
-0.018211873 0.15460718 0.44200003
-0.017436899 0.15460718 0.44200003
-0.016586533 0.1539076 0.44000003
-0.015779123 0.15355781 0.43900001
-0.0150436 0.1539076 0.44000003
-0.01430457 0.15425739 0.44100001
-0.013500666 0.1539076 0.44000003
-0.01270027 0.15355781 0.43900001
-0.011930557 0.15355781 0.43900001
-0.01128796 0.15530676 0.44400004
-0.01053315 0.15565655 0.44500002
-0.0097310003 0.15530676 0.44400004
-0.0089525199 0.15530676 0.44400004
-0.0082292696 0.15635613 0.44700003
-0.00744553 0.15635613 0.44700003
-0.00666179 0.15635613 0.44700003
-0.0058780499 0.15635613 0.44700003
-0.0050715166 0.15565655 0.44500002
-0.0042912834 0.15565655 0.44500002
-0.0034952699 0.15495697 0.44300002
-0.0027185434 0.15495697 0.44300002
-0.0019418166 0.15495697 0.44300002
-0.00116509 0.15495697 0.44300002
-0.00038836332 0.15495697 0.44300002
0.00038660999 0.15425739 0.44100001
0.00115983 0.15425739 0.44100001
0.00193305 0.15425739 0.44100001
0.00270627 0.15425739 0.44100001
0.00348738 0.15460718 0.44200003
0.0042719967 0.15495697 0.44300002
0.0050487234 0.15495697 0.44300002
0.0058254502 0.15495697 0.44300002
0.00657237 0.15425739 0.44100001
0.0073455898 0.15425739 0.44100001
0.0081188101 0.15425739 0.44100001
0.0088920295 0.15425739 0.44100001
0.0096652498 0.15425739 0.44100001
0.01046214 0.15460718 0.44200003
0.01121169 0.15425739 0.44100001
0.01198491 0.15425739 0.44100001
0.01281599 0.15495697 0.44300002
0.013562033 0.15460718 0.44200003
0.014369443 0.15495697 0.44300002
0.01514617 0.15495697 0.44300002
0.015922897 0.15495697 0.44300002
0.016661927 0.15460718 0.44200003
0.017436899 0.15460718 0.44200003
0.018211873 0.15460718 0.44200003
0.019029804 0.15495697 0.44300002
0.01980653 0.15495697 0.44300002
0.020583257 0.15495697 0.44300002
0.021311767 0.15460718 0.44200003
0.022136711 0.15495697 0.44300002
0.022913437 0.15495697 0.44300002
0.023743641 0.15530676 0.44400004
0.024632581 0.15600634 0.44600001
0.025414566 0.15600634 0.44600001
0.026196552 0.15600634 0.44600001
0.02709952 0.15670592 0.44800001
0.027885012 0.15670592 0.44800001
0.028670507 0.15670592 0.44800001
0.029455999 0.15670592 0.44800001
0.030241493 0.15670592 0.44800001
0.031026987 0.15670592 0.44800001
0.03174147 0.15635613 0.44700003
0.032670736 0.15705571 0.44900003
0.033457983 0.15705571 0.44900003
0.03424523 0.15705571 0.44900003
0.035032477 0.15705571 0.44900003
0.035819724 0.15705571 0.44900003
0.036606971 0.15705571 0.44900003
0.037310932 0.15670592 0.44800001
0.038096428 0.15670592 0.44800001
0.03888192 0.15670592 0.44800001
0.039667413 0.15670592 0.44800001
0.040543202 0.15705571 0.44900003
0.041422501 0.1574055 0.45000002
0.042305302 0.15775529 0.45100003
0.043096058 0.15775529 0.45100003
0.043886811 0.15775529 0.45100003
0.044677563 0.15775529 0.45100003
0.045569133 0.15810508 0.45200002
0.04636164 0.15810508 0.45200002
0.047154147 0.15810508 0.45200002
0.047946654 0.15810508 0.45200002
0.048631329 0.15775529 0.45100003
0.049422082 0.15775529 0.45100003
0.050212838 0.15775529 0.45100003
0.05100359 0.15775529 0.45100003
0.051679499 0.1574055 0.45000002
0.052468501 0.1574055 0.45000002
0.053375851 0.15775529 0.45100003
0.054286707 0.15810508 0.45200002
0.055079214 0.15810508 0.45200002
0.055871721 0.15810508 0.45200002
0.056664225 0.15810508 0.45200002
0.05758385 0.15845487 0.45300001
0.058506981 0.15880466 0.45400003
0.059433617 0.15915444 0.45500001
0.060231384 0.15915444 0.45500001
0.060895018 0.15880466 0.45400003
0.061826915 0.15915444 0.45500001
0.062624685 0.15915444 0.45500001
0.063422449 0.15915444 0.45500001
0.06422022 0.15915444 0.45500001
0.065017983 0.15915444 0.45500001
0.0659604 0.15950423 0.45600003
0.066613518 0.15915444 0.45500001
0.067855753 0.16020381 0.45800003
0.068658777 0.16020381 0.45800003
0.069461808 0.16020381 0.45800003
0.070264831 0.16020381 0.45800003
0.071067862 0.16020381 0.45800003
0.071870886 0.16020381 0.45800003
0.072673909 0.16020381 0.45800003
0.07347694 0.16020381 0.45800003
0.07411778 0.15985402 0.45700002
0.075082995 0.16020381 0.45800003
0.075886019 0.16020381 0.45800003
0.07668905 0.16020381 0.45800003
0.077492073 0.16020381 0.45800003
0.07846605 0.1605536 0.45900002
0.079270832 0.1605536 0.45900002
0.079901151 0.16020381 0.45800003
-0.22766595 0.15292135 0.43500003
-0.22614054 0.15292135 0.43500003
-0.22537784 0.15292135 0.43500003
-0.22358243 0.15221827 0.43300003
-0.22282325 0.15221827 0.43300003
-0.2277054 0.15608524 0.44400004
-0.22692692 0.15608524 0.44400004
-0.22512975 0.15538216 0.44200003
-0.2238472 0.15503061 0.44100001
-0.22307397 0.15503061 0.44100001
-0.22280483 0.15538216 0.44200003
-0.22303452 0.15608524 0.44400004
-0.22075431 0.15503061 0.44100001
-0.21898344 0.15432753 0.43900001
-0.21821372 0.15432753 0.43900001
-0.21744402 0.15432753 0.43900001
-0.21618074 0.15397598 0.43800002
-0.21590459 0.15432753 0.43900001
-0.21513487 0.15432753 0.43900001
-0.21583007 0.15538216 0.44200003
-0.21554165 0.15573369 0.44300002
-0.21524972 0.15608524 0.44400004
-0.21350515 0.15538216 0.44200003
-0.21321146 0.15573369 0.44300002
-0.21243474 0.15573369 0.44300002
-0.21165802 0.15573369 0.44300002
-0.21040526 0.15538216 0.44200003
-0.20915601 0.15503061 0.44100001
-0.20838279 0.15503061 0.44100001
-0.20760956 0.15503061 0.44100001
-0.20589831 0.15432753 0.43900001
-0.20559587 0.15467906 0.44000003
-0.2048244 0.15467906 0.44000003
-0.20358917 0.15432753 0.43900001
-0.20235746 0.15397598 0.43800002
-0.20204975 0.15432753 0.43900001
-0.20128004 0.15432753 0.43900001
-0.20051032 0.15432753 0.43900001
-0.1997406 0.15432753 0.43900001
-0.19942413 0.15467906 0.44000003
-0.19910415 0.15503061 0.44100001
-0.19833092 0.15503061 0.44100001
-0.1975577 0.15503061 0.44100001
-0.19767694 0.15573369 0.44300002
-0.1969002 0.15573369 0.44300002
-0.19612348 0.15573369 0.44300002
-0.19534676 0.15573369 0.44300002
-0.19457003 0.15573369 0.44300002
-0.1937933 0.15573369 0.44300002
-0.19258088 0.15538216 0.44200003
-0.19050404 0.15432753 0.43900001
-0.18886994 0.15362443 0.43700001
-0.18810374 0.15362443 0.43700001
-0.18819492 0.15432753 0.43900001
-0.18785213 0.15467906 0.44000003
-0.18708067 0.15467906 0.44000003
-0.1863092 0.15467906 0.44000003
-0.18553773 0.15467906 0.44000003
-0.18476626 0.15467906 0.44000003
-0.18441297 0.15503061 0.44100001
-0.184889 0.15608524 0.44400004
-0.18411052 0.15608524 0.44400004
-0.18291913 0.15573369 0.44300002
-0.18296471 0.15643679 0.44500002
-0.18177508 0.15608524 0.44400004
-0.1809966 0.15608524 0.44400004
-0.18021812 0.15608524 0.44400004
-0.17943963 0.15608524 0.44400004
-0.17866115 0.15608524 0.44400004
-0.17708141 0.15538216 0.44200003
-0.17630643 0.15538216 0.44200003
-0.17553146 0.15538216 0.44200003
-0.17475648 0.15538216 0.44200003
-0.17358789 0.15503061 0.44100001
-0.17320654 0.15538216 0.44200003
-0.17243156 0.15538216 0.44200003
-0.17087987 0.15467906 0.44000003
-0.17010839 0.15467906 0.44000003
-0.16933693 0.15467906 0.44000003
-0.16856547 0.15467906 0.44000003
-0.1670313 0.15397598 0.43800002
-0.16550414 0.1532729 0.43600002
-0.1647397 0.1532729 0.43600002
-0.16397524 0.1532729 0.43600002
-0.16358513 0.15362443 0.43700001
-0.16356409 0.15432753 0.43900001
-0.16279437 0.15432753 0.43900001
-0.16239373 0.15467906 0.44000003
-0.16272424 0.15573369 0.44300002
-0.16231307 0.15608524 0.44400004
-0.16117078 0.15573369 0.44300002
-0.16075613 0.15608524 0.44400004
-0.16069826 0.15678832 0.44600001
-0.15991627 0.15678832 0.44600001
-0.15842068 0.15608524 0.44400004
-0.1569321 0.15538216 0.44200003
-0.15545054 0.15467906 0.44000003
-0.15538216 0.15538216 0.44200003
-0.15460718 0.15538216 0.44200003
-0.15348417 0.15503061 0.44100001
-0.15271094 0.15503061 0.44100001
-0.15159319 0.15467906 0.44000003
-0.15082173 0.15467906 0.44000003
-0.15005027 0.15467906 0.44000003
-0.14961807 0.15503061 0.44100001
-0.14884485 0.15503061 0.44100001
-0.1484074 0.15538216 0.44200003
-0.14729841 0.15503061 0.44100001
-0.14685744 0.15538216 0.44200003
-0.14608248 0.15538216 0.44200003
-0.14563625 0.15573369 0.44300002
-0.14485952 0.15573369 0.44300002
-0.1440828 0.15573369 0.44300002
-0.14330608 0.15573369 0.44300002
-0.14188586 0.15503061 0.44100001
-0.14111266 0.15503061 0.44100001
-0.14033943 0.15503061 0.44100001
-0.13956621 0.15503061 0.44100001
-0.13847826 0.15467906 0.44000003
-0.13801977 0.15503061 0.44100001
-0.13724655 0.15503061 0.44100001
-0.13585441 0.15432753 0.43900001
-0.13508469 0.15432753 0.43900001
-0.13492689 0.15503061 0.44100001
-0.13415366 0.15503061 0.44100001
-0.13368289 0.15538216 0.44200003
-0.13230653 0.15467906 0.44000003
-0.13183402 0.15503061 0.44100001
-0.13106079 0.15503061 0.44100001
-0.13028757 0.15503061 0.44100001
-0.12980804 0.15538216 0.44200003
-0.12903306 0.15538216 0.44200003
-0.12825808 0.15538216 0.44200003
-0.12748311 0.15538216 0.44200003
-0.12670814 0.15538216 0.44200003
-0.12593317 0.15538216 0.44200003
-0.12487503 0.15503061 0.44100001
-0.12410181 0.15503061 0.44100001
-0.12304893 0.15467906 0.44000003
-0.018088263 0.15432753 0.43900001
-0.01731855 0.15432753 0.43900001
-0.016548837 0.15432753 0.43900001
-0.015743179 0.15397598 0.43800002
-0.01500941 0.15432753 0.43900001
-0.014272133 0.15467906 0.44000003
-0.0134393 0.15397598 0.43800002
-0.01267134 0.15397598 0.43800002
-0.01190338 0.15397598 0.43800002
-0.011160843 0.15432753 0.43900001
-0.01043847 0.15503061 0.44100001
-0.0096871667 0.15538216 0.44200003
-0.0088920295 0.15503061 0.44100001
-0.0081188101 0.15503061 0.44100001
-0.0073789032 0.15573369 0.44300002
-0.00661708 0.15608524 0.44400004
-0.0058386 0.15608524 0.44400004
-0.0050487234 0.15573369 0.44300002
-0.0042719967 0.15573369 0.44300002
-0.00348738 0.15538216 0.44200003
-0.0027124067 0.15538216 0.44200003
-0.00193305 0.15503061 0.44100001
-0.00116246 0.15538216 0.44200003
-0.00038573332 0.15467906 0.44000003
0.00038485666 0.15432753 0.43900001
0.0011572 0.15467906 0.44000003
0.00193305 0.15503061 0.44100001
0.0027001332 0.15467906 0.44000003
0.0034794901 0.15503061 0.44100001
0.0042527099 0.15503061 0.44100001
0.0050373268 0.15538216 0.44200003
0.0058122999 0.15538216 0.44200003
0.0065872734 0.15538216 0.44200003
0.0073622465 0.15538216 0.44200003
0.0081188101 0.15503061 0.44100001
0.0089121936 0.15538216 0.44200003
0.0096871667 0.15538216 0.44200003
0.01046214 0.15538216 0.44200003
0.01121169 0.15503061 0.44100001
0.01198491 0.15503061 0.44100001
0.01275813 0.15503061 0.44100001
0.01353135 0.15503061 0.44100001
0.01430457 0.15503061 0.44100001
0.0150436 0.15467906 0.44000003
0.015886953 0.15538216 0.44200003
0.016661927 0.15538216 0.44200003
0.017436899 0.15538216 0.44200003
0.01817067 0.15503061 0.44100001
0.018986847 0.15538216 0.44200003
0.01971711 0.15503061 0.44100001
0.02049033 0.15503061 0.44100001
0.021263549 0.15503061 0.44100001
0.02208674 0.15538216 0.44200003
0.022861714 0.15538216 0.44200003
0.023743641 0.15608524 0.44400004
0.02452212 0.15608524 0.44400004
0.025414566 0.15678832 0.44600001
0.026196552 0.15678832 0.44600001
0.02709952 0.15749142 0.44800001
0.027885012 0.15749142 0.44800001
0.028670507 0.15749142 0.44800001
0.029455999 0.15749142 0.44800001
0.030241493 0.15749142 0.44800001
0.031026987 0.15749142 0.44800001
0.03174147 0.15713987 0.44700003
0.032670736 0.15784295 0.44900003
0.033457983 0.15784295 0.44900003
0.03424523 0.15784295 0.44900003
0.035032477 0.15784295 0.44900003
0.035819724 0.15784295 0.44900003
0.036525439 0.15749142 0.44800001
0.037310932 0.15749142 0.44800001
0.038096428 0.15749142 0.44800001
0.03888192 0.15749142 0.44800001
0.039755955 0.15784295 0.44900003
0.0406335 0.1581945 0.45000002
0.041422501 0.1581945 0.45000002
0.042211499 0.1581945 0.45000002
0.043191612 0.15889758 0.45200002
0.043886811 0.15854605 0.45100003
0.044677563 0.15854605 0.45100003
0.045569133 0.15889758 0.45200002
0.04636164 0.15889758 0.45200002
0.047154147 0.15889758 0.45200002
0.047840577 0.15854605 0.45100003
0.048523501 0.1581945 0.45000002
0.049312498 0.1581945 0.45000002
0.050212838 0.15854605 0.45100003
0.051116679 0.15889758 0.45200002
0.051794343 0.15854605 0.45100003
0.052585095 0.15854605 0.45100003
0.0534942 0.15889758 0.45200002
0.054406811 0.15924913 0.45300001
0.055079214 0.15889758 0.45200002
0.055871721 0.15889758 0.45200002
0.056664225 0.15889758 0.45200002
0.05758385 0.15924913 0.45300001
0.05863585 0.15995221 0.45500001
0.059433617 0.15995221 0.45500001
0.060231384 0.15995221 0.45500001
0.061029151 0.15995221 0.45500001
0.061962798 0.16030376 0.45600003
0.06276232 0.16030376 0.45600003
0.063561842 0.16030376 0.45600003
0.06422022 0.15995221 0.45500001
0.065017983 0.15995221 0.45500001
0.0659604 0.16030376 0.45600003
0.066906326 0.1606553 0.45700002
0.071870886 0.16100685 0.45800003
0.072673909 0.16100685 0.45800003
0.07411778 0.1606553 0.45700002
0.075082995 0.16100685 0.45800003
0.075886019 0.16100685 0.45800003
-0.22586001 0.15297745 0.43300003
-0.22562069 0.15333076 0.43400002
-0.22485974 0.15333076 0.43400002
-0.22358243 0.15297745 0.43300003
-0.22282325 0.15297745 0.43300003
-0.22821824 0.15721701 0.44500002
-0.22743802 0.15721701 0.44500002
-0.22563909 0.15651043 0.44300002
-0.2238472 0.15580383 0.44100001
-0.22307397 0.15580383 0.44100001
-0.22330892 0.15651043 0.44300002
-0.22253218 0.15651043 0.44300002
-0.22125489 0.15615712 0.44200003
-0.21948226 0.15545054 0.44000003
-0.21821372 0.15509723 0.43900001
-0.21744402 0.15509723 0.43900001
-0.2166743 0.15509723 0.43900001
-0.21541278 0.15474394 0.43800002
-0.21513487 0.15509723 0.43900001
-0.21436517 0.15509723 0.43900001
-0.214082 0.15545054 0.44000003
-0.21524972 0.15686372 0.44400004
-0.21350515 0.15615712 0.44200003
-0.2117676 0.15545054 0.44000003
-0.21147567 0.15580383 0.44100001
-0.21022466 0.15545054 0.44000003
-0.20992923 0.15580383 0.44100001
-0.20915601 0.15580383 0.44100001
-0.20791027 0.15545054 0.44000003
-0.20713879 0.15545054 0.44000003
-0.20589831 0.15509723 0.43900001
-0.2051286 0.15509723 0.43900001
-0.2048244 0.15545054 0.44000003
-0.20358917 0.15509723 0.43900001
-0.20189546 0.15439065 0.43700001
-0.20158949 0.15474394 0.43800002
-0.20082153 0.15474394 0.43800002
-0.20051032 0.15509723 0.43900001
-0.1997406 0.15509723 0.43900001
-0.1989709 0.15509723 0.43900001
-0.19865267 0.15545054 0.44000003
-0.19788119 0.15545054 0.44000003
-0.1975577 0.15580383 0.44100001
-0.19678448 0.15580383 0.44100001
-0.19601128 0.15580383 0.44100001
-0.19612348 0.15651043 0.44300002
-0.19490579 0.15615712 0.44200003
-0.19413082 0.15615712 0.44200003
-0.19335584 0.15615712 0.44200003
-0.19258088 0.15615712 0.44200003
-0.19007009 0.15474394 0.43800002
-0.18886994 0.15439065 0.43700001
-0.18810374 0.15439065 0.43700001
-0.18819492 0.15509723 0.43900001
-0.18785213 0.15545054 0.44000003
-0.18665548 0.15509723 0.43900001
-0.18588577 0.15509723 0.43900001
-0.18511605 0.15509723 0.43900001
-0.18392642 0.15474394 0.43800002
-0.18357663 0.15509723 0.43900001
-0.18280691 0.15509723 0.43900001
-0.18162253 0.15474394 0.43800002
-0.18044166 0.15439065 0.43700001
-0.18214241 0.15651043 0.44300002
-0.18177508 0.15686372 0.44400004
-0.1809966 0.15686372 0.44400004
-0.17981222 0.15651043 0.44300002
-0.1790355 0.15651043 0.44300002
-0.17825876 0.15651043 0.44300002
-0.17668077 0.15580383 0.44100001
-0.17510979 0.15509723 0.43900001
-0.17434007 0.15509723 0.43900001
-0.17357035 0.15509723 0.43900001
-0.17240702 0.15474394 0.43800002
-0.17203093 0.15509723 0.43900001
-0.17204145 0.15580383 0.44100001
-0.1704915 0.15509723 0.43900001
-0.16972178 0.15509723 0.43900001
-0.16933693 0.15545054 0.44000003
-0.16818236 0.15509723 0.43900001
-0.1670313 0.15474394 0.43800002
-0.16550414 0.15403734 0.43600002
-0.1647397 0.15403734 0.43600002
-0.16397524 0.15403734 0.43600002
-0.16358513 0.15439065 0.43700001
-0.1631915 0.15474394 0.43800002
-0.16242354 0.15474394 0.43800002
-0.16202466 0.15509723 0.43900001
-0.16235691 0.15615712 0.44200003
-0.16158193 0.15615712 0.44200003
-0.16044314 0.15580383 0.44100001
-0.16003199 0.15615712 0.44200003
-0.15925702 0.15615712 0.44200003
-0.15955772 0.15721701 0.44500002
-0.15842068 0.15686372 0.44400004
-0.1569321 0.15615712 0.44200003
-0.15580383 0.15580383 0.44100001
-0.15467906 0.15545054 0.44000003
-0.15425739 0.15580383 0.44100001
-0.15313613 0.15545054 0.44000003
-0.15236467 0.15545054 0.44000003
-0.15124866 0.15509723 0.43900001
-0.15047896 0.15509723 0.43900001
-0.14936821 0.15474394 0.43800002
-0.14860027 0.15474394 0.43800002
-0.14816982 0.15509723 0.43900001
-0.14773586 0.15545054 0.44000003
-0.1469644 0.15545054 0.44000003
-0.14652519 0.15580383 0.44100001
-0.14608248 0.15615712 0.44200003
-0.14563625 0.15651043 0.44300002
-0.14453253 0.15615712 0.44200003
-0.14375755 0.15615712 0.44200003
-0.14298257 0.15615712 0.44200003
-0.14188586 0.15580383 0.44100001
-0.14111266 0.15580383 0.44100001
-0.14033943 0.15580383 0.44100001
-0.13956621 0.15580383 0.44100001
-0.13879299 0.15580383 0.44100001
-0.13801977 0.15580383 0.44100001
-0.13724655 0.15580383 0.44100001
-0.13554494 0.15474394 0.43800002
-0.13462093 0.15545054 0.44000003
-0.13384947 0.15545054 0.44000003
-0.13338044 0.15580383 0.44100001
-0.13230653 0.15545054 0.44000003
-0.13153507 0.15545054 0.44000003
-0.13046642 0.15509723 0.43900001
-0.12999213 0.15545054 0.44000003
-0.12951435 0.15580383 0.44100001
-0.12874113 0.15580383 0.44100001
-0.12767774 0.15545054 0.44000003
-0.12690626 0.15545054 0.44000003
-0.1261348 0.15545054 0.44000003
-0.018005857 0.15439065 0.43700001
-0.01651114 0.15474394 0.43800002
-0.015743179 0.15474394 0.43800002
-0.01500941 0.15509723 0.43900001
-0.014239697 0.15509723 0.43900001
-0.013408616 0.15439065 0.43700001
-0.01264241 0.15439065 0.43700001
-0.011876203 0.15439065 0.43700001
-0.01113542 0.15474394 0.43800002
-0.01039113 0.15509723 0.43900001
-0.0096652498 0.15580383 0.44100001
-0.0088718664 0.15545054 0.44000003
-0.0080819903 0.15509723 0.43900001
-0.0073455898 0.15580383 0.44100001
-0.0065872734 0.15615712 0.44200003
-0.0058254502 0.15651043 0.44300002
-0.0050487234 0.15651043 0.44300002
-0.0042623533 0.15615712 0.44200003
-0.0034794901 0.15580383 0.44100001
-0.00270627 0.15580383 0.44100001
-0.00193305 0.15580383 0.44100001
-0.00115983 0.15580383 0.44100001
-0.00038573332 0.15545054 0.44000003
0.00038485666 0.15509723 0.43900001
0.00115457 0.15509723 0.43900001
0.0019286666 0.15545054 0.44000003
0.0027001332 0.15545054 0.44000003
0.0034794901 0.15580383 0.44100001
0.0042527099 0.15580383 0.44100001
0.0050373268 0.15615712 0.44200003
0.0058122999 0.15615712 0.44200003
0.0065872734 0.15615712 0.44200003
0.0073622465 0.15615712 0.44200003
0.0081188101 0.15580383 0.44100001
0.0089121936 0.15615712 0.44200003
0.0096871667 0.15615712 0.44200003
0.01046214 0.15615712 0.44200003
0.01121169 0.15580383 0.44100001
0.01198491 0.15580383 0.44100001
0.01275813 0.15580383 0.44100001
0.01353135 0.15580383 0.44100001
0.014272133 0.15545054 0.44000003
0.0150436 0.15545054 0.44000003
0.015886953 0.15615712 0.44200003
0.016661927 0.15615712 0.44200003
0.017436899 0.15615712 0.44200003
0.01817067 0.15580383 0.44100001
0.01907276 0.15686372 0.44400004
0.01971711 0.15580383 0.44100001
0.02049033 0.15580383 0.44100001
0.021263549 0.15580383 0.44100001
0.02208674 0.15615712 0.44200003
0.022861714 0.15615712 0.44200003
0.023636686 0.15615712 0.44200003
0.02452212 0.15686372 0.44400004
0.025414566 0.15757032 0.44600001
0.026196552 0.15757032 0.44600001
0.02709952 0.1582769 0.44800001
0.027885012 0.1582769 0.44800001
0.028670507 0.1582769 0.44800001
0.029455999 0.1582769 0.44800001
0.030241493 0.1582769 0.44800001
0.03095773 0.15792361 0.44700003
0.031670459 0.15757032 0.44600001
0.032525212 0.15792361 0.44700003
0.033383466 0.1582769 0.44800001
0.034168959 0.1582769 0.44800001
0.034876429 0.15792361 0.44700003
0.03566017 0.15792361 0.44700003
0.036443911 0.15792361 0.44700003
0.037310932 0.1582769 0.44800001
0.038096428 0.1582769 0.44800001
0.038968708 0.15863021 0.44900003
0.039844498 0.1589835 0.45000002
0.0406335 0.1589835 0.45000002
0.041514549 0.15933679 0.45100003
0.042305302 0.15933679 0.45100003
0.043191612 0.1596901 0.45200002
0.043886811 0.15933679 0.45100003
0.044776626 0.1596901 0.45200002
0.045569133 0.1596901 0.45200002
0.046464209 0.16004339 0.45300001
0.047154147 0.1596901 0.45200002
0.047734499 0.1589835 0.45000002
0.048523501 0.1589835 0.45000002
0.049422082 0.15933679 0.45100003
0.050212838 0.15933679 0.45100003
0.05100359 0.15933679 0.45100003
0.051794343 0.15933679 0.45100003
0.052585095 0.15933679 0.45100003
0.0534942 0.1596901 0.45200002
0.054286707 0.1596901 0.45200002
0.055201069 0.16004339 0.45300001
0.05599533 0.16004339 0.45300001
0.056789588 0.16004339 0.45300001
0.057838082 0.16074999 0.45500001
0.05863585 0.16074999 0.45500001
0.059433617 0.16074999 0.45500001
0.060363758 0.16110328 0.45600003
0.061297409 0.16145657 0.45700002
0.066105053 0.16145657 0.45700002
0.07491906 0.16145657 0.45700002
-0.2253384 0.1533816 0.43200001
-0.22510082 0.15373665 0.43300003
-0.22434163 0.15373665 0.43300003
-0.22358243 0.15373665 0.43300003
-0.22385246 0.15444675 0.43500003
-0.22360259 0.1548018 0.43600002
-0.22488253 0.156222 0.44000003
-0.2246204 0.15657705 0.44100001
-0.22435477 0.1569321 0.44200003
-0.22357981 0.1569321 0.44200003
-0.22230075 0.15657705 0.44100001
-0.22152753 0.15657705 0.44100001
-0.22025374 0.156222 0.44000003
-0.21948226 0.156222 0.44000003
-0.21821372 0.15586695 0.43900001
-0.2169487 0.1555119 0.43800002
-0.21618074 0.1555119 0.43800002
-0.21541278 0.1555119 0.43800002
-0.21513487 0.15586695 0.43900001
-0.21436517 0.15586695 0.43900001
-0.21359545 0.15586695 0.43900001
-0.21331052 0.156222 0.44000003
-0.21205603 0.15586695 0.43900001
-0.21128631 0.15586695 0.43900001
-0.21099614 0.156222 0.44000003
-0.20974688 0.15586695 0.43900001
-0.2094532 0.156222 0.44000003
-0.20868173 0.156222 0.44000003
-0.20791027 0.156222 0.44000003
-0.20713879 0.156222 0.44000003
-0.20589831 0.15586695 0.43900001
-0.2051286 0.15586695 0.43900001
-0.20435889 0.15586695 0.43900001
-0.20266166 0.15515685 0.43700001
-0.20189546 0.15515685 0.43700001
-0.20112924 0.15515685 0.43700001
-0.20082153 0.1555119 0.43800002
-0.20096706 0.156222 0.44000003
-0.19928561 0.1555119 0.43800002
-0.19851767 0.1555119 0.43800002
-0.19820118 0.15586695 0.43900001
-0.19743147 0.15586695 0.43900001
-0.19710973 0.156222 0.44000003
-0.19633827 0.156222 0.44000003
-0.1955668 0.156222 0.44000003
-0.19479533 0.156222 0.44000003
-0.19402386 0.156222 0.44000003
-0.1932524 0.156222 0.44000003
-0.19248094 0.156222 0.44000003
-0.19170946 0.156222 0.44000003
-0.18963616 0.15515685 0.43700001
-0.18843774 0.1548018 0.43600002
-0.18724285 0.15444675 0.43500003
-0.18819492 0.15586695 0.43900001
-0.18785213 0.156222 0.44000003
-0.18708067 0.156222 0.44000003
-0.18673263 0.15657705 0.44100001
-0.18511605 0.15586695 0.43900001
-0.18434635 0.15586695 0.43900001
-0.18357663 0.15586695 0.43900001
-0.18197408 0.15515685 0.43700001
-0.18120788 0.15515685 0.43700001
-0.18044166 0.15515685 0.43700001
-0.18008661 0.1555119 0.43800002
-0.17972806 0.15586695 0.43900001
-0.18018129 0.1569321 0.44200003
-0.17900042 0.15657705 0.44100001
-0.17822722 0.15657705 0.44100001
-0.17745399 0.15657705 0.44100001
-0.17587949 0.15586695 0.43900001
-0.17510979 0.15586695 0.43900001
-0.17434007 0.15586695 0.43900001
-0.17357035 0.15586695 0.43900001
-0.17280065 0.15586695 0.43900001
-0.17203093 0.15586695 0.43900001
-0.17165133 0.156222 0.44000003
-0.1704915 0.15586695 0.43900001
-0.16972178 0.15586695 0.43900001
-0.16895208 0.15586695 0.43900001
-0.16779926 0.1555119 0.43800002
-0.1662686 0.1548018 0.43600002
-0.16512455 0.15444675 0.43500003
-0.16511753 0.15515685 0.43700001
-0.16472742 0.1555119 0.43800002
-0.16395946 0.1555119 0.43800002
-0.1631915 0.1555119 0.43800002
-0.16242354 0.1555119 0.43800002
-0.16202466 0.15586695 0.43900001
-0.16162227 0.156222 0.44000003
-0.16121636 0.15657705 0.44100001
-0.16044314 0.15657705 0.44100001
-0.15966994 0.15657705 0.44100001
-0.15889671 0.15657705 0.44100001
-0.1588406 0.15728715 0.44300002
-0.15842068 0.1576422 0.44400004
-0.1569321 0.1569321 0.44200003
-0.15545054 0.156222 0.44000003
