# .PCD v0.7 - Point Cloud Data file format
VERSION 0.7
FIELDS x y z
SIZE 4 4 4
TYPE F F F
COUNT 1 1 1
WIDTH 1389
HEIGHT 1
VIEWPOINT 0 0 0 1 0 0 0
POINTS 1389
DATA ascii
-0.37374142 -0.7604987 2.1210001
-0.37246498 -0.76551849 2.135
-0.3687216 -0.76551849 2.135
-0.36497825 -0.76551849 2.135
-0.4365949 -0.4713372 1.3210001
-0.43427876 -0.4713372 1.3210001
-0.43196258 -0.4713372 1.3210001
-0.43224838 -0.47419164 1.3290001
-0.42797726 -0.47205082 1.3230001
-0.42662281 -0.47312123 1.3260001
-0.42269799 -0.4713372 1.3210001
-0.41974536 -0.47062358 1.319
-0.41711625 -0.47026679 1.3180001
-0.41354644 -0.46883959 1.314
-0.41155556 -0.46919638 1.3150001
-1.2473564 -1.4300678 4.0080004
-1.2233086 -1.4104435 3.9530001
-1.2136083 -1.4072323 3.9440002
-1.1944548 -1.3929602 3.9040003
-1.1576822 -1.3736929 3.8500001
-1.160797 -1.3854673 3.8830001
-1.1554747 -1.3872514 3.8880002
-1.1536802 -1.393317 3.9050002
-1.1544691 -1.4025939 3.9310002
-1.1478688 -1.4029506 3.9320002
-1.1409746 -1.4029506 3.9320002
-1.1326385 -1.4011667 3.9270003
-1.1286198 -1.4047347 3.9370003
-1.1348231 -1.4211477 3.9830003
-1.1258574 -1.41865 3.9760001
-1.1188861 -1.41865 3.9760001
-1.110237 -1.4165093 3.9700003
-1.1032763 -1.4165093 3.9700003
-1.082508 -1.398669 3.9200001
-1.0616407 -1.3804721 3.8690002
-0.44025761 -0.76248872 2.1370001
-0.4283402 -0.74821657 2.0970001
-0.42547351 -0.7496438 2.1010001
-0.42700943 -0.75892067 2.1270001
-0.41969803 -0.75249821 2.1090002
-0.41600025 -0.75249821 2.1090002
-0.43461189 -0.46689075 1.3150001
-0.43263501 -0.46724579 1.3160001
-0.4300006 -0.46689075 1.3150001
-0.4286707 -0.46795589 1.3180001
-0.4263598 -0.46795589 1.3180001
-0.42372718 -0.46760085 1.317
-0.42045811 -0.46653569 1.314
-0.41815421 -0.46653569 1.314
-0.41426796 -0.46476045 1.309
-0.40976977 -0.46227509 1.302
-0.4077999 -0.46263015 1.3030001
-1.1591856 -1.3687178 3.8550003
-1.1625906 -1.3807894 3.8890002
-1.1554747 -1.3804344 3.8880002
-1.1536802 -1.3864702 3.9050002
-1.1544691 -1.3957015 3.9310002
-1.1478688 -1.3960565 3.9320002
-1.141555 -1.3967667 3.9340003
-1.1317731 -1.3932161 3.9240003
-1.1286198 -1.3978318 3.9370003
-1.1348231 -1.4141642 3.9830003
-1.1131151 -1.3957015 3.9310002
-1.1188861 -1.4116788 3.9760001
-1.0976524 -1.3935713 3.9250002
-1.0907706 -1.3935713 3.9250002
-1.082508 -1.391796 3.9200001
-1.0646591 -1.377594 3.8800001
-0.43407711 -0.74809033 2.1070001
-0.42956579 -0.74667013 2.1030002
-0.42446095 -0.74418479 2.0960002
-0.43461189 -0.46458513 1.3150001
-0.43033373 -0.46246535 1.309
-0.42803863 -0.46246535 1.309
-0.42574352 -0.46246535 1.309
-0.42344841 -0.46246535 1.309
-0.42115331 -0.46246535 1.309
-0.41853818 -0.46211204 1.3080001
-0.41624483 -0.46211204 1.3080001
-0.41300204 -0.46105215 1.3050001
-0.40882561 -0.45893237 1.299
-0.40592209 -0.45822579 1.2970001
-1.1231415 -1.3926954 3.9420002
-1.1131151 -1.3888092 3.9310002
-1.1062227 -1.3888092 3.9310002
-1.0945762 -1.3828032 3.9140003
-1.0877136 -1.3828032 3.9140003
-1.0808511 -1.3828032 3.9140003
-1.0663054 -1.3729109 3.8860002
-0.43407711 -0.74439609 2.1070001
-0.43017858 -0.74404275 2.1060002
-0.42587852 -0.74298286 2.1030002
-0.034479301 -0.30724886 0.87400001
-0.032871492 -0.30654579 0.87200004
-0.031342585 -0.30654579 0.87200004
-0.029745299 -0.3058427 0.87000006
-0.028219899 -0.3058427 0.87000006
-0.026663816 -0.30549115 0.86900002
-0.02514017 -0.30549115 0.86900002
-0.023534993 -0.30443653 0.86600006
-0.021940336 -0.30338189 0.86300004
-0.020474549 -0.30408499 0.86500007
-0.018979833 -0.30443653 0.86600006
-0.021437129 -0.45243627 1.2870001
-0.019433947 -0.4584125 1.304
-0.017147601 -0.4584125 1.304
-0.014861253 -0.4584125 1.304
-0.01258455 -0.45876405 1.3050001
-0.010257 -0.45700634 1.3000001
-0.0078794798 -0.45138162 1.284
-0.0056281998 -0.45138162 1.284
-0.00337692 -0.45138162 1.284
-0.0011247633 -0.45103011 1.2830001
-0.01695035 -0.45087931 1.289
-0.014747286 -0.45262825 1.294
-0.01258455 -0.45647594 1.3050001
-0.01017021 -0.45087931 1.289
-0.0078794798 -0.44913036 1.284
-0.0056281998 -0.44913036 1.284
-0.00337692 -0.44913036 1.284
-0.0011247633 -0.44878057 1.2830001
-0.42337477 -0.44583496 1.281
-0.42178625 -0.44653103 1.2830001
-0.42019072 -0.44722712 1.2850001
-0.41793767 -0.44722712 1.2850001
-0.4137437 -0.4451389 1.279
-0.4115012 -0.4451389 1.279
-0.41053861 -0.44653103 1.2830001
-0.40828907 -0.44653103 1.2830001
-0.40762195 -0.44827121 1.2880001
-0.40379003 -0.44653103 1.2830001
-0.40216646 -0.44722712 1.2850001
-0.039300092 -0.30438304 0.87900007
-0.037672997 -0.30369049 0.87700003
-0.036011714 -0.30265164 0.87400001
-0.034479301 -0.30265164 0.87400001
-0.032871492 -0.30195907 0.87200004
-0.031270701 -0.30126649 0.87000006
-0.029745299 -0.30126649 0.87000006
-0.028187463 -0.30092022 0.86900002
-0.026602451 -0.30022764 0.86700004
-0.025082311 -0.30022764 0.86700004
-0.023453463 -0.29884252 0.86300004
-0.021965761 -0.29918879 0.86400002
-0.023417519 -0.44047239 1.2720001
-0.020987401 -0.436317 1.2600001
-0.01864407 -0.43320045 1.251
-0.016450649 -0.43320045 1.251
-0.01425723 -0.43320045 1.251
-0.012073454 -0.43354672 1.2520001
-0.0098782796 -0.43354672 1.2520001
-0.0077690198 -0.4383947 1.266
-0.0055493 -0.4383947 1.266
-0.00332958 -0.4383947 1.266
-0.0011054766 -0.43666327 1.261
-0.42040023 -0.43824217 1.2720001
-0.41849875 -0.43858668 1.273
-0.41855574 -0.44099841 1.2800001
-0.41631147 -0.44099841 1.2800001
-0.41180277 -0.43858668 1.273
-0.40957078 -0.43858668 1.273
-0.40893871 -0.44030935 1.2780001
-0.40669793 -0.44030935 1.2780001
-0.4028748 -0.43858668 1.273
-0.40032807 -0.43824217 1.2720001
-0.39872378 -0.43893123 1.274
-0.039300092 -0.30130067 0.87900007
-0.037544128 -0.2995868 0.87400001
-0.035970509 -0.29924402 0.87300003
-0.034360949 -0.29855847 0.87100005
-0.032871492 -0.29890126 0.87200004
-0.031270701 -0.29821569 0.87000006
-0.02967692 -0.29753014 0.86800003
-0.028122589 -0.29718736 0.86700004
-0.026602451 -0.29718736 0.86700004
-0.025082311 -0.29718736 0.86700004
-0.023562171 -0.29718736 0.86700004
-0.022067454 -0.29753014 0.86800003
-0.0230125 -0.42847082 1.25
-0.020770863 -0.42744249 1.2470001
-0.018584456 -0.42744249 1.2470001
-0.01639805 -0.42744249 1.2470001
-0.014211643 -0.42744249 1.2470001
-0.011986664 -0.42607141 1.243
-0.00980727 -0.42607141 1.243
-0.00762174 -0.42572862 1.2420001
-0.0054441001 -0.42572862 1.2420001
-0.00326646 -0.42572862 1.2420001
-0.00108882 -0.42572862 1.2420001
-0.41544268 -0.42866632 1.2570001
-0.41290998 -0.4283253 1.256
-0.4107078 -0.4283253 1.256
-0.40948135 -0.42934838 1.2590001
-0.40727392 -0.42934838 1.2590001
-0.40506646 -0.42934838 1.2590001
-0.40701881 -0.43378168 1.2720001
-0.40510678 -0.43412271 1.273
-0.4028748 -0.43412271 1.273
-0.40001336 -0.43344066 1.271
-0.039076541 -0.29652199 0.87400001
-0.037458215 -0.29584345 0.87200004
-0.035929307 -0.29584345 0.87200004
-0.034360949 -0.29550418 0.87100005
-0.032758404 -0.29482561 0.86900002
-0.031270701 -0.29516491 0.87000006
-0.02967692 -0.29448634 0.86800003
-0.028122589 -0.29414707 0.86700004
-0.026602451 -0.29414707 0.86700004
-0.02275476 -0.41933772 1.2360001
-0.020604296 -0.41967699 1.2370001
-0.018435422 -0.41967699 1.2370001
-0.016266549 -0.41967699 1.2370001
-0.014109073 -0.42001626 1.238
-0.011899874 -0.41865918 1.2340001
-0.0097362604 -0.41865918 1.2340001
-0.0075787832 -0.41899845 1.235
-0.0054134168 -0.41899845 1.235
-0.00323227 -0.41696283 1.2290001
-0.0010774233 -0.41696283 1.2290001
-0.40453607 -0.41312039 1.2240001
-0.40502 -0.41582054 1.2320001
-0.40874583 -0.42189583 1.25
-0.40818039 -0.42358342 1.2550001
-0.40597996 -0.42358342 1.2550001
-0.404423 -0.42425844 1.2570001
-0.039076541 -0.29498956 0.87400001
-0.037415255 -0.29397702 0.87100005
-0.035888102 -0.29397702 0.87100005
-0.034360949 -0.29397702 0.87100005
-0.032758404 -0.29330197 0.86900002
-0.031270701 -0.29363951 0.87000006
-0.02967692 -0.29296446 0.86800003
-0.028090153 -0.29228944 0.86600006
-0.026571767 -0.29228944 0.86600006
-0.0224602 -0.41177034 1.22
-0.020321133 -0.41177034 1.22
-0.018256582 -0.4134579 1.225
-0.016108749 -0.4134579 1.225
-0.014006503 -0.41480798 1.2290001
-0.011851656 -0.41480798 1.2290001
-0.0096968096 -0.41480798 1.2290001
-0.0075419634 -0.41480798 1.2290001
-0.0053695831 -0.4134579 1.225
-0.00322175 -0.4134579 1.225
-0.0010739167 -0.4134579 1.225
-0.40023953 -0.40660939 1.2110001
-0.40502 -0.41366044 1.2320001
-0.40874583 -0.41970417 1.25
-0.40850562 -0.42171875 1.256
-0.40630344 -0.42171875 1.256
-0.40410125 -0.42171875 1.256
-0.03938951 -0.2942628 0.88100004
-0.037715953 -0.29326078 0.87800002
-0.036135323 -0.29292676 0.87700003
-0.034479301 -0.29192474 0.87400001
-0.032909188 -0.29159072 0.87300003
-0.03137853 -0.29159072 0.87300003
-0.029916249 -0.29225874 0.87500006
-0.028309319 -0.39947596 1.1960001
-0.026212333 -0.39947596 1.1960001
-0.024196001 -0.400812 1.2
-0.022092 -0.400812 1.2
-0.020054627 -0.40214804 1.2040001
-0.018003227 -0.40348408 1.2080001
-0.015727401 -0.39947596 1.1960001
-0.013630413 -0.39947596 1.1960001
-0.01168772 -0.40482011 1.212
-0.0095232297 -0.40315008 1.207
-0.0074130935 -0.40348408 1.2080001
-0.0052906834 -0.40315008 1.207
-0.00317441 -0.40315008 1.207
-0.00105463 -0.40181401 1.2030001
-0.03938951 -0.29271811 0.88100004
-0.037801865 -0.29238588 0.88000005
-0.036258932 -0.29238588 0.88000005
-0.034676548 -0.29205361 0.87900007
-0.033097673 -0.29172134 0.87800002
-0.031558245 -0.29172134 0.87800002
-0.02995044 -0.29105684 0.87600005
-0.02851183 -0.29205361 0.87900007
-0.028214639 -0.39604995 1.192
-0.026124667 -0.39604995 1.192
-0.023853224 -0.39305964 1.1830001
-0.021779031 -0.39305964 1.1830001
-0.019621553 -0.39139834 1.1780001
-0.017585933 -0.39206287 1.1800001
-0.0156222 -0.39472091 1.1880001
-0.01353924 -0.39472091 1.1880001
-0.01145628 -0.39472091 1.1880001
-0.0093575399 -0.39405641 1.1860001
-0.0073271799 -0.39671445 1.194
-0.0052161668 -0.39538544 1.1900001
-0.0031297 -0.39538544 1.1900001
-0.0010432333 -0.39538544 1.1900001
-0.397926 -0.397926 1.2040001
-0.39252749 -0.39462098 1.194
-0.39174199 -0.39594299 1.1980001
-0.396604 -0.39449999 1.2
-0.39384249 -0.39384249 1.1980001
-0.042430665 -0.28775707 0.88000005
-0.040934198 -0.28808406 0.88100004
-0.039613061 -0.28971905 0.88600004
-0.037930738 -0.28873804 0.88300002
-0.036382545 -0.28873804 0.88300002
-0.034834351 -0.28873804 0.88300002
-0.033097673 -0.28710306 0.87800002
-0.031558245 -0.28710306 0.87800002
-0.030075803 -0.38683707 1.1830001
-0.027930601 -0.38585606 1.1800001
-0.025861666 -0.38585606 1.1800001
-0.023611262 -0.38291308 1.171
-0.02150288 -0.38193211 1.1680001
-0.019471643 -0.3822591 1.169
-0.017407093 -0.38193211 1.1680001
-0.0153592 -0.38193211 1.1680001
-0.013311307 -0.38193211 1.1680001
-0.011244127 -0.3812781 1.166
-0.0092313001 -0.38258609 1.1700001
-0.0071799001 -0.38258609 1.1700001
-0.0051460331 -0.38389409 1.174
-0.00308762 -0.38389409 1.174
-0.0010292067 -0.38389409 1.174
-0.042430665 -0.28621414 0.88000005
-0.040887732 -0.28621414 0.88000005
-0.039523639 -0.2875151 0.88400006
-0.038016651 -0.28784034 0.88500005
-0.036382545 -0.28718987 0.88300002
-0.03475545 -0.28653938 0.88100004
-0.033097673 -0.28556365 0.87800002
-0.031558245 -0.28556365 0.87800002
-0.029948687 -0.38313663 1.1780001
-0.02790693 -0.38346189 1.179
-0.02583975 -0.38346189 1.179
-0.023591099 -0.38053471 1.1700001
-0.02150288 -0.37988421 1.1680001
-0.019405017 -0.37890849 1.1650001
-0.017407093 -0.37988421 1.1680001
-0.015306599 -0.37858325 1.164
-0.013254323 -0.37825799 1.1630001
-0.01116698 -0.37663177 1.1580001
-0.00913662 -0.37663177 1.1580001
-0.0071308068 -0.37793276 1.1620001
-0.0051109665 -0.37923372 1.166
-0.00306658 -0.37923372 1.166
-0.0010221933 -0.37923372 1.166
-0.044173479 -0.28131533 0.88400006
-0.042575315 -0.2809971 0.88300002
-0.041027121 -0.2809971 0.88300002
-0.039478932 -0.2809971 0.88300002
-0.037887778 -0.28067887 0.88200003
-0.036423746 -0.28131533 0.88400006
-0.034873798 -0.28131533 0.88400006
-0.02478249 -0.33318681 1.0470001
-0.022859083 -0.33191389 1.0430001
-0.021030357 -0.33191389 1.0430001
-0.019201631 -0.33191389 1.0430001
-0.017239651 -0.32936805 1.0350001
-0.01542495 -0.32936805 1.0350001
-0.0151488 -0.36660096 1.1520001
-0.01312896 -0.36660096 1.1520001
-0.011099476 -0.36628273 1.151
-0.0090813898 -0.36628273 1.151
-0.0070633031 -0.36628273 1.151
-0.0050452165 -0.36628273 1.151
-0.00302976 -0.36660096 1.1520001
-0.0010064134 -0.36532804 1.148
-0.20590357 -0.19716497 0.62300003
-0.20415375 -0.19653201 0.62100005
-0.044173479 -0.27976537 0.88400006
-0.042478882 -0.27881595 0.88100004
-0.040934198 -0.27881595 0.88100004
-0.03938951 -0.27881595 0.88100004
-0.037801865 -0.27849945 0.88000005
-0.036382545 -0.2794489 0.88300002
-0.03475545 -0.27881595 0.88100004
-0.033173066 -0.27849945 0.88000005
-0.02478249 -0.33135107 1.0470001
-0.022880999 -0.33040163 1.044
-0.021030357 -0.33008516 1.0430001
-0.019201631 -0.33008516 1.0430001
-0.017239651 -0.32755336 1.0350001
-0.01542495 -0.32755336 1.0350001
-0.0137286 -0.33040163 1.044
-0.01189812 -0.33040163 1.044
-0.010077284 -0.3307181 1.0450001
-0.00904983 -0.36299872 1.1470001
-0.0070387567 -0.36299872 1.1470001
-0.0050276835 -0.36299872 1.1470001
-0.00301924 -0.36331522 1.148
-0.0010064134 -0.36331522 1.148
-0.20524257 -0.19544318 0.62100005
-0.20415375 -0.19544318 0.62100005
-0.20524257 -0.19435437 0.62100005
-0.20415375 -0.19435437 0.62100005
-0.20306493 -0.19435437 0.62100005
-0.20165086 -0.1940414 0.62
-0.20121078 -0.19466734 0.62200004
-0.20044194 -0.19498031 0.62300003
-0.19934961 -0.19498031 0.62300003
-0.19889376 -0.19560625 0.625
-0.20491207 -0.19295433 0.62
-0.20415375 -0.19326554 0.62100005
-0.20273793 -0.19295433 0.62
-0.20165086 -0.19295433 0.62
-0.20088729 -0.19326554 0.62100005
-0.20044194 -0.19388798 0.62300003
-0.19934961 -0.19388798 0.62300003
-0.19953021 -0.19513285 0.62700003
-0.19938029 -0.1960665 0.63000005
-0.04904424 -0.27480343 0.88800007
-0.047326848 -0.27387506 0.88500005
-0.045723427 -0.27356559 0.88400006
-0.044273421 -0.27418453 0.88600004
-0.042575315 -0.27325612 0.88300002
-0.041027121 -0.27325612 0.88300002
-0.03938951 -0.27263719 0.88100004
-0.037844822 -0.27263719 0.88100004
-0.036300138 -0.27263719 0.88100004
-0.03475545 -0.27263719 0.88100004
-0.033210762 -0.27263719 0.88100004
-0.031666078 -0.27263719 0.88100004
-0.03012139 -0.27263719 0.88100004
-0.021171499 -0.32493651 1.0500001
-0.01925686 -0.32369864 1.046
-0.017339589 -0.32215133 1.041
-0.01551437 -0.32215133 1.041
-0.01368915 -0.32215133 1.041
-0.011841137 -0.3215324 1.039
-0.010048353 -0.3224608 1.0420001
-0.0082213804 -0.3224608 1.0420001
-0.0063944068 -0.3224608 1.0420001
-0.0045674331 -0.3224608 1.0420001
-0.0028272499 -0.33267307 1.075
-0.00094241666 -0.33267307 1.075
-0.20458156 -0.19047248 0.61900002
-0.203825 -0.19078019 0.62
-0.20241094 -0.19047248 0.61900002
-0.20132563 -0.19047248 0.61900002
-0.20088729 -0.1910879 0.62100005
-0.19979846 -0.1910879 0.62100005
-0.1996696 -0.19201104 0.62400001
-0.19921198 -0.19262646 0.62600005
-0.19906382 -0.19354959 0.62900001
-0.050715167 -0.27386189 0.89000005
-0.049099471 -0.27355418 0.88900006
-0.047540758 -0.27355418 0.88900006
-0.045826875 -0.27263105 0.88600004
-0.044273421 -0.27263105 0.88600004
-0.042575315 -0.27170792 0.88300002
-0.041027121 -0.27170792 0.88300002
-0.03938951 -0.2710925 0.88100004
-0.037844822 -0.2710925 0.88100004
-0.036300138 -0.2710925 0.88100004
-0.03475545 -0.2710925 0.88100004
-0.033210762 -0.2710925 0.88100004
-0.0193305 -0.3230955 1.0500001
-0.01738956 -0.32124925 1.044
-0.01555908 -0.32124925 1.044
-0.0137286 -0.32124925 1.044
-0.011875327 -0.32063383 1.0420001
-0.010048353 -0.32063383 1.0420001
-0.0082213804 -0.32063383 1.0420001
-0.0064128167 -0.32155696 1.0450001
-0.0045805834 -0.32155696 1.0450001
-0.0028272499 -0.33078825 1.075
-0.00094241666 -0.33078825 1.075
-0.20425107 -0.18908122 0.61800003
-0.20349625 -0.18938717 0.61900002
-0.20241094 -0.18938717 0.61900002
-0.20132563 -0.18938717 0.61900002
-0.2005638 -0.18969314 0.62
-0.19979846 -0.18999909 0.62100005
-0.19902964 -0.19030504 0.62200004
-0.19889376 -0.19122292 0.625
-0.19843087 -0.19183482 0.62700003
-0.19890514 -0.19336461 0.63200003
-0.19904892 -0.19458844 0.63600004
-0.19793379 -0.19458844 0.63600004
-0.19681868 -0.19458844 0.63600004
-0.050772149 -0.27260739 0.89100003
-0.049099471 -0.27199548 0.88900006
-0.047540758 -0.27199548 0.88900006
-0.045982044 -0.27199548 0.88900006
-0.044423331 -0.27199548 0.88900006
-0.042575315 -0.27015972 0.88300002
-0.015916759 -0.32676172 1.0680001
-0.0138075 -0.32125449 1.0500001
-0.011966499 -0.32125449 1.0500001
-0.010115856 -0.32094854 1.049
-0.0083476203 -0.32370216 1.0580001
-0.00655396 -0.32676172 1.0680001
-0.0047296165 -0.33012724 1.079
-0.0028272499 -0.32890341 1.075
-0.00093891 -0.32767957 1.0710001
-0.20392056 -0.18769346 0.61700004
-0.2031675 -0.18799765 0.61800003
-0.20175694 -0.18769346 0.61700004
-0.20100038 -0.18799765 0.61800003
-0.20024031 -0.18830186 0.61900002
-0.19947673 -0.18860607 0.62
-0.19838966 -0.18860607 0.62
-0.19793905 -0.18921447 0.62200004
-0.19779791 -0.19012707 0.625
-0.19733153 -0.19073549 0.62700003
-0.19873595 -0.19316912 0.63500005
-0.19793379 -0.19347332 0.63600004
-0.19681868 -0.19347332 0.63600004
-0.19539584 -0.19316912 0.63500005
-0.20392056 -0.18661165 0.61700004
-0.20283875 -0.18661165 0.61700004
-0.20208395 -0.1869141 0.61800003
-0.20165086 -0.187519 0.62
-0.2005638 -0.187519 0.62
-0.19947673 -0.187519 0.62
-0.19870965 -0.18782145 0.62100005
-0.19793905 -0.1881239 0.62200004
-0.19748144 -0.18872879 0.62400001
-0.19733153 -0.18963616 0.62700003
-0.19842298 -0.1917533 0.634
-0.19793379 -0.1923582 0.63600004
-0.19681868 -0.1923582 0.63600004
-0.19539584 -0.19205575 0.63500005
-0.050715167 -0.26762003 0.89000005
-0.049099471 -0.26731932 0.88900006
-0.047540758 -0.26731932 0.88900006
-0.045930319 -0.26701865 0.88800007
-0.04437336 -0.26701865 0.88800007
-0.042768184 -0.26671794 0.88700002
-0.041212976 -0.26671794 0.88700002
-0.03974719 -0.26731932 0.88900006
-0.017672723 -0.31903917 1.0610001
-0.01578263 -0.31843776 1.059
-0.013925849 -0.31843776 1.059
-0.01210326 -0.31933987 1.062
-0.010231577 -0.31903917 1.0610001
-0.0083712898 -0.31903917 1.0610001
-0.0065355501 -0.32024196 1.0650001
-0.0046682497 -0.32024196 1.0650001
-0.0028009501 -0.32024196 1.0650001
-0.00092751335 -0.31813708 1.0580001
-0.2018525 -0.18355121 0.61400002
-0.20142995 -0.18414909 0.61600006
-0.2003499 -0.18414909 0.61600006
-0.19926985 -0.18414909 0.61600006
-0.19754632 -0.18355121 0.61400002
-0.19678974 -0.18385015 0.61500001
-0.19571145 -0.18385015 0.61500001
-0.1940002 -0.18325226 0.61300004
-0.19261068 -0.18295331 0.61200005
-0.19310249 -0.18444803 0.61700004
-0.19700015 -0.18923113 0.63300002
-0.050772149 -0.26635849 0.89100003
-0.049099471 -0.26576063 0.88900006
-0.047540758 -0.26576063 0.88900006
-0.045982044 -0.26576063 0.88900006
-0.044473298 -0.26605958 0.89000005
-0.042864617 -0.26576063 0.88900006
-0.041305903 -0.26576063 0.88900006
-0.03974719 -0.26576063 0.88900006
-0.017672723 -0.31717888 1.0610001
-0.01578263 -0.31658098 1.059
-0.013925849 -0.31658098 1.059
-0.01206907 -0.31658098 1.059
-0.010202646 -0.31628203 1.0580001
-0.0083476203 -0.31628203 1.0580001
-0.0064925933 -0.31628203 1.0580001
-0.0045981165 -0.31359154 1.049
-0.0027588699 -0.31359154 1.049
-0.00092225336 -0.31448838 1.052
-0.20226803 -0.18188028 0.61200005
-0.201195 -0.18188028 0.61200005
-0.20044896 -0.18217747 0.61300004
-0.20002465 -0.18277185 0.61500001
-0.19894634 -0.18277185 0.61500001
-0.19722457 -0.18217747 0.61300004
-0.19614978 -0.18217747 0.61300004
-0.19507499 -0.18217747 0.61300004
-0.19368371 -0.18188028 0.61200005
-0.19261068 -0.18188028 0.61200005
-0.1918506 -0.18217747 0.61300004
-0.19139825 -0.18277185 0.61500001
-0.050658181 -0.26420191 0.88900006
-0.049099471 -0.26420191 0.88900006
-0.047487281 -0.26390472 0.88800007
-0.045982044 -0.26420191 0.88900006
-0.044473298 -0.2644991 0.89000005
-0.042864617 -0.26420191 0.88900006
-0.041305903 -0.26420191 0.88900006
-0.03974719 -0.26420191 0.88900006
-0.038231432 -0.2644991 0.89000005
-0.017672723 -0.31531858 1.0610001
-0.01578263 -0.31472421 1.059
-0.013925849 -0.31472421 1.059
-0.01206907 -0.31472421 1.059
-0.010173717 -0.31353545 1.0550001
-0.0083239498 -0.31353545 1.0550001
-0.0064741834 -0.31353545 1.0550001
-0.0045805834 -0.31056353 1.0450001
-0.0027483499 -0.31056353 1.0450001
-0.00091611664 -0.31056353 1.0450001
-0.20193754 -0.1805118 0.611
-0.20086625 -0.1805118 0.611
-0.20012195 -0.18080723 0.61200005
-0.19904892 -0.18080723 0.61200005
-0.19862285 -0.18139811 0.61400002
-0.19690284 -0.18080723 0.61200005
-0.19582979 -0.18080723 0.61200005
-0.19475676 -0.18080723 0.61200005
-0.19336724 -0.1805118 0.611
-0.19261068 -0.18080723 0.61200005
-0.19153763 -0.18080723 0.61200005
-0.1904646 -0.18080723 0.61200005
-0.18110268 -0.18110268 0.61300004
-0.18032156 -0.18139811 0.61400002
-0.20160703 -0.17914683 0.61000001
-0.20086625 -0.17944051 0.611
-0.19979496 -0.17944051 0.611
-0.19872367 -0.17944051 0.611
-0.19829936 -0.18002789 0.61300004
-0.1965811 -0.17944051 0.611
-0.19550982 -0.17944051 0.611
-0.19475676 -0.1797342 0.61200005
-0.19305077 -0.17914683 0.61000001
-0.19198123 -0.17914683 0.61000001
-0.1909117 -0.17914683 0.61000001
-0.18984216 -0.17914683 0.61000001
-0.18846317 -0.17885315 0.60900003
-0.18801081 -0.17944051 0.611
-0.18188028 -0.1797342 0.61200005
-0.1805118 -0.17944051 0.611
-0.18032156 -0.18032156 0.61400002
-0.1789531 -0.18002789 0.61300004
-0.087799922 -0.27324647 0.93600005
-0.086066753 -0.27295455 0.93500006
-0.084427379 -0.27295455 0.93500006
-0.082788013 -0.27295455 0.93500006
-0.050658181 -0.25952578 0.88900006
-0.049099471 -0.25952578 0.88900006
-0.047540758 -0.25952578 0.88900006
-0.046085488 -0.26010963 0.89100003
-0.04457324 -0.26040155 0.89200002
-0.043009266 -0.26040155 0.89200002
-0.041398831 -0.26010963 0.89100003
-0.039881319 -0.26040155 0.89200002
-0.038317345 -0.26040155 0.89200002
-0.036876984 -0.26127735 0.89500004
-0.015678307 -0.30711037 1.052
-0.01379435 -0.30623457 1.049
-0.011955103 -0.30623457 1.049
-0.010115856 -0.30623457 1.049
-0.0082766097 -0.30623457 1.049
-0.0064128167 -0.30506685 1.0450001
-0.0045542833 -0.30331528 1.039
-0.0027325701 -0.30331528 1.039
-0.00091085664 -0.30331528 1.039
-0.087799922 -0.27160537 0.93600005
-0.085790597 -0.27044466 0.93200004
-0.083975896 -0.26986429 0.93000007
-0.082345299 -0.26986429 0.93000007
-0.050772149 -0.2585474 0.89100003
-0.04920993 -0.2585474 0.89100003
-0.047647711 -0.2585474 0.89100003
-0.046085488 -0.2585474 0.89100003
-0.044523269 -0.2585474 0.89100003
-0.04296105 -0.2585474 0.89100003
-0.041398831 -0.2585474 0.89100003
-0.039881319 -0.25883758 0.89200002
-0.038317345 -0.25883758 0.89200002
-0.036876984 -0.25970811 0.89500004
-0.03546555 -0.26086882 0.89900005
-0.015737919 -0.30642655 1.056
-0.0138864 -0.30642655 1.056
-0.012023483 -0.30613637 1.0550001
-0.010115856 -0.30439532 1.049
-0.00824505 -0.30323461 1.0450001
-0.0063391766 -0.2997525 1.033
-0.0045148334 -0.29888198 1.0300001
-0.0027089 -0.29888198 1.0300001
-0.00090296665 -0.29888198 1.0300001
-0.20160703 -0.17593823 0.61000001
-0.20020875 -0.17564981 0.60900003
-0.19914097 -0.17564981 0.60900003
-0.19839843 -0.17593823 0.61000001
-0.19797587 -0.17651507 0.61200005
-0.19690284 -0.17651507 0.61200005
-0.19486985 -0.17564981 0.60900003
-0.19348384 -0.17536138 0.60800004
-0.19241782 -0.17536138 0.60800004
-0.19135179 -0.17536138 0.60800004
-0.19028576 -0.17536138 0.60800004
-0.18890852 -0.17507297 0.60700005
-0.18784425 -0.17507297 0.60700005
-0.18677998 -0.17507297 0.60700005
-0.18571569 -0.17507297 0.60700005
-0.18465142 -0.17507297 0.60700005
-0.18358715 -0.17507297 0.60700005
-0.18252288 -0.17507297 0.60700005
-0.18115966 -0.17478454 0.60600001
-0.18039432 -0.17507297 0.60700005
-0.17933005 -0.17507297 0.60700005
-0.17944051 -0.17622666 0.611
-0.17720151 -0.17507297 0.60700005
-0.17584705 -0.17478454 0.60600001
-0.17564981 -0.17564981 0.60900003
-0.17429537 -0.17536138 0.60800004
-0.17351425 -0.17564981 0.60900003
-0.17244647 -0.17564981 0.60900003
-0.17109728 -0.17536138 0.60800004
-0.17031091 -0.17564981 0.60900003
-0.16924313 -0.17564981 0.60900003
-0.087237097 -0.26823369 0.93000007
-0.085514449 -0.26794529 0.92900002
-0.083975896 -0.26823369 0.93000007
-0.082345299 -0.26823369 0.93000007
-0.04920993 -0.25698519 0.89100003
-0.047647711 -0.25698519 0.89100003
-0.046240661 -0.25785047 0.89400005
-0.044523269 -0.25698519 0.89100003
-0.04296105 -0.25698519 0.89100003
-0.04153822 -0.25785047 0.89400005
-0.039881319 -0.25727361 0.89200002
-0.038317345 -0.25727361 0.89200002
-0.036959391 -0.25871572 0.89700001
-0.035386648 -0.25871572 0.89700001
-0.033776212 -0.25842729 0.89600003
-0.032277115 -0.25900415 0.89800006
-0.03073681 -0.25929257 0.89900005
-0.029160563 -0.25929257 0.89900005
-0.027553633 -0.25900415 0.89800006
-0.025979139 -0.25900415 0.89800006
-0.024459001 -0.259581 0.90000004
-0.022906423 -0.25986943 0.90100002
-0.021421351 -0.2610231 0.90500003
-0.019812666 -0.26073468 0.90400004
-0.01820749 -0.26044628 0.90300006
-0.016697871 -0.26159996 0.90700006
-0.015124253 -0.26188838 0.90800005
-0.013532227 -0.26188838 0.90800005
-0.0138864 -0.30457503 1.056
-0.01203488 -0.30457503 1.056
-0.010115856 -0.30255607 1.049
-0.00824505 -0.30140239 1.0450001
-0.0062839468 -0.29534549 1.024
-0.0044753831 -0.29448023 1.021
-0.0026694499 -0.29274967 1.0150001
-0.00088718667 -0.29188442 1.0120001
-0.20127653 -0.17458203 0.60900003
-0.19988 -0.17429537 0.60800004
-0.19881397 -0.17429537 0.60800004
-0.19774795 -0.17429537 0.60800004
-0.1973289 -0.1748687 0.61000001
-0.19593763 -0.17458203 0.60900003
-0.19422989 -0.17400868 0.60700005
-0.19284739 -0.17372201 0.60600001
-0.19178486 -0.17372201 0.60600001
-0.19103706 -0.17400868 0.60700005
-0.19028576 -0.17429537 0.60800004
-0.18890852 -0.17400868 0.60700005
-0.18784425 -0.17400868 0.60700005
-0.18647225 -0.17372201 0.60600001
-0.18540974 -0.17372201 0.60600001
-0.18434721 -0.17372201 0.60600001
-0.18358715 -0.17400868 0.60700005
-0.18222217 -0.17372201 0.60600001
-0.18145861 -0.17400868 0.60700005
-0.18039432 -0.17400868 0.60700005
-0.17933005 -0.17400868 0.60700005
-0.17797209 -0.17372201 0.60600001
-0.17690958 -0.17372201 0.60600001
-0.17584705 -0.17372201 0.60600001
-0.17507297 -0.17400868 0.60700005
-0.17372201 -0.17372201 0.60600001
-0.1726595 -0.17372201 0.60600001
-0.17188014 -0.17400868 0.60700005
-0.17081587 -0.17400868 0.60700005
-0.17003125 -0.17429537 0.60800004
-0.16924313 -0.17458203 0.60900003
-0.16789921 -0.17429537 0.60800004
-0.16765636 -0.17515537 0.611
-0.089441039 -0.26832312 0.93600005
-0.086955689 -0.26574308 0.92700005
-0.0848701 -0.26430973 0.92200005
-0.082892336 -0.26316306 0.91800004
-0.080840066 -0.26172972 0.91300005
-0.079239272 -0.26172972 0.91300005
-0.077638477 -0.26172972 0.91300005
-0.076204248 -0.26230305 0.91500002
-0.074599952 -0.26230305 0.91500002
-0.051171035 -0.25742966 0.89800006
-0.04920993 -0.25542298 0.89100003
-0.047647711 -0.25542298 0.89100003
-0.046240661 -0.25628299 0.89400005
-0.044673178 -0.25628299 0.89400005
-0.043105699 -0.25628299 0.89400005
-0.041584682 -0.25656965 0.89500004
-0.040015448 -0.25656965 0.89500004
-0.038446218 -0.25656965 0.89500004
-0.036959391 -0.25714299 0.89700001
-0.035386648 -0.25714299 0.89700001
-0.033776212 -0.25685632 0.89600003
-0.032313056 -0.25771633 0.89900005
-0.03073681 -0.25771633 0.89900005
-0.029160563 -0.25771633 0.89900005
-0.027553633 -0.25742966 0.89800006
-0.025979139 -0.25742966 0.89800006
-0.024459001 -0.258003 0.90000004
-0.022931846 -0.25857633 0.90200007
-0.021421351 -0.25943634 0.90500003
-0.019834584 -0.25943634 0.90500003
-0.018247817 -0.25943634 0.90500003
-0.016734689 -0.26058304 0.90900004
-0.015124253 -0.26029634 0.90800005
-0.013532227 -0.26029634 0.90800005
-0.0119402 -0.26029634 0.90800005
-0.010348173 -0.26029634 0.90800005
-0.0087465029 -0.26000968 0.90700006
-0.0080083497 -0.29097006 1.0150001
-0.0062287166 -0.29097006 1.0150001
-0.0044534667 -0.29125673 1.016
-0.00266419 -0.29039672 1.013
-0.00088543334 -0.28953668 1.01
-0.20094602 -0.17322934 0.60800004
-0.19988 -0.17322934 0.60800004
-0.19848697 -0.17294441 0.60700005
-0.1974227 -0.17294441 0.60700005
-0.19668192 -0.17322934 0.60800004
-0.19529416 -0.17294441 0.60700005
-0.19358991 -0.17237458 0.60500002
-0.19284739 -0.1726595 0.60600001
-0.19146839 -0.17237458 0.60500002
-0.19103706 -0.17294441 0.60700005
-0.19028576 -0.17322934 0.60800004
-0.18859729 -0.1726595 0.60600001
-0.1881537 -0.17322934 0.60800004
-0.18677998 -0.17294441 0.60700005
-0.18540974 -0.1726595 0.60600001
-0.18434721 -0.1726595 0.60600001
-0.18358715 -0.17294441 0.60700005
-0.18252288 -0.17294441 0.60700005
-0.18145861 -0.17294441 0.60700005
-0.18009713 -0.1726595 0.60600001
-0.17844374 -0.17208967 0.60400003
-0.17738473 -0.17208967 0.60400003
-0.17661765 -0.17237458 0.60500002
-0.17555688 -0.17237458 0.60500002
-0.17449611 -0.17237458 0.60500002
-0.17400868 -0.17294441 0.60700005
-0.17294441 -0.17294441 0.60700005
-0.17188014 -0.17294441 0.60700005
-0.17109728 -0.17322934 0.60800004
-0.17031091 -0.17351425 0.60900003
-0.16924313 -0.17351425 0.60900003
-0.16789921 -0.17322934 0.60800004
-0.16738197 -0.17379917 0.61000001
-0.16658507 -0.17408408 0.611
-0.089441039 -0.266682 0.93600005
-0.20028502 -0.17159697 0.60600001
-0.19922251 -0.17159697 0.60600001
-0.19848697 -0.17188014 0.60700005
-0.1974227 -0.17188014 0.60700005
-0.19635843 -0.17188014 0.60700005
-0.19497243 -0.17159697 0.60600001
-0.19422989 -0.17188014 0.60700005
-0.19316562 -0.17188014 0.60700005
-0.19178486 -0.17159697 0.60600001
-0.19103706 -0.17188014 0.60700005
-0.19028576 -0.17216331 0.60800004
-0.18890852 -0.17188014 0.60700005
-0.18784425 -0.17188014 0.60700005
-0.18708768 -0.17216331 0.60800004
-0.18602166 -0.17216331 0.60800004
-0.18465142 -0.17188014 0.60700005
-0.1832847 -0.17159697 0.60600001
-0.18222217 -0.17159697 0.60600001
-0.18056177 -0.17103066 0.60400003
-0.17950276 -0.17103066 0.60400003
-0.17755744 -0.17018116 0.60100001
-0.17650369 -0.17018116 0.60100001
-0.17574187 -0.17046432 0.60200006
-0.17468636 -0.17046432 0.60200006
-0.17420769 -0.17103066 0.60400003
-0.17372201 -0.17159697 0.60600001
-0.1726595 -0.17159697 0.60600001
-0.17131382 -0.17131382 0.60500002
-0.17081587 -0.17188014 0.60700005
-0.17003125 -0.17216331 0.60800004
-0.16896522 -0.17216331 0.60800004
-0.16789921 -0.17216331 0.60800004
-0.16710757 -0.17244647 0.60900003
-0.16603979 -0.17244647 0.60900003
-0.16497201 -0.17244647 0.60900003
-0.085173428 -0.25552028 0.90800005
-0.083581403 -0.25552028 0.90800005
-0.08198937 -0.25552028 0.90800005
-0.080308802 -0.25523886 0.90700006
-0.078718528 -0.25523886 0.90700006
-0.077213295 -0.25552028 0.90800005
-0.07553798 -0.25523886 0.90700006
-0.073540062 -0.2538318 0.90200007
-0.07203833 -0.25411323 0.90300006
-0.070455067 -0.25411323 0.90300006
-0.068871811 -0.25411323 0.90300006
-0.064122029 -0.25411323 0.90300006
-0.062400255 -0.25355041 0.90100002
-0.060888007 -0.2538318 0.90200007
-0.059306499 -0.2538318 0.90200007
-0.057660997 -0.25355041 0.90100002
-0.056019001 -0.25326899 0.90000004
-0.054501489 -0.25355041 0.90100002
-0.052921735 -0.25355041 0.90100002
-0.051341984 -0.25355041 0.90100002
-0.049706999 -0.25326899 0.90000004
-0.048129 -0.25326899 0.90000004
-0.046499275 -0.25298759 0.89900005
-0.044823091 -0.25242478 0.89700001
-0.043250348 -0.25242478 0.89700001
-0.041631147 -0.25214335 0.89600003
-0.040060159 -0.25214335 0.89600003
-0.038489174 -0.25214335 0.89600003
-0.036918186 -0.25214335 0.89600003
-0.035347201 -0.25214335 0.89600003
-0.033776212 -0.25214335 0.89600003
-0.032205228 -0.25214335 0.89600003
-0.03066843 -0.25242478 0.89700001
-0.029095691 -0.25242478 0.89700001
-0.02752295 -0.25242478 0.89700001
-0.02600807 -0.25298759 0.89900005
-0.024404647 -0.25270617 0.89800006
-0.022931846 -0.2538318 0.90200007
-0.021445019 -0.25495747 0.90600002
-0.019834584 -0.25467604 0.90500003
-0.018308306 -0.25552028 0.90800005
-0.0167531 -0.2560831 0.91000003
-0.015157566 -0.2560831 0.91000003
-0.013576937 -0.25636449 0.91100007
-0.011966499 -0.2560831 0.91000003
-0.010348173 -0.25552028 0.90800005
-0.0087465029 -0.25523886 0.90700006
-0.00715623 -0.25523886 0.90700006
-0.0055659567 -0.25523886 0.90700006
-0.0044271667 -0.28422409 1.01
-0.00264052 -0.28253564 1.0040001
-0.00087579002 -0.28112859 0.99900007
-0.17025305 -0.16919228 0.60500002
-0.1697516 -0.1697516 0.60700005
-0.16868733 -0.1697516 0.60700005
-0.16789921 -0.17003125 0.60800004
-0.16683318 -0.17003125 0.60800004
-0.16576715 -0.17003125 0.60800004
-0.16470112 -0.17003125 0.60800004
-0.16363509 -0.17003125 0.60800004
-0.08628767 -0.25252998 0.90300006
-0.084704407 -0.25252998 0.90300006
-0.083121151 -0.25252998 0.90300006
-0.081447594 -0.25225031 0.90200007
-0.079866089 -0.25225031 0.90200007
-0.078284577 -0.25225031 0.90200007
-0.076788113 -0.25252998 0.90300006
-0.075121567 -0.25225031 0.90200007
-0.073540062 -0.25225031 0.90200007
-0.07203833 -0.25252998 0.90300006
-0.070299022 -0.25197065 0.90100002
-0.068719268 -0.25197065 0.90100002
-0.065778054 -0.25280961 0.90400004
-0.064122029 -0.25252998 0.90300006
-0.062400255 -0.25197065 0.90100002
-0.060888007 -0.25225031 0.90200007
-0.059306499 -0.25225031 0.90200007
-0.057724994 -0.25225031 0.90200007
-0.056081243 -0.25197065 0.90100002
-0.054441001 -0.25169098 0.90000004
-0.052980471 -0.25225031 0.90200007
-0.051398966 -0.25225031 0.90200007
-0.049706999 -0.25169098 0.90000004
-0.048129 -0.25169098 0.90000004
-0.046499275 -0.25141135 0.89900005
-0.04492303 -0.25141135 0.89900005
-0.043346781 -0.25141135 0.89900005
-0.041631147 -0.25057238 0.89600003
-0.040060159 -0.25057238 0.89600003
-0.038489174 -0.25057238 0.89600003
-0.037000593 -0.25113168 0.89800006
-0.035426099 -0.25113168 0.89800006
-0.033889305 -0.25141135 0.89900005
-0.032313056 -0.25141135 0.89900005
-0.030702619 -0.25113168 0.89800006
-0.029160563 -0.25141135 0.89900005
-0.027584316 -0.25141135 0.89900005
-0.02600807 -0.25141135 0.89900005
-0.024486177 -0.25197065 0.90100002
-0.023008116 -0.25308928 0.90500003
-0.021445019 -0.25336894 0.90600002
-0.019900333 -0.25392824 0.90800005
-0.018308306 -0.25392824 0.90800005
-0.0167531 -0.25448757 0.91000003
-0.015157566 -0.25448757 0.91000003
-0.013562033 -0.25448757 0.91000003
-0.011966499 -0.25448757 0.91000003
-0.010370967 -0.25448757 0.91000003
-0.0087657897 -0.25420791 0.90900004
-0.00715623 -0.25364861 0.90700006
-0.0055659567 -0.25364861 0.90700006
-0.0039756834 -0.25364861 0.90700006
-0.0026326301 -0.27993631 1.001
-0.0008696533 -0.27741942 0.99200004
-0.19962402 -0.16785361 0.60400003
-0.19856499 -0.16785361 0.60400003
-0.19750598 -0.16785361 0.60400003
-0.19644697 -0.16785361 0.60400003
-0.19538796 -0.16785361 0.60400003
-0.1940072 -0.1675757 0.60300004
-0.19294995 -0.1675757 0.60300004
-0.19083543 -0.1675757 0.60300004
-0.18946345 -0.16729781 0.60200006
-0.18840794 -0.16729781 0.60200006
-0.18797487 -0.16785361 0.60400003
-0.18753478 -0.16840942 0.60600001
-0.18647225 -0.16840942 0.60600001
-0.18479782 -0.16785361 0.60400003
-0.18465142 -0.16868733 0.60700005
-0.1832847 -0.16840942 0.60600001
-0.18192148 -0.16813152 0.60500002
-0.18026283 -0.1675757 0.60300004
-0.17920557 -0.1675757 0.60300004
-0.17785287 -0.16729781 0.60200006
-0.17709105 -0.1675757 0.60300004
-0.17574187 -0.16729781 0.60200006
-0.17468636 -0.16729781 0.60200006
-0.17363085 -0.16729781 0.60200006
-0.17286201 -0.1675757 0.60300004
-0.17208967 -0.16785361 0.60400003
-0.17103066 -0.16785361 0.60400003
-0.17053446 -0.16840942 0.60600001
-0.1697516 -0.16868733 0.60700005
-0.16868733 -0.16868733 0.60700005
-0.16789921 -0.16896522 0.60800004
-0.16683318 -0.16896522 0.60800004
-0.16576715 -0.16896522 0.60800004
-0.16470112 -0.16896522 0.60800004
-0.16336596 -0.16868733 0.60700005
-0.16230169 -0.16868733 0.60700005
-0.16070615 -0.16813152 0.60500002
-0.15964538 -0.16813152 0.60500002
-0.15884674 -0.16840942 0.60600001
-0.15723893 -0.16896522 0.60800004
-0.1561729 -0.16896522 0.60800004
-0.155362 -0.16924313 0.60900003
-0.15454757 -0.16952103 0.61000001
-0.15322644 -0.16924313 0.60900003
-0.15215865 -0.16924313 0.60900003
-0.087676309 -0.25039089 0.90100002
-0.086096555 -0.25039089 0.90100002
-0.084516801 -0.25039089 0.90100002
-0.082937047 -0.25039089 0.90100002
-0.081266999 -0.25011301 0.90000004
-0.079688996 -0.25011301 0.90000004
-0.078024209 -0.24983509 0.89900005
-0.076618038 -0.25039089 0.90100002
-0.075038284 -0.25039089 0.90100002
-0.07345853 -0.25039089 0.90100002
-0.071878776 -0.25039089 0.90100002
-0.070299022 -0.25039089 0.90100002
-0.068719268 -0.25039089 0.90100002
-0.067363068 -0.25122461 0.90400004
-0.065778054 -0.25122461 0.90400004
-0.064122029 -0.2509467 0.90300006
-0.062400255 -0.25039089 0.90100002
-0.060820501 -0.25039089 0.90100002
-0.059240751 -0.25039089 0.90100002
-0.057660997 -0.25039089 0.90100002
-0.056081243 -0.25039089 0.90100002
-0.054441001 -0.25011301 0.90000004
-0.052862998 -0.25011301 0.90000004
-0.051284999 -0.25011301 0.90000004
-0.049596541 -0.2495572 0.89800006
-0.048075523 -0.24983509 0.89900005
-0.046499275 -0.24983509 0.89900005
-0.04492303 -0.24983509 0.89900005
-0.043346781 -0.24983509 0.89900005
-0.041724075 -0.2495572 0.89800006
-0.040149581 -0.2495572 0.89800006
-0.038575087 -0.2495572 0.89800006
-0.037000593 -0.2495572 0.89800006
-0.035426099 -0.2495572 0.89800006
-0.033927001 -0.25011301 0.90000004
-0.032349002 -0.25011301 0.90000004
-0.030702619 -0.2495572 0.89800006
-0.029160563 -0.24983509 0.89900005
-0.027584316 -0.24983509 0.89900005
-0.026065931 -0.25039089 0.90100002
-0.024567707 -0.25122461 0.90400004
-0.023058964 -0.25205833 0.90700006
-0.02149236 -0.25233623 0.90800005
-0.019944167 -0.25289202 0.91000003
-0.018348632 -0.25289202 0.91000003
-0.016734689 -0.25261414 0.90900004
-0.015157566 -0.25289202 0.91000003
-0.013562033 -0.25289202 0.91000003
-0.011966499 -0.25289202 0.91000003
-0.010370967 -0.25289202 0.91000003
-0.0087657897 -0.25261414 0.90900004
-0.00715623 -0.25205833 0.90700006
-0.0055659567 -0.25205833 0.90700006
-0.0039756834 -0.25205833 0.90700006
-0.0026115901 -0.275958 0.99300003
-0.00086789997 -0.27512431 0.99000007
-0.19929351 -0.16651845 0.60300004
-0.19790749 -0.1662423 0.60200006
-0.196852 -0.1662423 0.60200006
-0.19612172 -0.16651845 0.60300004
-0.19506447 -0.16651845 0.60300004
-0.1940072 -0.16651845 0.60300004
-0.19294995 -0.16651845 0.60300004
-0.19157445 -0.1662423 0.60200006
-0.19051895 -0.1662423 0.60200006
-0.18946345 -0.1662423 0.60200006
-0.18872091 -0.16651845 0.60300004
-0.18766364 -0.16651845 0.60300004
-0.18722531 -0.16707075 0.60500002
-0.18616454 -0.16707075 0.60500002
-0.18449187 -0.16651845 0.60300004
-0.18404302 -0.16707075 0.60500002
-0.1826798 -0.1667946 0.60400003
-0.18192148 -0.16707075 0.60500002
-0.18026283 -0.16651845 0.60300004
-0.17920557 -0.16651845 0.60300004
-0.17814831 -0.16651845 0.60300004
-0.17709105 -0.16651845 0.60300004
-0.17603379 -0.16651845 0.60300004
-0.17439617 -0.16596615 0.60100001
-0.17363085 -0.1662423 0.60200006
-0.17314868 -0.1667946 0.60400003
-0.1726595 -0.16734689 0.60600001
-0.17103066 -0.1667946 0.60400003
-0.17053446 -0.16734689 0.60600001
-0.16947193 -0.16734689 0.60600001
-0.16840942 -0.16734689 0.60600001
-0.16762304 -0.16762304 0.60700005
-0.16683318 -0.16789921 0.60800004
-0.1654945 -0.16762304 0.60700005
-0.16443023 -0.16762304 0.60700005
-0.16309682 -0.16734689 0.60600001
-0.1620343 -0.16734689 0.60600001
-0.1612374 -0.16762304 0.60700005
-0.15964538 -0.16707075 0.60500002
-0.15910886 -0.16762304 0.60700005
-0.15778422 -0.16734689 0.60600001
-0.15698032 -0.16762304 0.60700005
-0.15565918 -0.16734689 0.60600001
-0.15485176 -0.16762304 0.60700005
-0.15378749 -0.16762304 0.60700005
-0.15247162 -0.16734689 0.60600001
-0.15115924 -0.16707075 0.60500002
-0.081486166 -0.14995383 0.55000001
-0.080521829 -0.14995383 0.55000001
-0.087481692 -0.24510635 0.89900005
-0.08590544 -0.24510635 0.89900005
-0.06095551 -0.24619693 0.90300006
-0.059240751 -0.24565165 0.90100002
-0.057660997 -0.24565165 0.90100002
-0.056019001 -0.245379 0.90000004
-0.054441001 -0.245379 0.90000004
-0.052862998 -0.245379 0.90000004
-0.051284999 -0.245379 0.90000004
-0.049706999 -0.245379 0.90000004
-0.048129 -0.245379 0.90000004
-0.04670617 -0.24619693 0.90300006
-0.044973001 -0.245379 0.90000004
-0.043443218 -0.24565165 0.90100002
-0.041863464 -0.24565165 0.90100002
-0.040373128 -0.24619693 0.90300006
-0.038789868 -0.24619693 0.90300006
-0.037165407 -0.24592428 0.90200007
-0.035583898 -0.24592428 0.90200007
-0.034153178 -0.24701487 0.90600002
-0.032564659 -0.24701487 0.90600002
-0.030907759 -0.24646957 0.90400004
-0.029387619 -0.24701487 0.90600002
-0.0277991 -0.24701487 0.90600002
-0.026268439 -0.24756014 0.90800005
-0.024757944 -0.24837807 0.91100007
-0.02310981 -0.24783279 0.90900004
-0.021539699 -0.24810544 0.91000003
-0.020009916 -0.24892336 0.91300005
-0.018409124 -0.24892336 0.91300005
-0.016808329 -0.24892336 0.91300005
-0.015207537 -0.24892336 0.91300005
-0.013606743 -0.24892336 0.91300005
-0.011966499 -0.24810544 0.91000003
-0.010370967 -0.24810544 0.91000003
-0.0087754335 -0.24810544 0.91000003
-0.0071720099 -0.24783279 0.90900004
-0.0058543799 -0.26010174 0.95400006
-0.0041597835 -0.25873852 0.94900006
-0.00249587 -0.25873852 0.94900006
-0.00083195668 -0.25873852 0.94900006
-0.198963 -0.16307577 0.60200006
-0.19757874 -0.16280489 0.60100001
-0.17920557 -0.16334666 0.60300004
-0.17814831 -0.16334666 0.60300004
-0.17709105 -0.16334666 0.60300004
-0.17603379 -0.16334666 0.60300004
-0.17497653 -0.16334666 0.60300004
-0.17391928 -0.16334666 0.60300004
-0.17286201 -0.16334666 0.60300004
-0.17180476 -0.16334666 0.60300004
-0.17103066 -0.16361757 0.60400003
-0.16997164 -0.16361757 0.60400003
-0.16919228 -0.16388845 0.60500002
-0.16868733 -0.16443023 0.60700005
-0.16734689 -0.16415934 0.60600001
-0.16628438 -0.16415934 0.60600001
-0.1654945 -0.16443023 0.60700005
-0.16443023 -0.16443023 0.60700005
-0.16336596 -0.16443023 0.60700005
-0.16176692 -0.16388845 0.60500002
-0.16097178 -0.16415934 0.60600001
-0.15990926 -0.16415934 0.60600001
-0.1583225 -0.16361757 0.60400003
-0.15726347 -0.16361757 0.60400003
-0.15568723 -0.16307577 0.60200006
-0.15437487 -0.16280489 0.60100001
-0.1533211 -0.16280489 0.60100001
-0.15226735 -0.16280489 0.60100001
-0.15071039 -0.16226311 0.59900004
-0.14966016 -0.16226311 0.59900004
-0.1483618 -0.16199222 0.59800005
-0.14682062 -0.16145045 0.59600002
-0.14577565 -0.16145045 0.59600002
-0.14448781 -0.16117954 0.59500003
-0.14344458 -0.16117954 0.59500003
-0.098664448 -0.14871861 0.54900002
-0.098057799 -0.14926039 0.551
-0.093396559 -0.14953128 0.55200005
-0.092428721 -0.14953128 0.55200005
-0.09162657 -0.14980216 0.55300003
-0.090984851 -0.15034395 0.55500001
-0.081338011 -0.14871861 0.54900002
-0.080375433 -0.14871861 0.54900002
-0.077487692 -0.14871861 0.54900002
-0.0766645 -0.1489895 0.55000001
-0.075700164 -0.1489895 0.55000001
-0.074735835 -0.1489895 0.55000001
-0.073771499 -0.1489895 0.55000001
-0.072542414 -0.14844772 0.54800004
-0.071450964 -0.14817683 0.54700005
-0.093995325 -0.24407189 0.90100002
-0.092415571 -0.24407189 0.90100002
-0.091037452 -0.24461366 0.90300006
-0.089355126 -0.24434277 0.90200007
-0.087676309 -0.24407189 0.90100002
-0.086096555 -0.24407189 0.90100002
-0.084329195 -0.24353011 0.89900005
-0.082568847 -0.24298833 0.89700001
-0.080996111 -0.24298833 0.89700001
-0.079511911 -0.24325922 0.89800006
-0.078024209 -0.24353011 0.89900005
-0.076447964 -0.24353011 0.89900005
-0.074871719 -0.24353011 0.89900005
-0.073295467 -0.24353011 0.89900005
-0.071719222 -0.24353011 0.89900005
-0.070142977 -0.24353011 0.89900005
-0.068566732 -0.24353011 0.89900005
-0.067139514 -0.24407189 0.90100002
-0.06555976 -0.24407189 0.90100002
-0.063980013 -0.24407189 0.90100002
-0.062469512 -0.24434277 0.90200007
-0.060888007 -0.24434277 0.90200007
-0.059240751 -0.24407189 0.90100002
-0.057597 -0.243801 0.90000004
-0.056019001 -0.243801 0.90000004
-0.054622471 -0.24461366 0.90300006
-0.053039208 -0.24461366 0.90300006
-0.051455949 -0.24461366 0.90300006
-0.049872689 -0.24461366 0.90300006
-0.048289429 -0.24461366 0.90300006
-0.04670617 -0.24461366 0.90300006
-0.04512291 -0.24461366 0.90300006
-0.043587867 -0.24488457 0.90400004
-0.042002853 -0.24488457 0.90400004
-0.040417839 -0.24488457 0.90400004
-0.038918741 -0.24542634 0.90600002
-0.037247814 -0.24488457 0.90400004
-0.0356628 -0.24488457 0.90400004
-0.034153178 -0.24542634 0.90600002
-0.032564659 -0.24542634 0.90600002
-0.030976139 -0.24542634 0.90600002
-0.029452493 -0.24596812 0.90800005
-0.027829783 -0.24569723 0.90700006
-0.026355229 -0.24678078 0.91100007
-0.024757944 -0.24678078 0.91100007
-0.02310981 -0.24623901 0.90900004
-0.021539699 -0.24650989 0.91000003
-0.020009916 -0.24732257 0.91300005
-0.018409124 -0.24732257 0.91300005
-0.016808329 -0.24732257 0.91300005
-0.015207537 -0.24732257 0.91300005
-0.013606743 -0.24732257 0.91300005
-0.011966499 -0.24650989 0.91000003
-0.010382364 -0.24678078 0.91100007
-0.0087754335 -0.24650989 0.91000003
-0.0074560498 -0.25599104 0.94500005
-0.0057930131 -0.25572017 0.94400007
-0.0041422499 -0.25599104 0.94500005
-0.00248535 -0.25599104 0.94500005
-0.00082845002 -0.25599104 0.94500005
-0.19863251 -0.16175114 0.60100001
-0.19790749 -0.16202027 0.60200006
-0.196852 -0.16202027 0.60200006
-0.19579649 -0.16202027 0.60200006
-0.194094 -0.16148201 0.60000002
-0.19272026 -0.16121286 0.59900004
-0.19167002 -0.16121286 0.59900004
-0.19061977 -0.16121286 0.59900004
-0.18956952 -0.16121286 0.59900004
-0.18820456 -0.16094373 0.59800005
-0.18746904 -0.16121286 0.59900004
-0.18673 -0.16148201 0.60000002
-0.18536854 -0.16121286 0.59900004
-0.18401058 -0.16094373 0.59800005
-0.18326804 -0.16121286 0.59900004
-0.182522 -0.16148201 0.60000002
-0.18146999 -0.16148201 0.60000002
-0.18071869 -0.16175114 0.60100001
-0.17936599 -0.16148201 0.60000002
-0.17920557 -0.16228941 0.60300004
-0.17814831 -0.16228941 0.60300004
-0.17679736 -0.16202027 0.60200006
-0.17603379 -0.16228941 0.60300004
-0.17497653 -0.16228941 0.60300004
-0.17363085 -0.16202027 0.60200006
-0.17257534 -0.16202027 0.60200006
-0.17151983 -0.16202027 0.60200006
-0.17046432 -0.16202027 0.60200006
-0.16969022 -0.16228941 0.60300004
-0.16891262 -0.16255854 0.60400003
-0.16785361 -0.16255854 0.60400003
-0.16651845 -0.16228941 0.60300004
-0.16573559 -0.16255854 0.60400003
-0.16467658 -0.16255854 0.60400003
-0.16388845 -0.16282769 0.60500002
-0.16282769 -0.16282769 0.60500002
-0.16123214 -0.16228941 0.60300004
-0.15990926 -0.16202027 0.60200006
-0.15858987 -0.16175114 0.60100001
-0.15727399 -0.16148201 0.60000002
-0.15596163 -0.16121286 0.59900004
-0.15465276 -0.16094373 0.59800005
-0.15386114 -0.16121286 0.59900004
-0.15281089 -0.16121286 0.59900004
-0.15150729 -0.16094373 0.59800005
-0.15020719 -0.16067459 0.597
-0.14916044 -0.16067459 0.597
-0.14811371 -0.16067459 0.597
-0.14682062 -0.16040546 0.59600002
-0.14553104 -0.16013631 0.59500003
-0.14424498 -0.15986718 0.59400004
-0.1432035 -0.15986718 0.59400004
-0.14216202 -0.15986718 0.59400004
-0.14088297 -0.15959804 0.59300005
-0.13913576 -0.15879063 0.59000003
-0.13786723 -0.15852149 0.58900005
-0.13683452 -0.15852149 0.58900005
-0.13580181 -0.15852149 0.58900005
-0.13454027 -0.15825236 0.588
-0.13350932 -0.15825236 0.588
-0.099203601 -0.14856344 0.55200005
-0.098235756 -0.14856344 0.55200005
-0.097444132 -0.14883257 0.55300003
-0.096648991 -0.14910172 0.55400002
-0.095677644 -0.14910172 0.55400002
-0.094706297 -0.14910172 0.55400002
-0.093396559 -0.14856344 0.55200005
-0.092428721 -0.14856344 0.55200005
-0.091460876 -0.14856344 0.55200005
-0.090820916 -0.14910172 0.55400002
-0.089363016 -0.1482943 0.551
-0.088396929 -0.1482943 0.551
-0.082656518 -0.14667948 0.54500002
-0.081700951 -0.14667948 0.54500002
-0.081041694 -0.14721775 0.54700005
-0.080229029 -0.1474869 0.54800004
-0.079268202 -0.1474869 0.54800004
-0.078164473 -0.14721775 0.54700005
-0.077346548 -0.1474869 0.54800004
-0.076525107 -0.14775603 0.54900002
-0.075562529 -0.14775603 0.54900002
-0.074735835 -0.14802517 0.55000001
-0.073637366 -0.14775603 0.54900002
