# .PCD v0.7 - Point Cloud Data file format
VERSION 0.7
FIELDS x y z
SIZE 4 4 4
TYPE F F F
COUNT 1 1 1
WIDTH 664
HEIGHT 1
VIEWPOINT 0 0 0 1 0 0 0
POINTS 664
DATA ascii
-0.22248572 0.14845648 0.45400003
-0.22168972 0.14845648 0.45400003
0.00353472 0.14649451 0.44800001
-0.22248572 0.1492525 0.45400003
-0.22168972 0.1492525 0.45400003
-0.19737361 0.14892375 0.45300001
-0.19657935 0.14892375 0.45300001
-0.19578509 0.14892375 0.45300001
-0.19499083 0.14892375 0.45300001
-0.18387119 0.14892375 0.45300001
-0.16999269 0.14859501 0.45200002
-0.13877721 0.14826626 0.45100003
-0.13829242 0.14859501 0.45200002
-0.1374999 0.14859501 0.45200002
-0.0641606 0.14760874 0.44900003
-0.063514501 0.14793751 0.45000002
0.00353472 0.14727999 0.44800001
-0.21213755 0.15004851 0.45400003
-0.18387119 0.14971802 0.45300001
-0.18069415 0.14971802 0.45300001
-0.0641606 0.148396 0.44900003
-0.063232213 0.14806549 0.44800001
-0.062446721 0.14806549 0.44800001
0.00353472 0.14806549 0.44800001
0.0098186666 0.14806549 0.44800001
0.01060416 0.14806549 0.44800001
0.01296064 0.14806549 0.44800001
0.013684766 0.14740449 0.44600001
-0.22856015 0.15117678 0.45500001
-0.2033814 0.15084453 0.45400003
-0.2025854 0.15084453 0.45400003
-0.14066993 0.15018001 0.45200002
-0.13987742 0.15018001 0.45200002
-0.1367074 0.15018001 0.45200002
-0.13591489 0.15018001 0.45200002
-0.11110085 0.14984776 0.45100003
-0.099239543 0.14984776 0.45100003
-0.096867286 0.14984776 0.45100003
-0.096076526 0.14984776 0.45100003
-0.080872498 0.14951549 0.45000002
-0.080083497 0.14951549 0.45000002
0.0043202131 0.14885099 0.44800001
0.0051057069 0.14885099 0.44800001
0.0058912002 0.14885099 0.44800001
0.01060416 0.14885099 0.44800001
0.01136423 0.14851873 0.44700003
0.01214797 0.14851873 0.44700003
0.01371545 0.14851873 0.44700003
0.12444722 0.14785421 0.44500002
-0.23653781 0.15197454 0.45500001
-0.23574005 0.15197454 0.45500001
-0.22935791 0.15197454 0.45500001
-0.21818918 0.15197454 0.45500001
-0.21739142 0.15197454 0.45500001
-0.13987742 0.15097252 0.45200002
-0.11505461 0.15063851 0.45100003
-0.11426385 0.15063851 0.45100003
-0.1118916 0.15063851 0.45100003
-0.11110085 0.15063851 0.45100003
-0.10872858 0.15063851 0.45100003
-0.10793783 0.15063851 0.45100003
-0.10477482 0.15063851 0.45100003
-0.10398407 0.15063851 0.45100003
-0.1000303 0.15063851 0.45100003
-0.099239543 0.15063851 0.45100003
-0.086395502 0.1503045 0.45000002
-0.085606501 0.1503045 0.45000002
-0.084817499 0.1503045 0.45000002
-0.084028497 0.1503045 0.45000002
-0.080083497 0.1503045 0.45000002
-0.061936501 0.1503045 0.45000002
-0.035819724 0.14997049 0.44900003
-0.035032477 0.14997049 0.44900003
-0.03424523 0.14997049 0.44900003
0.0019637332 0.14963648 0.44800001
0.0027492268 0.14963648 0.44800001
0.00353472 0.14963648 0.44800001
0.0043202131 0.14963648 0.44800001
0.0051057069 0.14963648 0.44800001
0.0090130102 0.14930247 0.44700003
0.0098186666 0.14963648 0.44800001
0.01060416 0.14963648 0.44800001
0.011389653 0.14963648 0.44800001
0.012175146 0.14963648 0.44800001
0.01371545 0.14930247 0.44700003
0.01449919 0.14930247 0.44700003
0.01531712 0.14963648 0.44800001
0.091883436 0.14896846 0.44600001
0.095011376 0.14896846 0.44600001
0.095793366 0.14896846 0.44600001
0.09657535 0.14896846 0.44600001
0.09735734 0.14896846 0.44600001
0.11534391 0.14796643 0.44300002
0.12288675 0.14863445 0.44500002
0.12366698 0.14863445 0.44500002
0.1238879 0.14796643 0.44300002
0.12522745 0.14863445 0.44500002
0.12600768 0.14863445 0.44500002
-0.23972888 0.15277232 0.45500001
-0.23893112 0.15277232 0.45500001
-0.23813334 0.15277232 0.45500001
-0.23574005 0.15277232 0.45500001
-0.23494229 0.15277232 0.45500001
-0.23465912 0.15310808 0.45600003
-0.23334675 0.15277232 0.45500001
-0.23254898 0.15277232 0.45500001
-0.23226056 0.15310808 0.45600003
-0.21978472 0.15277232 0.45500001
-0.21898694 0.15277232 0.45500001
-0.21579587 0.15277232 0.45500001
-0.21180704 0.15277232 0.45500001
-0.20781821 0.15277232 0.45500001
-0.10240255 0.15142927 0.45100003
-0.078505501 0.1510935 0.45000002
-0.0666705 0.1510935 0.45000002
-0.037394218 0.15075773 0.44900003
-0.035032477 0.15075773 0.44900003
-0.03424523 0.15075773 0.44900003
-0.032670736 0.15075773 0.44900003
-0.031883489 0.15075773 0.44900003
-0.031096242 0.15075773 0.44900003
-0.030308997 0.15075773 0.44900003
-0.02952175 0.15075773 0.44900003
-0.028734503 0.15075773 0.44900003
-0.027947256 0.15075773 0.44900003
-0.027160009 0.15075773 0.44900003
-0.025585517 0.15075773 0.44900003
-0.02479827 0.15075773 0.44900003
-0.012175146 0.15042198 0.44800001
-0.011389653 0.15042198 0.44800001
0.0019637332 0.15042198 0.44800001
0.00274309 0.15008621 0.44700003
0.0035268299 0.15008621 0.44700003
0.0097967498 0.15008621 0.44700003
0.01060416 0.15042198 0.44800001
0.011389653 0.15042198 0.44800001
0.012175146 0.15042198 0.44800001
0.01371545 0.15008621 0.44700003
0.01449919 0.15008621 0.44700003
0.01531712 0.15042198 0.44800001
0.016102614 0.15042198 0.44800001
0.0176736 0.15042198 0.44800001
0.034798406 0.14975044 0.44600001
0.035580393 0.14975044 0.44600001
0.092665419 0.14975044 0.44600001
0.095011376 0.14975044 0.44600001
0.095578581 0.14941469 0.44500002
0.096142277 0.14907892 0.44400004
0.096920758 0.14907892 0.44400004
0.097919285 0.14941469 0.44500002
0.098921314 0.14975044 0.44600001
0.10048529 0.14975044 0.44600001
0.10104021 0.14941469 0.44500002
0.10361324 0.14975044 0.44600001
0.10439522 0.14975044 0.44600001
0.10595919 0.14975044 0.44600001
0.10674118 0.14975044 0.44600001
0.11196348 0.14941469 0.44500002
0.11274371 0.14941469 0.44500002
0.11352395 0.14941469 0.44500002
0.11379045 0.14874315 0.44300002
0.11456718 0.14874315 0.44300002
0.11534391 0.14874315 0.44300002
0.11976582 0.14941469 0.44500002
0.12132628 0.14941469 0.44500002
0.12210651 0.14941469 0.44500002
0.1226106 0.14907892 0.44400004
0.12444722 0.14941469 0.44500002
0.12494604 0.14907892 0.44400004
0.12572452 0.14907892 0.44400004
0.12728147 0.14907892 0.44400004
0.12805995 0.14907892 0.44400004
0.13195236 0.14907892 0.44400004
0.13273084 0.14907892 0.44400004
0.13320862 0.14874315 0.44300002
0.1342878 0.14907892 0.44400004
0.13506629 0.14907892 0.44400004
0.13584475 0.14907892 0.44400004
0.13709226 0.14874315 0.44300002
0.13755776 0.1484074 0.44200003
0.13864571 0.14874315 0.44300002
0.13910772 0.1484074 0.44200003
0.13988268 0.1484074 0.44200003
0.17320654 0.1484074 0.44200003
0.17358789 0.14807163 0.44100001
0.17396574 0.14773586 0.44000003
0.17434007 0.1474001 0.43900001
0.17510979 0.1474001 0.43900001
0.17668077 0.14807163 0.44100001
0.18905228 0.14807163 0.44100001
-0.23813334 0.15357009 0.45500001
-0.23733558 0.15357009 0.45500001
-0.23414451 0.15357009 0.45500001
-0.2338596 0.1539076 0.45600003
-0.22138025 0.15357009 0.45500001
-0.22058249 0.15357009 0.45500001
-0.22026776 0.1539076 0.45600003
-0.21180704 0.15357009 0.45500001
-0.20861599 0.15357009 0.45500001
-0.20781821 0.15357009 0.45500001
-0.025585517 0.15154499 0.44900003
-0.02479827 0.15154499 0.44900003
-0.01531712 0.15120746 0.44800001
0.0011782399 0.15120746 0.44800001
0.0019637332 0.15120746 0.44800001
0.0027492268 0.15120746 0.44800001
0.0097967498 0.15086995 0.44700003
0.01060416 0.15120746 0.44800001
0.011389653 0.15120746 0.44800001
0.012175146 0.15120746 0.44800001
0.01371545 0.15086995 0.44700003
0.01449919 0.15086995 0.44700003
0.01528293 0.15086995 0.44700003
0.01606667 0.15086995 0.44700003
0.016888106 0.15120746 0.44800001
0.0176736 0.15120746 0.44800001
0.033308949 0.15086995 0.44700003
0.034016419 0.15053244 0.44600001
0.034876429 0.15086995 0.44700003
0.03566017 0.15086995 0.44700003
0.038795128 0.15086995 0.44700003
0.092665419 0.15053244 0.44600001
0.094229393 0.15053244 0.44600001
0.095011376 0.15053244 0.44600001
0.095363796 0.1498574 0.44400004
0.10104021 0.15019491 0.44500002
0.10204926 0.15053244 0.44600001
0.10361324 0.15053244 0.44600001
0.10416115 0.15019491 0.44500002
0.10494138 0.15019491 0.44500002
0.10572162 0.15019491 0.44500002
0.10650185 0.15019491 0.44500002
0.10806232 0.15019491 0.44500002
0.10884255 0.15019491 0.44500002
0.10962278 0.15019491 0.44500002
0.11040302 0.15019491 0.44500002
0.11118325 0.15019491 0.44500002
0.11196348 0.15019491 0.44500002
0.11326884 0.1498574 0.44400004
0.11353359 0.14918236 0.44200003
0.11430857 0.14918236 0.44200003
0.12054605 0.15019491 0.44500002
0.12132628 0.15019491 0.44500002
0.12210651 0.15019491 0.44500002
0.1226106 0.1498574 0.44400004
0.12444722 0.15019491 0.44500002
0.12466463 0.14951988 0.44300002
0.12544136 0.14951988 0.44300002
0.12621808 0.14951988 0.44300002
0.1269948 0.14951988 0.44300002
0.12805995 0.1498574 0.44400004
0.1303954 0.1498574 0.44400004
0.13117388 0.1498574 0.44400004
0.13368289 0.14918236 0.44200003
0.13415366 0.14884485 0.44100001
0.13584475 0.1498574 0.44400004
0.13631552 0.14951988 0.44300002
0.13709226 0.14951988 0.44300002
0.13724655 0.14884485 0.44100001
0.13801977 0.14884485 0.44100001
0.13910772 0.14918236 0.44200003
0.13988268 0.14918236 0.44200003
0.14065766 0.14918236 0.44200003
0.14143263 0.14918236 0.44200003
0.14252934 0.14951988 0.44300002
0.14362957 0.1498574 0.44400004
0.14453253 0.14918236 0.44200003
0.1453075 0.14918236 0.44200003
0.15615712 0.14918236 0.44200003
0.1569321 0.14918236 0.44200003
0.17320654 0.14918236 0.44200003
0.17358789 0.14884485 0.44100001
0.17396574 0.14850733 0.44000003
0.17434007 0.14816982 0.43900001
0.17510979 0.14816982 0.43900001
0.17628013 0.14850733 0.44000003
0.17664921 0.14816982 0.43900001
0.17741892 0.14816982 0.43900001
0.17818864 0.14816982 0.43900001
0.18982551 0.14884485 0.44100001
-0.23893112 0.15436785 0.45500001
-0.23813334 0.15436785 0.45500001
-0.23733558 0.15436785 0.45500001
-0.23414451 0.15436785 0.45500001
-0.23334675 0.15436785 0.45500001
-0.056413498 0.1526715 0.45000002
-0.053257499 0.1526715 0.45000002
-0.016138557 0.15233223 0.44900003
-0.0011782399 0.15199296 0.44800001
-0.00039274668 0.15199296 0.44800001
0.01060416 0.15199296 0.44800001
0.011389653 0.15199296 0.44800001
0.012175146 0.15199296 0.44800001
0.01296064 0.15199296 0.44800001
0.014531626 0.15199296 0.44800001
0.016888106 0.15199296 0.44800001
0.0176736 0.15199296 0.44800001
0.033308949 0.15165369 0.44700003
0.034092691 0.15165369 0.44700003
0.034876429 0.15165369 0.44700003
0.03957887 0.15165369 0.44700003
0.04976749 0.15165369 0.44700003
0.059039991 0.15131442 0.44600001
0.059821978 0.15131442 0.44600001
0.060603965 0.15131442 0.44600001
0.063731916 0.15131442 0.44600001
0.064513899 0.15131442 0.44600001
0.065149486 0.15097515 0.44500002
0.066077873 0.15131442 0.44600001
0.072333768 0.15131442 0.44600001
0.076243699 0.15131442 0.44600001
0.077807672 0.15131442 0.44600001
0.086409524 0.15131442 0.44600001
0.087191515 0.15131442 0.44600001
0.087973498 0.15131442 0.44600001
0.089537472 0.15131442 0.44600001
0.090319462 0.15131442 0.44600001
0.091101445 0.15131442 0.44600001
0.091883436 0.15131442 0.44600001
0.092665419 0.15131442 0.44600001
0.09344741 0.15131442 0.44600001
0.094229393 0.15131442 0.44600001
0.094798349 0.15097515 0.44500002
0.095363796 0.15063588 0.44400004
0.10338092 0.15097515 0.44500002
0.10416115 0.15097515 0.44500002
0.10470556 0.15063588 0.44400004
0.10548404 0.15063588 0.44400004
0.10626252 0.15063588 0.44400004
0.10806232 0.15097515 0.44500002
0.10884255 0.15097515 0.44500002
0.10962278 0.15097515 0.44500002
0.11118325 0.15097515 0.44500002
0.11196348 0.15097515 0.44500002
0.11274371 0.15097515 0.44500002
0.11326884 0.15063588 0.44400004
0.11456718 0.15029661 0.44300002
0.11534391 0.15029661 0.44300002
0.11612064 0.15029661 0.44300002
0.12210651 0.15097515 0.44500002
0.1226106 0.15063588 0.44400004
0.12366698 0.15097515 0.44500002
0.1238879 0.15029661 0.44300002
0.12438322 0.14995734 0.44200003
0.12515819 0.14995734 0.44200003
0.12593317 0.14995734 0.44200003
0.12670814 0.14995734 0.44200003
0.12777154 0.15029661 0.44300002
0.12883843 0.15063588 0.44400004
0.12961692 0.15063588 0.44400004
0.1303954 0.15063588 0.44400004
0.13117388 0.15063588 0.44400004
0.13165517 0.15029661 0.44300002
0.13213295 0.14995734 0.44200003
0.13570011 0.14961807 0.44100001
0.13647333 0.14961807 0.44100001
0.13801977 0.14961807 0.44100001
0.13910772 0.14995734 0.44200003
0.13988268 0.14995734 0.44200003
0.14097589 0.15029661 0.44300002
0.14111266 0.14961807 0.44100001
0.14188586 0.14961807 0.44100001
0.14330608 0.15029661 0.44300002
0.14453253 0.14995734 0.44200003
0.1453075 0.14995734 0.44200003
0.14542146 0.1492788 0.44000003
0.14619294 0.1492788 0.44000003
0.14729841 0.14961807 0.44100001
0.1484074 0.14995734 0.44200003
0.14918236 0.14995734 0.44200003
0.15029661 0.15029661 0.44300002
0.15073231 0.14995734 0.44200003
0.15150729 0.14995734 0.44200003
0.15193772 0.14961807 0.44100001
0.15340352 0.15029661 0.44300002
0.15495697 0.15029661 0.44300002
0.15538216 0.14995734 0.44200003
0.15615712 0.14995734 0.44200003
0.1569321 0.14995734 0.44200003
0.15770707 0.14995734 0.44200003
0.15848204 0.14995734 0.44200003
0.15889671 0.14961807 0.44100001
0.15966994 0.14961807 0.44100001
0.16080697 0.14995734 0.44200003
0.16158193 0.14995734 0.44200003
0.17475648 0.14995734 0.44200003
0.17513433 0.14961807 0.44100001
0.17510979 0.14893954 0.43900001
0.17587949 0.14893954 0.43900001
0.17624682 0.14860027 0.43800002
0.17701478 0.14860027 0.43800002
0.17778274 0.14860027 0.43800002
0.17895834 0.14893954 0.43900001
0.18013747 0.1492788 0.44000003
0.18132009 0.14961807 0.44100001
0.18250622 0.14995734 0.44200003
0.18982551 0.14961807 0.44100001
0.19059873 0.14961807 0.44100001
0.19137195 0.14961807 0.44100001
0.19214517 0.14961807 0.44100001
-0.23733558 0.15516561 0.45500001
-0.23653781 0.15516561 0.45500001
-0.23465912 0.15550664 0.45600003
0.016888106 0.15277845 0.44800001
0.0176736 0.15277845 0.44800001
0.018459093 0.15277845 0.44800001
0.020030079 0.15277845 0.44800001
0.020815574 0.15277845 0.44800001
0.023172053 0.15277845 0.44800001
0.023957547 0.15277845 0.44800001
0.024743039 0.15277845 0.44800001
0.025528533 0.15277845 0.44800001
0.034092691 0.15243743 0.44700003
0.034876429 0.15243743 0.44700003
0.040362611 0.15243743 0.44700003
0.041146349 0.15243743 0.44700003
0.041930091 0.15243743 0.44700003
0.042713828 0.15243743 0.44700003
0.04349757 0.15243743 0.44700003
0.045848791 0.15243743 0.44700003
0.048200011 0.15243743 0.44700003
0.048983749 0.15243743 0.44700003
0.050551228 0.15243743 0.44700003
0.052118711 0.15243743 0.44700003
0.066859856 0.15209641 0.44600001
0.067641847 0.15209641 0.44600001
0.070769794 0.15209641 0.44600001
0.071551777 0.15209641 0.44600001
0.074679725 0.15209641 0.44600001
0.075461715 0.15209641 0.44600001
0.076243699 0.15209641 0.44600001
0.076852985 0.15175538 0.44500002
0.077807672 0.15209641 0.44600001
0.083281577 0.15209641 0.44600001
0.084063567 0.15209641 0.44600001
0.084655315 0.15175538 0.44500002
0.085435547 0.15175538 0.44500002
0.086215779 0.15175538 0.44500002
0.087776251 0.15175538 0.44500002
0.088755488 0.15209641 0.44600001
0.090319462 0.15209641 0.44600001
0.09089718 0.15175538 0.44500002
0.091883436 0.15209641 0.44600001
0.092665419 0.15209641 0.44600001
0.09344741 0.15209641 0.44600001
0.094229393 0.15209641 0.44600001
0.094798349 0.15175538 0.44500002
0.1031486 0.15141436 0.44400004
0.10392708 0.15141436 0.44400004
0.10781948 0.15141436 0.44400004
0.10859796 0.15141436 0.44400004
0.10937644 0.15141436 0.44400004
0.11040302 0.15175538 0.44500002
0.1109334 0.15141436 0.44400004
0.11171188 0.15141436 0.44400004
0.11249036 0.15141436 0.44400004
0.11456718 0.15107334 0.44300002
0.12288675 0.15175538 0.44500002
0.12338908 0.15141436 0.44400004
0.12515819 0.15073231 0.44200003
0.12593317 0.15073231 0.44200003
0.12670814 0.15073231 0.44200003
0.12777154 0.15107334 0.44300002
0.12854826 0.15107334 0.44300002
0.13117388 0.15141436 0.44400004
0.14111266 0.1503913 0.44100001
0.14188586 0.1503913 0.44100001
0.14330608 0.15107334 0.44300002
0.1434323 0.1503913 0.44100001
0.14807163 0.1503913 0.44100001
0.14884485 0.1503913 0.44100001
0.14995734 0.15073231 0.44200003
0.1503913 0.1503913 0.44100001
0.15150729 0.15073231 0.44200003
0.15193772 0.1503913 0.44100001
0.15271094 0.1503913 0.44100001
0.15383221 0.15073231 0.44200003
0.15425739 0.1503913 0.44100001
0.15503061 0.1503913 0.44100001
0.15580383 0.1503913 0.44100001
0.15657705 0.1503913 0.44100001
0.15735027 0.1503913 0.44100001
0.15812349 0.1503913 0.44100001
0.15889671 0.1503913 0.44100001
0.15966994 0.1503913 0.44100001
0.16080697 0.15073231 0.44200003
0.16158193 0.15073231 0.44200003
0.16198958 0.1503913 0.44100001
0.16239373 0.15005027 0.44000003
0.1631652 0.15005027 0.44000003
0.1631915 0.14936821 0.43800002
0.16395946 0.14936821 0.43800002
0.16510351 0.14970924 0.43900001
0.16662891 0.1503913 0.44100001
0.16816132 0.15107334 0.44300002
0.16893806 0.15107334 0.44300002
0.17475648 0.15073231 0.44200003
0.17513433 0.1503913 0.44100001
0.17510979 0.14970924 0.43900001
0.17587949 0.14970924 0.43900001
0.17584443 0.1490272 0.43700001
0.17661063 0.1490272 0.43700001
0.17737684 0.1490272 0.43700001
0.17814305 0.1490272 0.43700001
0.18054686 0.1503913 0.44100001
0.18173124 0.15073231 0.44200003
0.18250622 0.15073231 0.44200003
0.18441297 0.1503913 0.44100001
0.19059873 0.1503913 0.44100001
0.19137195 0.1503913 0.44100001
0.19214517 0.1503913 0.44100001
0.19291839 0.1503913 0.44100001
0.19281319 0.14970924 0.43900001
0.19601128 0.1503913 0.44100001
-0.23653781 0.15596338 0.45500001
-0.23625816 0.15630616 0.45600003
-0.011415076 0.15390672 0.44900003
-0.0098405834 0.15390672 0.44900003
0.020030079 0.15356395 0.44800001
0.026314026 0.15356395 0.44800001
0.02709952 0.15356395 0.44800001
0.040362611 0.15322118 0.44700003
0.05368619 0.15322118 0.44700003
0.06842383 0.15287839 0.44600001
0.079371646 0.15287839 0.44600001
0.080153629 0.15287839 0.44600001
0.08093562 0.15287839 0.44600001
0.083281577 0.15287839 0.44600001
0.084063567 0.15287839 0.44600001
0.090116948 0.15253562 0.44500002
0.09089718 0.15253562 0.44500002
0.091883436 0.15287839 0.44600001
0.092665419 0.15287839 0.44600001
0.09344741 0.15287839 0.44600001
0.094018117 0.15253562 0.44500002
0.094798349 0.15253562 0.44500002
0.095578581 0.15253562 0.44500002
0.11015492 0.15219285 0.44400004
0.11249036 0.15219285 0.44400004
0.1226106 0.15219285 0.44400004
0.12311117 0.15185006 0.44300002
0.1503913 0.1511645 0.44100001
0.15150729 0.15150729 0.44200003
0.15271094 0.1511645 0.44100001
0.15889671 0.1511645 0.44100001
0.15930787 0.15082173 0.44000003
0.16044314 0.1511645 0.44100001
0.16158193 0.15150729 0.44200003
0.16198958 0.1511645 0.44100001
0.16276281 0.1511645 0.44100001
0.16353603 0.1511645 0.44100001
0.16433379 0.15047896 0.43900001
0.1654796 0.15082173 0.44000003
0.16662891 0.1511645 0.44100001
0.16778173 0.15150729 0.44200003
0.16855671 0.15150729 0.44200003
0.16894858 0.1511645 0.44100001
0.1704915 0.15185006 0.44300002
0.17359841 0.15185006 0.44300002
0.17475648 0.15150729 0.44200003
0.1747372 0.15082173 0.44000003
0.17510979 0.15047896 0.43900001
0.17547886 0.15013617 0.43800002
0.17584443 0.1497934 0.43700001
0.17661063 0.1497934 0.43700001
0.17737684 0.1497934 0.43700001
0.1777354 0.14945063 0.43600002
0.17931865 0.15013617 0.43800002
0.18090893 0.15082173 0.44000003
0.18209331 0.1511645 0.44100001
0.18286653 0.1511645 0.44100001
0.18363975 0.1511645 0.44100001
0.18441297 0.1511645 0.44100001
0.18982551 0.1511645 0.44100001
0.19059873 0.1511645 0.44100001
0.190938 0.15082173 0.44000003
0.19170946 0.15082173 0.44000003
0.19248094 0.15082173 0.44000003
0.19281319 0.15047896 0.43900001
0.19523805 0.1511645 0.44100001
0.1955668 0.15082173 0.44000003
0.19678448 0.1511645 0.44100001
0.1975577 0.1511645 0.44100001
0.19788119 0.15082173 0.44000003
0.19865267 0.15082173 0.44000003
0.028670507 0.15434945 0.44800001
0.029455999 0.15434945 0.44800001
0.08093562 0.15366037 0.44600001
0.081717603 0.15366037 0.44600001
0.082499593 0.15366037 0.44600001
0.15073231 0.15228225 0.44200003
0.15150729 0.15228225 0.44200003
0.15340352 0.15262678 0.44300002
0.16121636 0.15193772 0.44100001
0.16585569 0.15193772 0.44100001
0.16625106 0.15159319 0.44000003
0.16740213 0.15193772 0.44100001
0.16817535 0.15193772 0.44100001
0.16972178 0.15193772 0.44100001
0.17088161 0.15228225 0.44200003
0.17320654 0.15228225 0.44200003
0.17398152 0.15228225 0.44200003
0.17396574 0.15159319 0.44000003
0.17434007 0.15124866 0.43900001
0.17701478 0.15090413 0.43800002
0.18008661 0.15090413 0.43800002
0.18085457 0.15090413 0.43800002
0.18162253 0.15090413 0.43800002
0.18280691 0.15124866 0.43900001
0.1839948 0.15159319 0.44000003
0.18518619 0.15193772 0.44100001
0.18595941 0.15193772 0.44100001
0.19025595 0.15228225 0.44200003
0.19103092 0.15228225 0.44200003
0.19137195 0.15193772 0.44100001
0.19214517 0.15193772 0.44100001
0.19204347 0.15124866 0.43900001
0.19281319 0.15124866 0.43900001
0.19358291 0.15124866 0.43900001
0.1939099 0.15090413 0.43800002
0.19423339 0.1505596 0.43700001
0.19678448 0.15193772 0.44100001
0.19666176 0.15124866 0.43900001
0.19743147 0.15124866 0.43900001
0.19820118 0.15124866 0.43900001
0.16972178 0.15271094 0.44100001
0.170495 0.15271094 0.44100001
0.17359841 0.15340352 0.44300002
0.17358789 0.15271094 0.44100001
0.17396574 0.15236467 0.44000003
0.18434635 0.15201838 0.43900001
0.18595941 0.15271094 0.44100001
0.18673263 0.15271094 0.44100001
0.18750586 0.15271094 0.44100001
0.18870601 0.15305723 0.44200003
0.18948098 0.15305723 0.44200003
0.19025595 0.15305723 0.44200003
0.19059873 0.15271094 0.44100001
0.1918059 0.15305723 0.44200003
0.19214517 0.15271094 0.44100001
0.19204347 0.15201838 0.43900001
0.19281319 0.15201838 0.43900001
0.19314194 0.1516721 0.43800002
0.19633827 0.15236467 0.44000003
0.19621378 0.1516721 0.43800002
0.19743147 0.15201838 0.43900001
0.19820118 0.15201838 0.43900001
0.1989709 0.15201838 0.43900001
0.1997406 0.15201838 0.43900001
0.20096706 0.15236467 0.44000003
0.17398152 0.15383221 0.44200003
0.18553773 0.15313613 0.44000003
0.1863092 0.15313613 0.44000003
0.18708067 0.15313613 0.44000003
0.18870601 0.15383221 0.44200003
0.18948098 0.15383221 0.44200003
0.18982551 0.15348417 0.44100001
0.19016653 0.15313613 0.44000003
0.190938 0.15313613 0.44000003
0.19170946 0.15313613 0.44000003
0.19633827 0.15313613 0.44000003
0.2001956 0.15313613 0.44000003
0.20142381 0.15348417 0.44100001
0.18905228 0.15425739 0.44100001
