# .PCD v0.7 - Point Cloud Data file format
VERSION 0.7
FIELDS x y z
SIZE 4 4 4
TYPE F F F
COUNT 1 1 1
WIDTH 1559
HEIGHT 1
VIEWPOINT 0 0 0 1 0 0 0
POINTS 1559
DATA ascii
1.2247682 -1.0713726 2.7340002
1.2273132 -1.0694132 2.7290001
1.2316465 -1.0690213 2.7280002
1.2269117 -1.0607921 2.707
1.231203 -1.0604002 2.7060001
1.2377744 -1.0619677 2.71
1.2425259 -1.0619677 2.71
1.2454365 -1.0604002 2.7060001
1.250181 -1.0604002 2.7060001
1.2646644 -1.0686295 2.7270002
1.2713078 -1.070197 2.7310002
1.2760961 -1.070197 2.7310002
1.2710352 -1.0619677 2.71
1.2654297 -1.0533465 2.6880002
1.2701427 -1.0533465 2.6880002
1.2653701 -1.0455091 2.6680002
1.270048 -1.0455091 2.6680002
1.2704259 -1.0419823 2.6590002
1.2602223 -1.0298344 2.628
1.2686805 -1.0329694 2.6360002
1.2733022 -1.0329694 2.6360002
1.2662889 -1.0235645 2.6120002
1.2616241 -1.0161189 2.5930002
1.2661705 -1.0161189 2.5930002
1.2707169 -1.0161189 2.5930002
1.265919 -1.0086734 2.5740001
1.270432 -1.0086734 2.5740001
1.265534 -1.0012279 2.5550001
0.62207037 -1.2413512 3.1820002
0.62725502 -1.240571 3.1800001
0.63283062 -1.240571 3.1800001
0.63840622 -1.240571 3.1800001
0.65127218 -1.2546152 3.2160001
0.65588957 -1.2526646 3.2110002
0.66254961 -1.2546152 3.2160001
0.66340959 -1.2456425 3.1930001
0.66963655 -1.2468128 3.1960001
0.67545152 -1.247203 3.1970003
0.68382627 -1.2522745 3.21
0.69138753 -1.2557856 3.2190001
0.69638193 -1.2546152 3.2160001
0.71031564 -1.2694396 3.2540002
0.716021 -1.2694396 3.2540002
0.72549689 -1.2760717 3.2710001
0.73123205 -1.2760717 3.2710001
0.73065871 -1.2651484 3.2430003
0.73566359 -1.263978 3.2400002
0.7397427 -1.2612472 3.233
0.74471956 -1.2600769 3.2300003
0.75038284 -1.2600769 3.2300003
0.74715143 -1.2452524 3.1920002
0.75274807 -1.2452524 3.1920002
0.76428413 -1.2550054 3.2170002
0.7763865 -1.2655385 3.2440002
0.78110999 -1.263978 3.2400002
1.2228711 -1.0993488 2.8180001
1.2173551 -1.089986 2.7940001
1.2244412 -1.0919366 2.799
1.2306664 -1.0931069 2.802
1.22676 -1.0853046 2.7820001
1.2272106 -1.0814034 2.7720001
1.2258482 -1.0759418 2.7580001
1.2204208 -1.066969 2.7350001
1.2256641 -1.0673592 2.7360001
1.2282126 -1.0654086 2.7310002
1.2325495 -1.0650185 2.73
1.2278181 -1.056826 2.7090001
1.2321129 -1.0564359 2.7080002
1.2487363 -1.066579 2.7340002
1.2535299 -1.066579 2.7340002
1.2491184 -1.0587766 2.7140002
1.253877 -1.0587766 2.7140002
1.2669832 -1.0657988 2.7320001
1.2731699 -1.066969 2.7350001
1.2760961 -1.0654086 2.7310002
1.2677521 -1.0544853 2.7030001
1.2626052 -1.0462929 2.6820002
1.2682526 -1.0470731 2.684
1.2653701 -1.0408312 2.6680002
1.270048 -1.0408312 2.6680002
1.2608702 -1.0295179 2.6390002
1.255427 -1.0213255 2.618
1.2648301 -1.0252266 2.628
1.2694379 -1.0252266 2.628
1.2682281 -1.0205452 2.6160002
1.2635703 -1.0131329 2.5970001
1.2671472 -1.0123527 2.595
1.271697 -1.0123527 2.595
1.2703452 -1.0076714 2.5830002
1.2748741 -1.0076714 2.5830002
1.2704872 -1.0006492 2.5650001
0.62226588 -1.2361605 3.1830001
0.62843847 -1.2373255 3.1860001
0.63402462 -1.2373255 3.1860001
0.63820547 -1.234607 3.1790001
0.64580441 -1.2384907 3.1890001
0.65588957 -1.2470347 3.2110002
0.66048944 -1.2450929 3.2060001
0.65966976 -1.2330536 3.1750002
0.66565561 -1.2338303 3.177
0.67355001 -1.2381023 3.1880002
0.68403935 -1.2470347 3.2110002
0.69503886 -1.2567438 3.2360001
0.70071262 -1.2567438 3.2360001
0.71097052 -1.2648994 3.2570002
0.7175613 -1.2664528 3.2610002
0.72549689 -1.2703365 3.2710001
0.73123205 -1.2703365 3.2710001
0.72975749 -1.2579088 3.2390001
0.73611772 -1.259074 3.2420001
0.7397427 -1.2555786 3.233
0.74541128 -1.2555786 3.233
0.7510798 -1.2555786 3.233
0.75042844 -1.2450929 3.2060001
0.76123774 -1.2536368 3.2280002
0.76974839 -1.2582972 3.2400002
0.77542919 -1.2582972 3.2400002
0.78110999 -1.2582972 3.2400002
0.78679079 -1.2582972 3.2400002
0.79247159 -1.2582972 3.2400002
0.80677444 -1.2718899 3.2750001
0.8127647 -1.2722783 3.2760003
0.81850857 -1.2722783 3.2760003
0.81620121 -1.2598506 3.2440002
0.82315582 -1.2617924 3.2490001
0.8393119 -1.2777153 3.2900002
0.84456664 -1.2769387 3.2880001
0.84955573 -1.2757735 3.2850001
0.85088915 -1.2691714 3.2680001
0.85740542 -1.2703365 3.2710001
0.86314058 -1.2703365 3.2710001
0.87684464 -1.2819873 3.3010001
0.88316715 -1.2827641 3.3030002
0.88895839 -1.2827641 3.3030002
0.89474964 -1.2827641 3.3030002
0.90054095 -1.2827641 3.3030002
0.90770417 -1.2847059 3.3080001
0.91239959 -1.2831525 3.3040001
0.92208326 -1.2885895 3.3180001
0.92790079 -1.2885895 3.3180001
0.93287414 -1.2874244 3.3150001
0.93217367 -1.2784921 3.2920001
0.95276135 -1.298687 3.3440001
0.95461112 -1.2932498 3.3300002
0.96362233 -1.2975218 3.3410001
0.96948022 -1.2975218 3.3410001
0.96979147 -1.290143 3.3220003
0.97121078 -1.2843175 3.3070002
0.98025888 -1.2885895 3.3180001
0.99023706 -1.2940266 3.3320003
0.99398661 -1.291308 3.325
1.0010192 -1.2928616 3.3290002
1.0056462 -1.291308 3.325
1.0102593 -1.2897546 3.3210001
1.0298501 -1.3072309 3.3660002
1.0311362 -1.3014055 3.3510001
1.0354643 -1.2994637 3.3460002
1.0453768 -1.3045124 3.3590002
1.0550219 -1.3091727 3.3710001
1.047714 -1.2928616 3.3290002
1.0535508 -1.2928616 3.3290002
1.0479314 -1.2788805 3.2930002
1.0444256 -1.2676179 3.2640002
1.061731 -1.281599 3.3000002
1.0678405 -1.2819873 3.3010001
1.0736282 -1.2819873 3.3010001
1.0699331 -1.2707248 3.2720001
1.0776424 -1.273055 3.2780001
1.089339 -1.2800455 3.2960002
1.096447 -1.281599 3.3000002
1.0962209 -1.2746085 3.2820001
1.103654 -1.2765503 3.2870002
1.0949041 -1.2598506 3.2440002
1.1073773 -1.2676179 3.2640002
1.1052566 -1.2586856 3.2410002
1.108197 -1.2555786 3.233
1.1097311 -1.2509183 3.2210002
1.1233431 -1.2598506 3.2440002
1.1290309 -1.2598506 3.2440002
1.127723 -1.2520834 3.2240002
1.1323211 -1.2509183 3.2210002
1.1393818 -1.2524717 3.2250001
1.1461014 -1.2536368 3.2280002
1.1367754 -1.2373255 3.1860001
1.1301706 -1.2241212 3.1520002
1.1331749 -1.2214026 3.1450002
1.1386892 -1.2214026 3.1450002
1.1442034 -1.2214026 3.1450002
1.1391162 -1.2101401 3.1160002
1.1445795 -1.2101401 3.1160002
1.140816 -1.2004311 3.0910001
1.1447521 -1.1988776 3.0870001
1.1397324 -1.1880034 3.0590003
1.1495879 -1.1926638 3.0710001
1.1466984 -1.1841198 3.0490003
1.1520443 -1.1841198 3.0490003
1.1573902 -1.1841198 3.0490003
1.1615921 -1.1829547 3.0460002
1.1657834 -1.1817896 3.0430002
1.1711189 -1.1817896 3.0430002
1.175681 -1.1810129 3.0410001
1.1689737 -1.1689737 3.0100002
1.1535749 -1.1483904 2.9570003
1.1587596 -1.1483904 2.9570003
1.1659123 -1.1503322 2.9620001
1.1643842 -1.14373 2.9450002
1.1695478 -1.14373 2.9450002
1.1723181 -1.1413999 2.9390001
1.1774712 -1.1413999 2.9390001
1.1882577 -1.1468369 2.9530001
1.1934353 -1.1468369 2.9530001
1.1888714 -1.1375161 2.9290001
1.1940068 -1.1375161 2.9290001
1.1979141 -1.1363511 2.9260001
1.1997552 -1.1332442 2.9180002
1.2036326 -1.1320791 2.9150002
1.1987917 -1.1227584 2.891
1.1834562 -1.1037285 2.8420002
1.1884391 -1.1037285 2.8420002
1.2089058 -1.0951846 2.8200002
1.2168633 -1.0979031 2.8270001
1.22182 -1.0979031 2.8270001
1.2241729 -1.0955729 2.8210001
1.2173551 -1.0850872 2.7940001
1.2244412 -1.087029 2.799
1.2306664 -1.088194 2.802
1.22676 -1.0804268 2.7820001
1.2263252 -1.0757664 2.7700002
1.2231815 -1.0687759 2.7520001
1.2199746 -1.0617853 2.7340002
1.2277629 -1.0602319 2.73
1.2311951 -1.0590668 2.7270002
1.2282714 -1.0524646 2.71
1.2330229 -1.0524646 2.71
1.2482796 -1.061397 2.733
1.2530714 -1.061397 2.733
1.2551018 -1.0590668 2.7270002
1.259883 -1.0590668 2.7270002
1.2669832 -1.0610086 2.7320001
1.2629286 -1.0536298 2.7130001
1.2662836 -1.0524646 2.71
1.2630619 -1.0458624 2.6930001
1.2659005 -1.044309 2.6890001
1.2588022 -1.0345999 2.664
1.2691643 -1.0392603 2.6760001
1.2738563 -1.0392603 2.6760001
1.2599146 -1.0241141 2.6370001
1.254468 -1.0159584 2.6160002
1.2600172 -1.0167352 2.618
1.2646074 -1.0167352 2.618
1.2682281 -1.0159584 2.6160002
1.2718416 -1.0151818 2.6140001
1.2661705 -1.0070261 2.5930002
1.2658163 -1.0031425 2.5830002
1.2767388 -1.0081912 2.5960002
1.2719127 -1.0008123 2.5770001
1.2749451 -0.9996472 2.5740001
0.63336974 -1.2414047 3.2110002
0.63800466 -1.2394717 3.2060001
0.64242131 -1.237152 3.2
0.64803201 -1.237152 3.2
0.65445971 -1.2386985 3.2040002
0.65925336 -1.237152 3.2
0.66382515 -1.2352189 3.1950002
0.66942704 -1.2352189 3.1950002
0.67418385 -1.2336725 3.1910002
0.68340021 -1.2402449 3.2080002
0.69396496 -1.2491369 3.2310002
0.70114571 -1.2518432 3.2380002
0.71031564 -1.258029 3.2540002
0.716021 -1.258029 3.2540002
0.72549689 -1.2646013 3.2710001
0.73123205 -1.2646013 3.2710001
0.72930688 -1.2514566 3.2370002
0.73520947 -1.2518432 3.2380002
0.7397427 -1.2499101 3.233
0.74541128 -1.2499101 3.233
0.74364567 -1.2375386 3.2010002
0.75815272 -1.2522298 3.2390001
0.76288849 -1.2506833 3.2350001
0.76974839 -1.2526164 3.2400002
0.77542919 -1.2526164 3.2400002
0.78110999 -1.2526164 3.2400002
0.78679079 -1.2526164 3.2400002
0.79320538 -1.2537762 3.2430003
0.80702078 -1.2665343 3.2760003
0.8127647 -1.2665343 3.2760003
0.81850857 -1.2665343 3.2760003
0.81620121 -1.2541628 3.2440002
0.82315582 -1.2560959 3.2490001
0.83701593 -1.2684674 3.2810001
0.83917248 -1.2630548 3.2670002
0.84360754 -1.2611219 3.2620001
0.85167027 -1.2646013 3.2710001
0.85740542 -1.2646013 3.2710001
0.86314058 -1.2646013 3.2710001
0.87684464 -1.2761996 3.3010001
0.88316715 -1.2769728 3.3030002
0.88895839 -1.2769728 3.3030002
0.89474964 -1.2769728 3.3030002
0.90054095 -1.2769728 3.3030002
0.90770417 -1.2789059 3.3080001
0.91239959 -1.2773595 3.3040001
0.92208326 -1.2827719 3.3180001
0.92790079 -1.2827719 3.3180001
0.93512541 -1.284705 3.3230002
0.934439 -1.275813 3.3000002
0.94820267 -1.286638 3.3280001
0.95346439 -1.2858648 3.3260002
0.96246868 -1.2901175 3.3370001
0.96948022 -1.291664 3.3410001
0.9753381 -1.291664 3.3410001
0.97121078 -1.2785193 3.3070002
0.9814406 -1.2843184 3.3220003
0.98488766 -1.2812256 3.3140001
0.99368763 -1.2850916 3.3240001
1.0025227 -1.2889577 3.3340001
1.0095781 -1.2905042 3.3380001
1.0151265 -1.2901175 3.3370001
1.0222012 -1.291664 3.3410001
1.0268283 -1.2901175 3.3370001
1.0326791 -1.2901175 3.3370001
1.0413309 -1.2935971 3.3460002
1.0518922 -1.2993962 3.3610001
1.0558968 -1.2970766 3.3550003
1.057665 -1.2920506 3.3420002
1.0507954 -1.2765862 3.302
1.0466654 -1.2646013 3.2710001
1.0633397 -1.2777461 3.3050001
1.0691345 -1.2777461 3.3050001
1.0749292 -1.2777461 3.3050001
1.0728761 -1.2684674 3.2810001
1.0792862 -1.2692406 3.2830002
1.088017 -1.2727201 3.2920001
1.096447 -1.275813 3.3000002
1.103235 -1.2769728 3.3030002
1.0986177 -1.2649879 3.2720001
1.1019919 -1.2622817 3.2650001
1.1026275 -1.2564825 3.2500002
1.1011643 -1.2483637 3.2290001
1.108197 -1.2499101 3.233
1.1097311 -1.2452708 3.2210002
1.1233431 -1.2541628 3.2440002
1.1290309 -1.2541628 3.2440002
1.1280727 -1.2468172 3.2250001
1.1326727 -1.2456574 3.2220001
1.1411482 -1.2487503 3.2300003
1.1475216 -1.2495235 3.2320001
1.139273 -1.2344457 3.1930001
1.1398517 -1.2290332 3.1790001
1.1457858 -1.2294198 3.1800001
1.1502752 -1.2282599 3.177
1.1452949 -1.2170483 3.1480002
1.1541045 -1.2205278 3.1570001
1.1489874 -1.209316 3.1280003
1.140816 -1.1950115 3.0910001
1.1447521 -1.1934651 3.0870001
1.1397324 -1.18264 3.0590003
1.1495879 -1.1872793 3.0710001
1.1583571 -1.1907588 3.0800002
1.1637574 -1.1907588 3.0800002
1.1680189 -1.1895989 3.0770001
1.1722699 -1.1884391 3.0740001
1.1765103 -1.1872793 3.0710001
1.1711189 -1.1764542 3.0430002
1.175681 -1.175681 3.0410001
1.1689737 -1.1636961 3.0100002
1.1547453 -1.1443655 2.96
1.1599352 -1.1443655 2.96
1.1560718 -1.1354736 2.937
1.1643842 -1.1385665 2.9450002
1.1695478 -1.1385665 2.9450002
1.1723181 -1.1362468 2.9390001
1.1774712 -1.1362468 2.9390001
1.1858433 -1.1393397 2.947
1.1805027 -1.1292878 2.9210002
1.1880596 -1.1316074 2.927
1.1931915 -1.1316074 2.927
1.1979141 -1.1312208 2.9260001
1.1997552 -1.1281279 2.9180002
1.2036326 -1.1269681 2.9150002
1.1987917 -1.1176895 2.891
1.1934502 -1.1080242 2.8660002
1.1884391 -1.0987456 2.8420002
1.1934221 -1.0987456 2.8420002
1.1840681 -1.0856009 2.8080001
1.1889914 -1.0856009 2.8080001
1.1926392 -1.0844411 2.8050001
1.2009728 -1.087534 2.8130002
1.2067623 -1.0883071 2.8150001
1.2177242 -1.0937197 2.8290002
1.2231165 -1.0941063 2.8300002
1.2315501 -1.0971992 2.8380001
1.2186623 -1.0813482 2.7970002
1.2257535 -1.0832812 2.802
1.2306664 -1.0832812 2.802
1.2249961 -1.0740026 2.7780001
1.2329659 -1.0767088 2.7850001
1.2240704 -1.064724 2.7540002
1.2190821 -1.0562185 2.7320001
1.2243202 -1.0566051 2.733
1.2268634 -1.0546721 2.7280002
1.2293891 -1.052739 2.723
1.2300843 -1.0492595 2.7140002
1.2348429 -1.0492595 2.7140002
1.2464526 -1.0550587 2.7290001
1.2512374 -1.0550587 2.7290001
1.2560222 -1.0550587 2.7290001
1.260807 -1.0550587 2.7290001
1.2549255 -1.0461667 2.7060001
1.260601 -1.0469398 2.7080002
1.2653491 -1.0469398 2.7080002
1.2621238 -1.0403675 2.6910002
1.264959 -1.0388211 2.687
1.2588022 -1.029929 2.664
1.2629987 -1.0295424 2.6630001
1.2676679 -1.0295424 2.6630001
1.2795037 -1.0353416 2.6780002
1.254468 -1.0113717 2.6160002
1.2590547 -1.0113717 2.6160002
1.2636414 -1.0113717 2.6160002
1.2682281 -1.0113717 2.6160002
1.2687567 -1.0009333 2.5890002
0.83216882 -1.2554024 3.2620001
0.83634698 -1.2530932 3.256
0.84153861 -1.2523236 3.2540002
0.85088915 -1.2577115 3.2680001
0.85740542 -1.2588662 3.2710001
0.86314058 -1.2588662 3.2710001
0.8773759 -1.2711816 3.3030002
0.88316715 -1.2711816 3.3030002
0.88895839 -1.2711816 3.3030002
0.89502054 -1.2715664 3.3040001
0.90054095 -1.2711816 3.3030002
0.90770417 -1.2731059 3.3080001
0.92151254 -1.2842667 3.3370001
0.93125409 -1.2896547 3.3510001
0.92790079 -1.2769544 3.3180001
0.93371838 -1.2769544 3.3180001
0.94066858 -1.2784939 3.3220003
0.95190656 -1.2858061 3.3410001
0.95862448 -1.2869607 3.3440001
0.96448761 -1.2869607 3.3440001
0.96948022 -1.2858061 3.3410001
0.9753381 -1.2858061 3.3410001
0.9800213 -1.2842667 3.3370001
0.98587215 -1.2842667 3.3370001
0.98607641 -1.2769544 3.3180001
0.99219292 -1.2773392 3.3190002
1.0064317 -1.2881153 3.3470001
1.0107878 -1.286191 3.3420002
1.0151265 -1.2842667 3.3370001
1.0212834 -1.2846515 3.3380001
1.027136 -1.2846515 3.3380001
1.0329885 -1.2846515 3.3380001
1.0413309 -1.2877305 3.3460002
1.0518922 -1.2935033 3.3610001
1.0562115 -1.291579 3.3560002
1.0488037 -1.2754149 3.3140001
1.0511137 -1.2711816 3.3030002
1.0479454 -1.2604055 3.2750001
1.0530441 -1.2596358 3.2730002
1.0578123 -1.2584813 3.2700002
1.0622448 -1.2569419 3.2660003
1.0581613 -1.2453961 3.2360001
1.0733688 -1.256557 3.2650001
1.0698392 -1.2457811 3.2370002
1.0791696 -1.2500144 3.2480001
1.0975568 -1.264639 3.2860003
1.0935812 -1.2534782 3.2570002
1.0976042 -1.2515539 3.2520001
1.1100914 -1.259251 3.2720001
1.1069617 -1.2492447 3.2460001
1.1040837 -1.2396233 3.2210002
1.1080085 -1.237699 3.2160001
1.1160712 -1.240393 3.223
1.1217222 -1.240393 3.223
1.1266736 -1.2396233 3.2210002
1.1337272 -1.2411628 3.2250001
1.139735 -1.2415476 3.2260001
1.1464565 -1.2427021 3.2290001
1.1389163 -1.2284625 3.1920002
1.1423615 -1.2261534 3.1860001
1.1475873 -1.2257684 3.1850002
1.1513613 -1.2238442 3.1800001
1.1511159 -1.2176865 3.164
1.1515455 -1.2122985 3.1500001
1.1574358 -1.2126833 3.1510003
1.1441376 -1.1930556 3.1000001
1.138819 -1.1818948 3.0710001
1.1453211 -1.1830494 3.0740001
1.1495879 -1.1818948 3.0710001
1.1583571 -1.1853585 3.0800002
1.1531779 -1.1745825 3.052
1.1551126 -1.1711189 3.0430002
1.1604481 -1.1711189 3.0430002
1.1657834 -1.1711189 3.0430002
1.1711189 -1.1711189 3.0430002
1.1636961 -1.1584185 3.0100002
1.1681969 -1.1576488 3.0080001
1.1547453 -1.1391758 2.96
1.1599352 -1.1391758 2.96
1.1655186 -1.1395606 2.9610002
1.1718965 -1.1407151 2.9640002
1.1770933 -1.1407151 2.9640002
1.1651382 -1.1241664 2.9210002
1.1702597 -1.1241664 2.9210002
1.1725645 -1.1214724 2.914
1.1776737 -1.1214724 2.914
1.1868418 -1.1253209 2.924
1.1919686 -1.1253209 2.924
1.1958672 -1.1241664 2.9210002
1.2051002 -1.1280149 2.9310002
1.2102392 -1.1280149 2.9310002
1.195889 -1.1099266 2.8840001
1.1897024 -1.0995355 2.8570001
1.1938753 -1.0987657 2.855
1.188383 -1.0891443 2.8300002
1.1941884 -1.0899141 2.832
1.1991538 -1.0899141 2.832
1.1964658 -1.0829867 2.8140001
1.2022537 -1.0837563 2.8160002
1.205905 -1.0826018 2.8130002
1.2168633 -1.0879898 2.8270001
1.2252775 -1.0910686 2.835
1.2337198 -1.0941474 2.8430002
1.2217121 -1.079138 2.8040001
1.2257535 -1.0783684 2.802
1.219247 -1.0683621 2.776
1.2166178 -1.0618196 2.7590001
1.2170281 -1.057971 2.7490001
1.2200701 -1.0564315 2.7450001
1.2146199 -1.0475799 2.7220001
1.2144648 -1.0433464 2.7110002
1.2201174 -1.0441161 2.7130001
1.2244228 -1.0437313 2.7120001
1.2341634 -1.0479647 2.723
1.2389377 -1.0479647 2.723
1.2464526 -1.0502739 2.7290001
1.2512374 -1.0502739 2.7290001
1.2560222 -1.0502739 2.7290001
1.2631171 -1.0521982 2.7340002
1.2549255 -1.0414221 2.7060001
1.260601 -1.0421919 2.7080002
1.2686199 -1.0448859 2.7150002
1.268221 -1.0406524 2.7040002
1.2729621 -1.0406524 2.7040002
1.2588022 -1.0252582 2.664
1.2682158 -1.0291067 2.674
1.2729042 -1.0291067 2.674
1.2795037 -1.0306462 2.6780002
1.2741289 -1.0225642 2.6570001
1.2787875 -1.0225642 2.6570001
1.2834461 -1.0225642 2.6570001
1.2682281 -1.006785 2.6160002
1.2723283 -1.0064002 2.615
1.2769132 -1.0064002 2.615
1.2677766 -0.99562418 2.5870001
1.268378 -0.99254537 2.5790002
1.2635221 -0.98523307 2.5600002
1.2680106 -0.98523307 2.5600002
0.83574033 -1.2550465 3.2760003
0.84097058 -1.2542803 3.2740002
0.84334892 -1.2493 3.2610002
0.85167027 -1.253131 3.2710001
0.85740542 -1.253131 3.2710001
0.86314058 -1.253131 3.2710001
0.8773759 -1.2653903 3.3030002
0.88316715 -1.2653903 3.3030002
0.88895839 -1.2653903 3.3030002
0.89502054 -1.2657734 3.3040001
0.90054095 -1.2653903 3.3030002
0.90633219 -1.2653903 3.3030002
0.9201318 -1.2765003 3.3320003
0.92986453 -1.2818637 3.3460002
0.92790079 -1.2711369 3.3180001
0.93371838 -1.2711369 3.3180001
0.94066858 -1.2726693 3.3220003
0.95162165 -1.2795651 3.3400002
0.95862448 -1.2810975 3.3440001
0.96448761 -1.2810975 3.3440001
0.96948022 -1.2799482 3.3410001
0.9753381 -1.2799482 3.3410001
0.98119599 -1.2799482 3.3410001
0.98705387 -1.2799482 3.3410001
0.98518485 -1.2699876 3.3150001
0.98681194 -1.2646241 3.3010001
0.99771154 -1.2711369 3.3180001
1.0035291 -1.2711369 3.3180001
1.0151265 -1.2784158 3.3370001
1.0218953 -1.2795651 3.3400002
1.0308285 -1.2833961 3.3500001
1.0348454 -1.2810975 3.3440001
1.0428871 -1.2837793 3.3510001
1.0553348 -1.2918245 3.3720002
1.0612471 -1.2918245 3.3720002
1.0614628 -1.2849286 3.3540001
1.0555689 -1.2707537 3.3170002
1.0569049 -1.2653903 3.3030002
1.0581919 -1.2600268 3.2890003
1.0591062 -1.2542803 3.2740002
1.0606185 -1.2493 3.2610002
1.0591422 -1.2408717 3.2390001
1.0746838 -1.2523648 3.2690001
1.0777713 -1.2493 3.2610002
1.0828245 -1.2485337 3.2590001
1.1039031 -1.2661566 3.3050001
1.0902236 -1.2439365 3.2470002
1.094229 -1.242021 3.2420001
1.0968599 -1.2385731 3.233
1.1042335 -1.2404885 3.2380002
1.1006559 -1.2301447 3.2110002
1.1104202 -1.234742 3.223
1.1160712 -1.234742 3.223
1.1279868 -1.2416379 3.2410002
1.1361179 -1.2443197 3.2480001
1.1400551 -1.2424041 3.2430003
1.1422081 -1.2385731 3.233
1.1475216 -1.2381899 3.2320001
1.1407002 -1.2247814 3.1970003
1.1448715 -1.223249 3.1930001
1.1508301 -1.2236321 3.1940002
1.1560682 -1.223249 3.1930001
1.1602113 -1.2217165 3.1890001
1.1533734 -1.208691 3.1550002
1.1585377 -1.2083079 3.154
1.1533645 -1.1971979 3.1250002
1.1488314 -1.1868541 3.098
1.155381 -1.1880034 3.1010001
1.159695 -1.1868541 3.098
1.1662551 -1.1880034 3.1010001
1.1611125 -1.1772765 3.0730002
1.1562514 -1.1669327 3.0460002
1.1604481 -1.1657834 3.0430002
1.1657834 -1.1657834 3.0430002
1.1711189 -1.1657834 3.0430002
1.1606032 -1.1500762 3.0020001
1.1623714 -1.1466283 2.993
1.157086 -1.1362845 2.9660001
1.1630702 -1.1370506 2.9680002
1.1666995 -1.1355183 2.9640002
1.171501 -1.1351352 2.9630001
1.1770933 -1.1355183 2.9640002
1.1715204 -1.1251745 2.937
1.1766698 -1.1251745 2.937
1.183429 -1.1267068 2.9410002
1.1861607 -1.1244082 2.9350002
1.1921185 -1.1251745 2.937
1.1988987 -1.1267068 2.9410002
1.1979141 -1.1209604 2.9260001
1.2071559 -1.1247914 2.9360001
1.2098264 -1.1224928 2.9300001
1.194645 -1.1037207 2.881
1.1897024 -1.0945262 2.8570001
1.1938753 -1.09376 2.855
1.188383 -1.0841824 2.8300002
1.1941884 -1.0849487 2.832
1.1991538 -1.0849487 2.832
1.203694 -1.0845655 2.8310001
1.2137809 -1.0891628 2.8430002
1.2149074 -1.0857148 2.8340001
1.2198764 -1.0857148 2.8340001
1.2248453 -1.0857148 2.8340001
1.2337198 -1.0891628 2.8430002
1.223455 -1.0757542 2.8080001
1.2235663 -1.07154 2.7970002
1.219247 -1.0634948 2.776
1.2157359 -1.0562159 2.7570002
1.2161427 -1.0523849 2.7470002
1.2200701 -1.0516187 2.7450001
1.2146199 -1.0428072 2.7220001
1.2189445 -1.0424242 2.7210002
1.2201174 -1.0393593 2.7130001
1.2244228 -1.0389762 2.7120001
1.2359763 -1.0447228 2.7270002
1.2407577 -1.0447228 2.7270002
1.2473661 -1.0462552 2.7310002
1.2521544 -1.0462552 2.7310002
1.2569427 -1.0462552 2.7310002
1.2520291 -1.03821 2.71
1.2567805 -1.03821 2.71
1.2615321 -1.03821 2.71
1.2676854 -1.0393593 2.7130001
1.2602478 -1.0293987 2.687
1.2626052 -1.0274831 2.6820002
1.2597471 -1.0213535 2.6660001
1.2691643 -1.0251845 2.6760001
1.2738563 -1.0251845 2.6760001
1.2795037 -1.0259507 2.6780002
1.2741289 -1.0179056 2.6570001
1.2787875 -1.0179056 2.6570001
1.2834461 -1.0179056 2.6570001
1.2682281 -1.0021983 2.6160002
1.2708685 -1.0006659 2.6120002
1.2754483 -1.0006659 2.6120002
1.2658163 -0.9895559 2.5830002
1.268378 -0.98802352 2.5790002
1.2635221 -0.98074454 2.5600002
1.2699919 -0.98227692 2.5640001
0.69783103 -1.2390062 3.2490001
0.70352763 -1.2390062 3.2490001
0.71249855 -1.2447264 3.2640002
0.71822143 -1.2447264 3.2640002
0.71706861 -1.2329046 3.233
0.72653747 -1.2393875 3.2500002
0.73223585 -1.2393875 3.2500002
0.74156708 -1.2454891 3.2660003
0.74797988 -1.2466332 3.2690001
0.74564183 -1.2332859 3.2340002
0.75224137 -1.2348113 3.2380002
0.75768459 -1.23443 3.2370002
0.76406759 -1.235574 3.2400002
0.76974839 -1.235574 3.2400002
0.77542919 -1.235574 3.2400002
0.78110999 -1.235574 3.2400002
0.78679079 -1.235574 3.2400002
0.80127686 -1.2493026 3.2760003
0.80702078 -1.2493026 3.2760003
0.8127647 -1.2493026 3.2760003
0.82650381 -1.2615058 3.3080001
0.82425249 -1.2493026 3.2760003
0.82999641 -1.2493026 3.2760003
0.83574033 -1.2493026 3.2760003
0.84122741 -1.2489213 3.2750001
0.84619373 -1.2477772 3.2720001
0.85219103 -1.2481586 3.2730002
0.85792965 -1.2481586 3.2730002
0.86314058 -1.2473959 3.2710001
0.8773759 -1.2595991 3.3030002
0.8746109 -1.2473959 3.2710001
0.88034606 -1.2473959 3.2710001
0.89474964 -1.2595991 3.3030002
0.90054095 -1.2595991 3.3030002
0.90633219 -1.2595991 3.3030002
0.9201318 -1.2706581 3.3320003
0.92875296 -1.2744716 3.3420002
0.93489224 -1.274853 3.3430002
0.94300491 -1.2779038 3.3510001
0.95001298 -1.2794292 3.3550003
0.95190656 -1.2740903 3.3410001
0.95776445 -1.2740903 3.3410001
0.96362233 -1.2740903 3.3410001
0.96948022 -1.2740903 3.3410001
0.9753381 -1.2740903 3.3410001
0.98119599 -1.2740903 3.3410001
0.98705387 -1.2740903 3.3410001
0.99291176 -1.2740903 3.3410001
0.98890454 -1.2615058 3.3080001
0.99771154 -1.2653193 3.3180001
1.0047389 -1.2668447 3.3220003
1.0209063 -1.2798105 3.3560002
1.0267906 -1.2798105 3.3560002
1.0326748 -1.2798105 3.3560002
1.038559 -1.2798105 3.3560002
1.0450655 -1.2805732 3.3580003
1.0562737 -1.2870562 3.3750002
1.0514907 -1.2740903 3.3410001
1.0573485 -1.2740903 3.3410001
1.0447491 -1.2519721 3.2830002
1.0495453 -1.250828 3.2800002
1.0620527 -1.2588364 3.3010001
1.066223 -1.2569296 3.2960002
1.0694001 -1.2538788 3.2880001
1.0699331 -1.2477772 3.2720001
1.0924362 -1.2672261 3.3230002
1.0781019 -1.2439637 3.2620001
1.0811632 -1.2409129 3.2540002
1.0988929 -1.2546415 3.2900002
1.0959315 -1.2447264 3.2640002
1.0965916 -1.2390062 3.2490001
1.1100914 -1.2477772 3.2720001
1.1171924 -1.2493026 3.2760003
1.1064831 -1.2309978 3.2280002
1.1176553 -1.2370994 3.2440002
1.1240357 -1.2378621 3.2460001
1.1311191 -1.2393875 3.2500002
1.1371673 -1.2397689 3.2510002
1.1418127 -1.2386248 3.2480001
1.1450344 -1.2359554 3.2410002
1.150717 -1.2359554 3.2410002
1.1414138 -1.2199386 3.1990001
1.1445129 -1.2172692 3.1920002
1.1479477 -1.2149811 3.1860001
1.1531717 -1.2145997 3.1850002
1.1474777 -1.2027779 3.154
1.1511799 -1.2008711 3.1490002
1.1467835 -1.1905746 3.1220002
1.1559482 -1.1943882 3.1320002
1.1488314 -1.1814222 3.098
1.155381 -1.1825663 3.1010001
1.160818 -1.1825663 3.1010001
1.1557245 -1.1718886 3.0730002
1.1611125 -1.1718886 3.0730002
1.164223 -1.1696005 3.0670002
1.1638802 -1.1638802 3.052
1.1650172 -1.1596854 3.0410001
1.1595731 -1.1490076 3.0130002
1.152871 -1.1371857 2.9820001
1.1580994 -1.1371857 2.9820001
1.1586465 -1.1326095 2.97
1.1552328 -1.1242198 2.9480002
1.1666995 -1.1303214 2.9640002
1.1612213 -1.1200249 2.937
1.1663707 -1.1200249 2.937
1.172717 -1.121169 2.9400001
1.1782725 -1.1215503 2.9410002
1.1850386 -1.1230757 2.9450002
1.1885855 -1.1215503 2.9410002
1.193742 -1.1215503 2.9410002
1.2013445 -1.1238384 2.947
1.1975048 -1.1154487 2.9250002
1.2071559 -1.1196436 2.9360001
1.2110651 -1.1184995 2.9330001
1.194645 -1.0986693 2.881
1.189286 -1.0891356 2.8560002
1.1838393 -1.0796019 2.8310001
1.188383 -1.0792205 2.8300002
1.1853331 -1.0719749 2.8110001
1.1902617 -1.0719749 2.8110001
1.2053947 -1.0811273 2.835
1.2137809 -1.0841781 2.8430002
1.2149074 -1.0807459 2.8340001
1.2198764 -1.0807459 2.8340001
1.2248453 -1.0807459 2.8340001
1.2345878 -1.0849408 2.845
1.2247621 -1.0719749 2.8110001
1.2235663 -1.066636 2.7970002
1.219247 -1.0586276 2.776
1.2183816 -1.05367 2.7630002
1.2258824 -1.0559582 2.7690001
1.2196257 -1.0464244 2.7440002
1.2244368 -1.0464244 2.7440002
1.2265601 -1.0441363 2.7380002
1.2268634 -1.0403228 2.7280002
1.2293891 -1.038416 2.723
1.2382425 -1.0418482 2.7320001
1.2416677 -1.0407041 2.7290001
1.2473661 -1.0414668 2.7310002
1.2521544 -1.0414668 2.7310002
1.2714778 -0.97892547 2.5670002
0.62343889 -1.2105337 3.1890001
0.62922752 -1.2109133 3.1900001
0.63561666 -1.2124318 3.1940002
0.64101601 -1.2120521 3.1930001
0.64661443 -1.2120521 3.1930001
0.65834069 -1.2234401 3.223
0.667494 -1.2298932 3.2400002
0.6669417 -1.2185053 3.21
0.67173183 -1.2169869 3.2060001
0.68200105 -1.225338 3.2280002
0.68936509 -1.2283748 3.2360001
0.6993345 -1.2359667 3.256
0.70504338 -1.2359667 3.256
0.7116254 -1.2374852 3.2600002
0.71822143 -1.2390035 3.2640002
0.71706861 -1.227236 3.233
0.72743171 -1.2352076 3.2540002
0.73381293 -1.2363464 3.2570002
0.74224824 -1.2409015 3.2690001
0.74134439 -1.2298932 3.2400002
0.74702519 -1.2298932 3.2400002
0.75270599 -1.2298932 3.2400002
0.75815272 -1.2295136 3.2390001
0.76406759 -1.2298932 3.2400002
0.76974839 -1.2298932 3.2400002
0.77542919 -1.2298932 3.2400002
0.78110999 -1.2298932 3.2400002
0.78679079 -1.2298932 3.2400002
0.80005389 -1.2416607 3.2710001
0.80677444 -1.2431791 3.2750001
0.81450135 -1.2462158 3.2830002
0.82825273 -1.2583629 3.3150001
0.83230382 -1.2557057 3.3080001
0.83810383 -1.2557057 3.3080001
0.8439039 -1.2557057 3.3080001
0.84970391 -1.2557057 3.3080001
0.84722817 -1.2435586 3.2760003
0.85297209 -1.2435586 3.2760003
0.85871601 -1.2435586 3.2760003
0.86445993 -1.2435586 3.2760003
0.8773759 -1.2538078 3.3030002
0.8746109 -1.2416607 3.2710001
0.88034606 -1.2416607 3.2710001
0.89962566 -1.2606405 3.3210001
0.90844756 -1.264816 3.3320003
0.91840565 -1.2705101 3.3470001
0.9201318 -1.264816 3.3320003
0.92541808 -1.2640569 3.3300002
0.92985839 -1.2621589 3.325
0.94019079 -1.2682325 3.3410001
0.94746453 -1.2701304 3.3460002
0.95190656 -1.2682325 3.3410001
0.95776445 -1.2682325 3.3410001
0.96362233 -1.2682325 3.3410001
0.96948022 -1.2682325 3.3410001
0.9753381 -1.2682325 3.3410001
0.98119599 -1.2682325 3.3410001
0.98705387 -1.2682325 3.3410001
0.99291176 -1.2682325 3.3410001
0.99876964 -1.2682325 3.3410001
1.0088373 -1.2735468 3.3550003
1.016232 -1.2754447 3.3600001
1.0215148 -1.2746856 3.3580003
1.0274025 -1.2746856 3.3580003
1.0332901 -1.2746856 3.3580003
1.038559 -1.2739264 3.3560002
1.0453768 -1.2750652 3.3590002
1.0562737 -1.2811388 3.3750002
1.0414195 -1.2560854 3.3090003
1.0456389 -1.2541873 3.3040001
1.0514319 -1.2541873 3.3040001
1.0572249 -1.2541873 3.3040001
1.0540093 -1.2435586 3.2760003
1.0616941 -1.2458363 3.2820001
1.0664729 -1.2446975 3.279
1.079743 -1.2534282 3.302
1.0990113 -1.2689916 3.3430002
1.0827289 -1.2435586 3.2760003
1.087476 -1.2424198 3.2730002
1.0932148 -1.2424198 3.2730002
1.1006322 -1.2443179 3.2780001
1.1006418 -1.2378647 3.2610002
1.1117878 -1.2439383 3.2770002
1.1188976 -1.2454567 3.2810001
1.1064831 -1.225338 3.2280002
1.1162772 -1.2298932 3.2400002
1.1240357 -1.2321708 3.2460001
1.1311191 -1.2336892 3.2500002
1.1371673 -1.2340688 3.2510002
1.1418127 -1.2329299 3.2480001
1.1510406 -1.2367259 3.2580001
1.1567529 -1.2367259 3.2580001
1.1474795 -1.2207829 3.2160001
1.1473813 -1.2147093 3.2
1.1493889 -1.2109133 3.1900001
1.154982 -1.2109133 3.1900001
1.1478416 -1.1976274 3.1550002
1.1522766 -1.1964887 3.1520002
1.1423756 -1.1805456 3.1100001
1.1559482 -1.1888968 3.1320002
1.1488314 -1.1759905 3.098
1.1572438 -1.1790272 3.1060002
1.1626897 -1.1790272 3.1060002
1.1564767 -1.1672597 3.075
1.1611125 -1.1665006 3.0730002
1.164223 -1.164223 3.0670002
1.1535838 -1.1482799 3.0250001
1.1842574 -1.0750178 2.832
1.1892229 -1.0750178 2.832
1.1853331 -1.0670462 2.8110001
1.1902617 -1.0670462 2.8110001
1.2053947 -1.0761565 2.835
1.2137809 -1.0791934 2.8430002
1.2149074 -1.0757769 2.8340001
1.2099762 -1.0670462 2.8110001
1.2149048 -1.0670462 2.8110001
1.223305 -1.070083 2.8190002
0.61776948 -1.1939849 3.1600001
0.62863576 -1.2041867 3.187
0.63482064 -1.2053202 3.1900001
0.64001226 -1.2045646 3.1880002
0.65228468 -1.2170334 3.2210002
0.65793222 -1.2170334 3.2210002
0.66419774 -1.2181669 3.2240002
0.66985047 -1.2181669 3.2240002
0.67738891 -1.2215675 3.233
0.68305749 -1.2215675 3.233
0.69085628 -1.225346 3.2430003
0.70019364 -1.2317692 3.2600002
0.70590955 -1.2317692 3.2600002
0.71249855 -1.2332807 3.2640002
0.71844149 -1.2336584 3.2650001
0.71884298 -1.2245902 3.2410002
0.72586685 -1.2268573 3.2470002
0.73223585 -1.2279909 3.2500002
0.74111295 -1.2332807 3.2640002
0.7397427 -1.2215675 3.233
0.74702519 -1.2242124 3.2400002
0.75270599 -1.2242124 3.2400002
0.75815272 -1.2238345 3.2390001
0.76312429 -1.2227011 3.2360001
0.76974839 -1.2242124 3.2400002
0.77542919 -1.2242124 3.2400002
0.78110999 -1.2242124 3.2400002
0.79431874 -1.2359256 3.2710001
0.79785258 -1.232525 3.2620001
0.81219399 -1.2457495 3.2970002
0.82789856 -1.2608632 3.3370001
0.84224433 -1.2737099 3.3710001
0.83230382 -1.2499057 3.3080001
0.83810383 -1.2499057 3.3080001
0.8439039 -1.2499057 3.3080001
0.84970391 -1.2499057 3.3080001
0.85550392 -1.2499057 3.3080001
0.85297209 -1.2378148 3.2760003
0.85871601 -1.2378148 3.2760003
0.86445993 -1.2378148 3.2760003
0.86993825 -1.2374369 3.2750001
0.88343453 -1.2483944 3.3040001
0.88895839 -1.2480165 3.3030002
0.89962566 -1.2548177 3.3210001
0.90844756 -1.258974 3.3320003
0.91840565 -1.2646416 3.3470001
0.91930336 -1.2578404 3.3290002
1.0397968 -1.2695535 3.3600001
1.0411048 -1.2499057 3.3080001
1.044373 -1.246883 3.3000002
1.0399756 -1.234792 3.2680001
1.0469855 -1.2363033 3.2720001
1.0607657 -1.2457495 3.2970002
0.67110324 -1.2046163 3.2030001
0.67671919 -1.2046163 3.2030001
0.69085628 -1.2196598 3.2430003
0.70019364 -1.2260534 3.2600002
0.70590955 -1.2260534 3.2600002
0.71315342 -1.228686 3.2670002
0.71514082 -1.2222925 3.2500002
0.71640325 -1.2147707 3.2300003
0.72407842 -1.2181555 3.2390001
0.7304334 -1.2192838 3.2420001
0.74043179 -1.2264295 3.2610002
1.1967078 -1.1184916 2.9740002
1.2058287 -1.1124742 2.9580002
1.2881048 -0.99927109 2.6570001
1.2825458 -0.99137324 2.6360002
1.2881442 -0.99212539 2.638
1.2849286 -0.98610795 2.6220002
1.2826405 -0.98084271 2.608
1.2773418 -0.9733209 2.5880001
1.2833655 -0.97444916 2.5910001
1.1656291 -1.128625 3.0150001
1.1709155 -1.128625 3.0150001
1.1758116 -1.1282507 3.0140002
1.1756099 -1.12301 3.0000002
1.1907105 -1.1323684 3.0250001
1.1837578 -1.120764 2.9940002
1.1866244 -1.118518 2.9880002
1.1862791 -1.1132772 2.9740002
1.1914934 -1.1132772 2.9740002
1.1975126 -1.114026 2.9760001
1.1922228 -1.1042931 2.95
1.2083544 -1.1144003 2.9770002
1.2135741 -1.1144003 2.9770002
1.2015988 -1.0986781 2.9350002
1.2055113 -1.097555 2.9320002
1.2106521 -1.097555 2.9320002
1.195889 -1.079587 2.8840001
1.1905352 -1.0702286 2.8590002
1.1947117 -1.0694798 2.8570001
1.1879631 -1.0589985 2.8290002
1.1929233 -1.0589985 2.8290002
1.1978835 -1.0589985 2.8290002
1.2053947 -1.0612445 2.835
1.2013998 -1.0533834 2.8140001
1.2024754 -1.0500144 2.8050001
1.2073935 -1.0500144 2.8050001
1.2123116 -1.0500144 2.8050001
1.2202674 -1.0526347 2.812
1.2177908 -1.046271 2.7950001
1.2226914 -1.046271 2.7950001
1.227592 -1.046271 2.7950001
1.2249961 -1.0399072 2.7780001
1.2360649 -1.045148 2.7920001
1.2431825 -1.0470196 2.7970002
1.2445168 -1.0440249 2.789
1.247615 -1.0425276 2.7850001
1.252498 -1.0425276 2.7850001
1.2573811 -1.0425276 2.7850001
1.2464008 -1.0294259 2.7500002
1.2330229 -1.0144523 2.71
1.236861 -1.0137037 2.7080002
1.2439015 -1.0155754 2.7130001
1.246357 -1.0137037 2.7080002
1.2631171 -1.0234364 2.7340002
1.2679107 -1.0234364 2.7340002
1.2713078 -1.0223135 2.7310002
1.2662836 -1.0144523 2.71
1.2710352 -1.0144523 2.71
1.2654297 -1.006217 2.6880002
1.2701427 -1.006217 2.6880002
1.2748556 -1.006217 2.6880002
1.2795687 -1.006217 2.6880002
1.283326 -1.0054682 2.6860001
1.2861173 -1.003971 2.6820002
1.281194 -0.99648422 2.6620002
1.282963 -0.9942382 2.6560001
1.2779241 -0.98675144 2.6360002
1.2825458 -0.98675144 2.6360002
1.2891208 -0.98824877 2.6400001
1.2868888 -0.98300809 2.6260002
1.2910012 -0.98263377 2.6250002
1.286226 -0.97552133 2.6060002
1.2833655 -0.96990627 2.5910001
0.99996543 -1.2462913 3.3450003
1.0070331 -1.2477816 3.3490002
1.0041339 -1.2369766 3.3200002
1.0955029 -1.2030716 3.2290001
1.1062797 -1.2086604 3.2440002
1.1510406 -1.2138765 3.2580001
1.1567529 -1.2138765 3.2580001
1.1624652 -1.2138765 3.2580001
1.1620822 -1.2075425 3.2410002
1.1645219 -1.2041893 3.2320001
1.1691025 -1.2030716 3.2290001
1.1674876 -1.1956199 3.2090001
1.1665338 -1.1889135 3.1910002
1.1552318 -1.1717746 3.1450002
1.1515192 -1.16246 3.1200001
1.1610687 -1.1665584 3.131
1.1632051 -1.1632051 3.1220002
1.1686791 -1.1632051 3.1220002
1.1579812 -1.1471841 3.0790002
1.1486437 -1.1326534 3.0400002
1.1539738 -1.1326534 3.0400002
1.150533 -1.1240839 3.0170002
1.1554396 -1.1237113 3.016
1.1607277 -1.1237113 3.016
1.1671755 -1.1248291 3.0190001
1.1724689 -1.1248291 3.0190001
1.1777622 -1.1248291 3.0190001
1.1830555 -1.1248291 3.0190001
1.1958277 -1.1319082 3.0380001
1.2011544 -1.1319082 3.0380001
1.1890072 -1.1155145 2.9940002
1.1954533 -1.1166322 2.9970002
1.200708 -1.1166322 2.9970002
1.2015365 -1.1125338 2.9860001
1.2091968 -1.1147693 2.9920001
1.2152547 -1.1155145 2.9940002
1.2094976 -1.1054547 2.9670002
1.2024176 -1.0942773 2.937
1.2075671 -1.0942773 2.937
1.2127167 -1.0942773 2.937
1.2012796 -1.079374 2.8970001
1.1967815 -1.0708045 2.8740001
1.1917845 -1.0618625 2.8500001
1.1934221 -1.0588819 2.8420002
1.1929233 -1.0540383 2.8290002
1.2000006 -1.0559012 2.8340001
1.2075206 -1.0581367 2.8400002
1.2116462 -1.0573915 2.8380001
1.212764 -1.0540383 2.8290002
1.2073935 -1.0450963 2.8050001
1.2123116 -1.0450963 2.8050001
1.2102865 -1.0391349 2.789
1.2169194 -1.0406252 2.7930002
1.21088 -1.0313107 2.7680001
1.2148548 -1.0305655 2.766
1.2214684 -1.0320559 2.7700002
1.2365077 -1.0406252 2.7930002
1.2480718 -1.046214 2.8080001
1.2521026 -1.0454688 2.8060002
1.2503029 -1.03988 2.7910001
1.2547467 -1.0395075 2.7900002
1.2578325 -1.0380172 2.786
1.248667 -1.0264671 2.7550001
1.2475826 -1.0216235 2.7420001
1.249193 -1.0190154 2.7350001
1.2539884 -1.0190154 2.7350001
1.2665194 -1.0175251 2.7310002
1.2680492 -1.014917 2.7240002
1.2821487 -0.97132474 2.6070001
1.2867196 -0.97132474 2.6070001
1.2833655 -0.96536338 2.5910001
0.61268657 -1.1621813 3.1340001
0.61877322 -1.1632937 3.1370001
0.62885052 -1.1718228 3.1600001
0.64161831 -1.1851727 3.1960001
0.65410727 -1.1977808 3.2300003
0.65997481 -1.1981517 3.2310002
0.66893613 -1.204085 3.2470002
0.67275923 -1.2007475 3.2380002
0.67696989 -1.1981517 3.2310002
0.68115598 -1.1955559 3.2240002
0.68829995 -1.1981517 3.2310002
0.69826061 -1.2055683 3.2510002
0.70396072 -1.2055683 3.2510002
0.71337169 -1.2118725 3.2680001
0.74033886 -1.1907351 3.2110002
0.74852431 -1.1948142 3.2220001
0.75417352 -1.1948142 3.2220001
0.76194519 -1.1981517 3.2310002
0.76927322 -1.2007475 3.2380002
0.77375388 -1.1988934 3.233
0.82746726 -1.245618 3.3590002
0.83782244 -1.2522929 3.3770001
0.84449297 -1.2534053 3.3800001
0.83230382 -1.2267057 3.3080001
0.83810383 -1.2267057 3.3080001
0.85232252 -1.238943 3.3410001
0.8581804 -1.238943 3.3410001
0.8536936 -1.2241098 3.3010001
0.85167027 -1.2129849 3.2710001
0.85032809 -1.2029725 3.2440002
0.85496038 -1.2014892 3.2400002
1.1645219 -1.1985226 3.2320001
1.1660324 -1.1885102 3.2050002
0.67172039 -1.1932249 3.233
0.67445558 -1.1880578 3.2190001
0.6779868 -1.1843671 3.2090001
0.69469082 -1.203559 3.2610002
1.2793547 -0.96698087 2.6200001
1.2854186 -0.96808809 2.6230001
1.2905095 -0.96845716 2.6240001
1.2867196 -0.96218288 2.6070001
1.2922812 -0.96292102 2.6090002
1.1214381 -1.1214381 3.0530002
1.1253147 -1.1199689 3.0490003
1.1280649 -1.1173975 3.0420001
1.1333985 -1.1173975 3.0420001
1.1372348 -1.1159283 3.0380001
1.1414331 -1.1148263 3.0350001
1.1422204 -1.1104184 3.0230002
1.1494187 -1.1122551 3.0280001
1.1573973 -1.1148263 3.0350001
1.1661665 -1.1181322 3.0440001
1.1730431 -1.1196015 3.0480001
1.1892123 -1.1298865 3.0760002
1.1934406 -1.1287845 3.0730002
1.1988285 -1.1287845 3.0730002
1.1920686 -1.1173975 3.0420001
1.1958277 -1.1159283 3.0380001
1.2011544 -1.1159283 3.0380001
1.2009211 -1.1107857 3.0240002
1.1910657 -1.0968275 2.9860001
1.1963011 -1.0968275 2.9860001
1.2035484 -1.098664 2.9910002
1.2087927 -1.098664 2.9910002
1.2140369 -1.098664 2.9910002
1.2082746 -1.0887463 2.9640002
1.2003706 -1.076992 2.9320002
1.2055113 -1.076992 2.9320002
1.2131295 -1.079196 2.9380002
1.1971331 -1.0604625 2.8870001
1.1917845 -1.0512794 2.8620002
1.1968025 -1.0512794 2.8620002
1.1921624 -1.0428309 2.8390002
1.1967183 -1.0424637 2.8380001
1.2029647 -1.0435656 2.8410001
1.208371 -1.0439329 2.8420002
1.2129271 -1.0435656 2.8410001
1.2033328 -1.0310766 2.8070002
1.2082545 -1.0310766 2.8070002
1.2140404 -1.0318112 2.809
1.2120223 -1.0259341 2.7930002
1.2195336 -1.028138 2.799
1.220504 -1.0248321 2.7900002
1.2253959 -1.0248321 2.7900002
1.2223504 -1.0182203 2.7720001
1.2418202 -1.030342 2.8050001
1.2462939 -1.0299746 2.8040001
1.2418395 -1.0222608 2.7830002
1.2395514 -1.0163836 2.7670002
1.2457521 -1.0174856 2.7700002
1.2488029 -1.0160164 2.766
1.2513864 -1.0141797 2.7610002
1.2553174 -1.013445 2.7590001
1.2574143 -1.0112411 2.753
1.2539884 -1.0046293 2.7350001
1.2587837 -1.0046293 2.7350001
1.2654271 -1.0060986 2.7390001
1.2567805 -0.99544621 2.71
1.2601355 -0.99434423 2.707
1.2648818 -0.99434423 2.707
1.2607168 -0.98736513 2.6880002
1.2654297 -0.98736513 2.6880002
1.2701427 -0.98736513 2.6880002
1.2686901 -0.9825899 2.6750002
1.2657638 -0.97671276 2.6590002
1.2828482 -0.98626316 2.6850002
1.2779652 -0.9789167 2.6650002
1.2754185 -0.97340685 2.6500001
1.2689549 -0.96495837 2.6270001
1.2658041 -0.95908123 2.6110001
1.2669762 -0.95650995 2.6040001
1.2774016 -0.96091783 2.6160002
1.2829684 -0.96165246 2.618
1.2791978 -0.95540798 2.6010001
1.2857325 -0.95687729 2.605
0.61698747 -1.1537389 3.1560001
0.62390172 -1.1562979 3.1630001
0.63601464 -1.1683617 3.1960001
0.64322436 -1.1712862 3.2040002
0.65572739 -1.1837157 3.2380002
0.66324306 -1.1870058 3.2470002
0.67223239 -1.1928549 3.2630002
0.67691463 -1.191027 3.2580001
0.6771794 -1.1815223 3.2320001
0.68284619 -1.1815223 3.2320001
0.69170839 -1.1870058 3.2470002
0.7012676 -1.193586 3.2650001
0.70699221 -1.193586 3.2650001
1.2090846 -1.0303288 2.832
1.2131927 -1.0296012 2.8300002
1.207824 -1.0208696 2.8060002
1.2136083 -1.0215971 2.8080001
1.2137581 -1.0175952 2.7970002
1.219098 -1.017959 2.7980001
1.220504 -1.0150485 2.7900002
1.2253959 -1.0150485 2.7900002
1.2355793 -1.0194143 2.802
1.2369504 -1.0165038 2.7940001
1.2440715 -1.0183228 2.799
1.2489791 -1.0183228 2.799
1.2408954 -1.0077722 2.7700002
1.247551 -1.0092274 2.7740002
1.2524147 -1.0092274 2.7740002
1.2531993 -1.0059531 2.7650001
1.2462176 -0.99649382 2.7390001
1.25102 -0.99649382 2.7390001
1.2539884 -0.99503857 2.7350001
1.2606248 -0.99649382 2.7390001
1.2654271 -0.99649382 2.7390001
1.2600268 -0.98848987 2.7170002
1.2647907 -0.98848987 2.7170002
1.2695545 -0.98848987 2.7170002
1.2630619 -0.97975826 2.6930001
1.264959 -0.97757536 2.687
1.2696702 -0.97757536 2.687
1.266793 -0.97175431 2.6710002
1.269096 -0.96993524 2.6660001
1.263737 -0.96229506 2.6450002
1.2607019 -0.95647401 2.6290002
1.2624236 -0.95429111 2.6230001
1.2670226 -0.95429111 2.6230001
1.2628953 -0.9477424 2.605
1.2674627 -0.9477424 2.605
1.2769132 -0.95138055 2.615
1.2741473 -0.94592333 2.6000001
1.2806733 -0.94737858 2.6040001
1.2882003 -0.94956148 2.6100001
1.2818795 -0.94155753 2.5880001
1.1338035 -1.1122586 3.072
1.1213899 -1.0948795 3.0240002
1.1117886 -1.080397 2.9840002
1.1170206 -1.080397 2.9840002
1.1143546 -1.0727936 2.9630001
1.1135043 -1.0670006 2.947
1.1186714 -1.0670006 2.947
1.1249825 -1.0680869 2.95
1.1634848 -1.0995864 3.0370002
1.1688097 -1.0995864 3.0370002
1.175681 -1.1010346 3.0410001
1.1775177 -1.0977761 3.0320001
1.1828337 -1.0977761 3.0320001
1.1830555 -1.0930692 3.0190001
1.1824445 -1.0876383 3.0040002
1.1786178 -1.0793108 2.9810002
1.1818589 -1.0775005 2.9760001
1.1842846 -1.0749661 2.9690001
1.1882883 -1.0738798 2.9660001
1.1946959 -1.0749661 2.9690001
1.1893939 -1.0655524 2.9430001
1.1933362 -1.0644662 2.9400001
1.197268 -1.06338 2.937
1.2024176 -1.06338 2.937
1.2075671 -1.06338 2.937
1.2028068 -1.0546905 2.9130001
1.204597 -1.0517939 2.9050002
1.2059426 -1.0485355 2.8960001
1.2097658 -1.0474492 2.8930001
1.2047601 -1.0387597 2.8690002
1.2097903 -1.0387597 2.8690002
1.224983 -1.0474492 2.8930001
1.219851 -1.0387597 2.8690002
1.2244544 -1.0383977 2.868
1.2136214 -1.0250013 2.8310001
1.2095457 -1.017398 2.8100002
1.2136083 -1.0166738 2.8080001
1.2146261 -1.0134152 2.799
1.2199693 -1.0137774 2.8000002
1.220504 -1.0101568 2.7900002
1.2253959 -1.0101568 2.7900002
1.2333745 -1.0126911 2.7970002
1.2449193 -1.0181221 2.812
1.252072 -1.0199324 2.8170002
1.2529951 -1.0166738 2.8080001
1.2458231 -1.0068982 2.7810001
1.2515986 -1.0076222 2.7830002
1.2533177 -1.0050879 2.776
1.2554655 -1.0029154 2.7700002
1.2707721 -0.95946783 2.6500001
1.2633862 -0.95041627 2.6250002
1.2670226 -0.94969213 2.6230001
0.61952895 -1.1418223 3.1690001
0.62429625 -1.1403811 3.1650002
0.6378057 -1.1547935 3.2050002
0.64302361 -1.1540729 3.2030001
0.65552485 -1.1663234 3.2370002
0.66017908 -1.1645219 3.2320001
0.66460979 -1.1623601 3.2260001
0.66964269 -1.1612791 3.223
0.68178892 -1.1724488 3.2540002
0.68221235 -1.1634409 3.2290001
0.68851298 -1.1645219 3.2320001
0.69869018 -1.1720884 3.2530003
0.70937413 -1.1803756 3.2760003
0.7199204 -1.1883024 3.2980001
0.71822143 -1.1760519 3.2640002
0.72394431 -1.1760519 3.2640002
0.62148392 -1.1398517 3.1790001
0.62252098 -1.1316048 3.1560001
0.63601464 -1.1459471 3.1960001
0.64222056 -1.1470227 3.1990001
0.65471482 -1.1592137 3.233
0.66038334 -1.1592137 3.233
0.66460979 -1.1567038 3.2260001
0.67462921 -1.1642334 3.2470002
0.68702698 -1.1757073 3.279
0.68707174 -1.1660262 3.2520001
0.69085628 -1.1627992 3.2430003
0.69954932 -1.167819 3.2570002
0.7132718 -1.1810857 3.2940001
0.71970212 -1.1821613 3.2970002
0.71822143 -1.170329 3.2640002
0.72394431 -1.170329 3.2640002
0.73749143 -1.1828785 3.2990003
0.62676233 -1.1439115 3.2060001
0.63120002 -1.1417706 3.2
0.63681066 -1.1417706 3.2
0.64161831 -1.1403434 3.1960001
0.65471482 -1.1535451 3.233
0.6667155 -1.1646061 3.2640002
0.66460979 -1.1510476 3.2260001
0.67462921 -1.1585404 3.2470002
0.68597937 -1.1681741 3.2740002
0.68495893 -1.1567564 3.2420001
0.69149536 -1.1581836 3.2460001
0.70620757 -1.1731694 3.2880001
0.7132718 -1.1753101 3.2940001
0.71970212 -1.1763806 3.2970002
0.72746325 -1.1795918 3.3060002
0.25082222 -0.45552915 1.2830001
0.25307176 -0.45552915 1.2830001
0.25532126 -0.45552915 1.2830001
0.647641 -1.1453913 3.2260001
0.65329725 -1.1453913 3.2260001
0.65282559 -1.1347398 3.1960001
0.65904731 -1.1358049 3.1990001
0.66569507 -1.1375802 3.2040002
0.67655087 -1.1464565 3.2290001
0.67925447 -1.1414857 3.2150002
0.68787384 -1.1464565 3.2290001
0.70019364 -1.157463 3.2600002
0.71283871 -1.1688246 3.2920001
0.72101188 -1.1727301 3.3030002
0.73406458 -1.1844468 3.3360002
0.7399137 -1.1844468 3.3360002
0.74576283 -1.1844468 3.3360002
0.75161189 -1.1844468 3.3360002
0.7540552 -1.179121 3.3210001
0.75987798 -1.179121 3.3210001
0.25082222 -0.45327961 1.2830001
0.25307176 -0.45327961 1.2830001
0.25512227 -0.45292634 1.2820001
0.25737005 -0.45292634 1.2820001
0.65471482 -1.1422081 3.233
0.65977055 -1.1411482 3.2300003
0.65842927 -1.1291361 3.1960001
0.66133189 -1.1245433 3.1830001
0.6771794 -1.1418548 3.2320001
0.67925447 -1.1358488 3.2150002
0.68893903 -1.1425614 3.2340002
0.70019364 -1.1517471 3.2600002
0.71543711 -1.1672922 3.3040001
0.72515935 -1.1736516 3.3220003
0.73406458 -1.1785977 3.3360002
0.7399137 -1.1785977 3.3360002
0.74576283 -1.1785977 3.3360002
0.75161189 -1.1785977 3.3360002
0.7540552 -1.1732982 3.3210001
0.75987798 -1.1732982 3.3210001
0.76823699 -1.1771845 3.3320003
0.77593768 -1.1800109 3.3400002
0.78179377 -1.1800109 3.3400002
0.81180733 -1.1983823 3.3920002
0.81775469 -1.1983823 3.3920002
0.82370198 -1.1983823 3.3920002
0.81937647 -1.1835438 3.3500001
0.84963816 -1.2185202 3.4490001
0.24964924 -0.44892085 1.2770001
0.25169098 -0.4485693 1.276
0.25412726 -0.44892085 1.2770001
0.25576398 -0.4478662 1.274
0.64904457 -1.1266963 3.2050002
0.65486825 -1.1270479 3.2060001
0.66048944 -1.1270479 3.2060001
0.66361737 -1.1228294 3.1940002
0.6813699 -1.1432189 3.2520001
0.68115598 -1.1333756 3.2240002
0.69085628 -1.1400551 3.2430003
0.70019364 -1.1460313 3.2600002
0.71933478 -1.1678269 3.3220003
0.72668743 -1.1702877 3.3290002
0.7331844 -1.1713424 3.3320003
0.73902649 -1.1713424 3.3320003
0.74576283 -1.1727486 3.3360002
0.75161189 -1.1727486 3.3360002
0.75519049 -1.1692331 3.3260002
0.76102203 -1.1692331 3.3260002
0.76938987 -1.1731001 3.3370001
0.77570534 -1.1738032 3.3390002
0.78155971 -1.1738032 3.3390002
0.79165894 -1.180131 3.3570001
0.7932685 -1.1738032 3.3390002
0.80702078 -1.1854041 3.3720002
0.80328965 -1.1713424 3.3320003
0.80816042 -1.1699362 3.3280001
0.81130505 -1.1660693 3.3170002
0.8225404 -1.1738032 3.3390002
0.83583766 -1.1843495 3.3690002
1.2087927 -1.0514661 2.9910002
1.178318 -1.0205303 2.9030001
1.1789238 -1.0166633 2.8920002
1.2186683 -1.0419744 2.9640002
1.2023939 -1.0236942 2.9120002
1.2091583 -1.0251004 2.9160001
1.2088575 -1.0205303 2.9030001
1.2122748 -1.0191242 2.8990002
1.2144183 -1.0166633 2.8920002
1.2131637 -1.0113902 2.8770001
1.2105863 -1.0050623 2.8590002
1.20582 -0.99697691 2.8360002
1.2013998 -0.98924291 2.8140001
1.2033328 -0.98678213 2.8070002
1.2121284 -0.98994601 2.8160002
1.213176 -0.98678213 2.8070002
1.2215693 -0.98959446 2.8150001
1.2278119 -0.9906491 2.8180001
1.2231288 -0.98291516 2.7960002
1.227592 -0.98256361 2.7950001
1.2369021 -0.98607904 2.8050001
1.2342941 -0.98010278 2.7880001
1.228515 -0.97166574 2.7640002
1.2315764 -0.97025961 2.7600002
1.2606248 -0.96287715 2.7390001
1.2654271 -0.96287715 2.7390001
1.2614181 -0.95619786 2.72
1.2100052 -1.0472713 2.9940002
1.182377 -1.0189383 2.9130001
1.1850386 -1.0168395 2.9070001
1.2023939 -1.0185884 2.9120002
1.2066703 -1.0178889 2.9100001
1.206359 -1.0133417 2.8970001
1.2110204 -1.0129918 2.8960001
1.2131585 -1.0105433 2.8890002
1.2224406 -1.0140412 2.8990002
1.2118566 -1.001099 2.8620002
1.2066703 -0.99270403 2.8380001
1.2065231 -0.98850656 2.8260002
1.2076197 -0.98535842 2.8170002
1.2116979 -0.98465884 2.8150001
1.2144727 -0.98290992 2.8100002
1.2220032 -0.98500866 2.8160002
1.2195336 -0.9790622 2.799
1.2126299 -0.9696179 2.7720001
1.2183685 -0.97031748 2.7740002
1.2276419 -0.97381538 2.7840002
1.2342941 -0.97521454 2.7880001
