# .PCD v0.7 - Point Cloud Data file format
VERSION 0.7
FIELDS x y z
SIZE 4 4 4
TYPE F F F
COUNT 1 1 1
WIDTH 746
HEIGHT 1
VIEWPOINT 0 0 0 1 0 0 0
POINTS 746
DATA ascii
-0.054320019 -0.22279081 0.89800006
-0.052980471 -0.2237832 0.90200007
-0.051398966 -0.2237832 0.90200007
-0.049817462 -0.2237832 0.90200007
-0.048182476 -0.22353509 0.90100002
-0.04670617 -0.22403128 0.90300006
-0.04527282 -0.22477558 0.90600002
-0.043636084 -0.22452748 0.90500003
-0.04209578 -0.22477558 0.90600002
-0.040417839 -0.22427939 0.90400004
-0.038703956 -0.22353509 0.90100002
-0.037041798 -0.2230389 0.89900005
-0.03546555 -0.2230389 0.89900005
-0.033889305 -0.2230389 0.89900005
-0.032205228 -0.22229461 0.89600003
-0.030634239 -0.22229461 0.89600003
-0.029063253 -0.22229461 0.89600003
-0.027553633 -0.22279081 0.89800006
-0.025979139 -0.22279081 0.89800006
-0.024268763 -0.22155032 0.89300007
-0.022677613 -0.22130223 0.89200002
-0.02123199 -0.2225427 0.89700001
-0.019703083 -0.2230389 0.89900005
-0.018146999 -0.223287 0.90000004
-0.01658741 -0.22353509 0.90100002
-0.015057626 -0.22427939 0.90400004
-0.013442807 -0.2237832 0.90200007
-0.01184815 -0.22353509 0.90100002
-0.010245604 -0.2230389 0.89900005
-0.008659713 -0.22279081 0.89800006
-0.0071009998 -0.223287 0.90000004
-0.0055168634 -0.2230389 0.89900005
-0.0039362335 -0.22279081 0.89800006
-0.00236174 -0.22279081 0.89800006
-0.00078724668 -0.22279081 0.89800006
0.00078900001 -0.223287 0.90000004
0.0023670001 -0.223287 0.90000004
0.003945 -0.223287 0.90000004
0.0055107265 -0.22279081 0.89800006
0.0070694401 -0.22229461 0.89600003
0.0086404262 -0.22229461 0.89600003
0.010211414 -0.22229461 0.89600003
0.0117824 -0.22229461 0.89600003
0.01336829 -0.2225427 0.89700001
0.01494103 -0.2225427 0.89700001
0.01651377 -0.2225427 0.89700001
0.018126836 -0.2230389 0.89900005
0.019681167 -0.22279081 0.89800006
0.02123199 -0.2225427 0.89700001
0.022855576 -0.2230389 0.89900005
0.024459001 -0.223287 0.90000004
0.026037 -0.223287 0.90000004
0.027553633 -0.22279081 0.89800006
0.029128127 -0.22279081 0.89800006
0.03083938 -0.2237832 0.90200007
0.032528717 -0.22452748 0.90500003
-0.05401757 -0.21841887 0.89300007
-0.052510578 -0.21866345 0.89400005
-0.051057067 -0.21915264 0.89600003
-0.049486078 -0.21915264 0.89600003
-0.047808141 -0.21866345 0.89400005
-0.046395831 -0.21939723 0.89700001
-0.044823091 -0.21939723 0.89700001
-0.043491434 -0.22062019 0.90200007
-0.041863464 -0.22037558 0.90100002
-0.040194288 -0.21988641 0.89900005
-0.038618043 -0.21988641 0.89900005
-0.037041798 -0.21988641 0.89900005
-0.03546555 -0.21988641 0.89900005
-0.033813909 -0.21939723 0.89700001
-0.032241169 -0.21939723 0.89700001
-0.03056586 -0.21866345 0.89400005
-0.02890107 -0.21792969 0.89100003
-0.027338849 -0.21792969 0.89100003
-0.02583449 -0.21841887 0.89300007
-0.024160057 -0.21744052 0.88900006
-0.02257592 -0.21719591 0.88800007
-0.02104263 -0.21744052 0.88900006
-0.019505832 -0.2176851 0.89000005
-0.017985694 -0.21817428 0.89200002
-0.01642172 -0.21817428 0.89200002
-0.01489106 -0.21866345 0.89400005
-0.013293773 -0.21817428 0.89200002
-0.0117298 -0.21817428 0.89200002
-0.010131637 -0.21744052 0.88900006
-0.0085632801 -0.21719591 0.88800007
-0.0070142099 -0.21744052 0.88900006
-0.0054616332 -0.2176851 0.89000005
-0.027001332 -0.21369627 0.88000005
0.014774463 -0.21539612 0.88700002
0.01632967 -0.21539612 0.88700002
0.017884877 -0.21539612 0.88700002
0.019505832 -0.21612464 0.89000005
0.020995289 -0.21539612 0.88700002
0.022525074 -0.21515329 0.88600004
0.024078526 -0.21515329 0.88600004
0.025631979 -0.21515329 0.88600004
0.027093383 -0.21442477 0.88300002
0.028641576 -0.21442477 0.88300002
0.030189769 -0.21442477 0.88300002
0.031737965 -0.21442477 0.88300002
0.033210762 -0.2139391 0.88100004
0.03475545 -0.2139391 0.88100004
0.036300138 -0.2139391 0.88100004
0.037844822 -0.2139391 0.88100004
0.03938951 -0.2139391 0.88100004
0.041445293 -0.21661031 0.89200002
0.042864617 -0.21588179 0.88900006
0.044273421 -0.21515329 0.88600004
0.045826875 -0.21515329 0.88600004
0.047487281 -0.21563897 0.88800007
0.048933778 -0.21515329 0.88600004
0.050487231 -0.21515329 0.88600004
0.052040685 -0.21515329 0.88600004
0.053352181 -0.21418194 0.88200003
0.05489862 -0.21418194 0.88200003
0.056445058 -0.21418194 0.88200003
0.057991501 -0.21418194 0.88200003
0.059672948 -0.21466762 0.88400006
0.061222892 -0.21466762 0.88400006
0.06277284 -0.21466762 0.88400006
0.064250022 -0.21442477 0.88300002
0.065798216 -0.21442477 0.88300002
0.067575216 -0.21515329 0.88600004
0.06912867 -0.21515329 0.88600004
0.070682123 -0.21515329 0.88600004
0.071990989 -0.21442477 0.88300002
0.073539183 -0.21442477 0.88300002
0.075172409 -0.21466762 0.88400006
0.076982729 -0.21539612 0.88700002
0.078272305 -0.21466762 0.88400006
0.079551362 -0.2139391 0.88100004
0.081096053 -0.2139391 0.88100004
0.082922146 -0.21466762 0.88400006
0.084185421 -0.2139391 0.88100004
0.085730113 -0.2139391 0.88100004
0.087274797 -0.2139391 0.88100004
0.088920303 -0.21418194 0.88200003
0.09056931 -0.21442477 0.88300002
0.091908857 -0.2139391 0.88100004
0.093453541 -0.2139391 0.88100004
0.094890401 -0.21369627 0.88000005
0.096323751 -0.21345343 0.87900007
0.097864926 -0.21345343 0.87900007
0.099406108 -0.21345343 0.87900007
0.10094729 -0.21345343 0.87900007
0.10248847 -0.21345343 0.87900007
0.1039113 -0.2132106 0.87800002
0.10545073 -0.2132106 0.87800002
0.10699015 -0.2132106 0.87800002
0.10865319 -0.21345343 0.87900007
0.11082119 -0.21466762 0.88400006
0.11237113 -0.21466762 0.88400006
0.11392108 -0.21466762 0.88400006
0.11547103 -0.21466762 0.88400006
0.11702097 -0.21466762 0.88400006
0.11857092 -0.21466762 0.88400006
0.12012087 -0.21466762 0.88400006
-0.052868258 -0.21070683 0.87400001
-0.051394582 -0.21094792 0.87500006
-0.050316282 -0.21287659 0.88300002
-0.048381481 -0.211189 0.87600005
-0.046738606 -0.21070683 0.87400001
-0.045154471 -0.21046574 0.87300003
-0.043623809 -0.21046574 0.87300003
-0.042141367 -0.21070683 0.87400001
-0.040469564 -0.20998359 0.87100005
-0.038942412 -0.20998359 0.87100005
-0.037415255 -0.20998359 0.87100005
-0.035764493 -0.20926033 0.86800003
-0.0342426 -0.20926033 0.86800003
-0.032871492 -0.21022466 0.87200004
-0.03137853 -0.21046574 0.87300003
-0.02995044 -0.211189 0.87600005
0.073289335 -0.2106104 0.88000005
0.074832268 -0.2106104 0.88000005
0.076548778 -0.21108906 0.88200003
0.077918135 -0.2106104 0.88000005
0.07919018 -0.20989241 0.87700003
0.081096053 -0.21084973 0.88100004
0.082640737 -0.21084973 0.88100004
0.083803199 -0.20989241 0.87700003
0.085340872 -0.20989241 0.87700003
0.087274797 -0.21084973 0.88100004
0.088920303 -0.21108906 0.88200003
0.090466738 -0.21108906 0.88200003
0.091491565 -0.20989241 0.87700003
0.093029238 -0.20989241 0.87700003
0.094566911 -0.20989241 0.87700003
0.096214168 -0.21013173 0.87800002
0.097753592 -0.21013173 0.87800002
0.098953746 -0.20941375 0.87500006
0.10048792 -0.20941375 0.87500006
0.10225528 -0.20989241 0.87700003
0.1036746 -0.20965308 0.87600005
0.10509042 -0.20941375 0.87500006
0.10662458 -0.20941375 0.87500006
0.10815875 -0.20941375 0.87500006
0.10981828 -0.20965308 0.87600005
0.11160843 -0.21013173 0.87800002
0.11314786 -0.21013173 0.87800002
0.11442604 -0.20965308 0.87600005
0.11596196 -0.20965308 0.87600005
0.11790027 -0.21037106 0.87900007
0.11930557 -0.21013173 0.87800002
-0.052565809 -0.20493047 0.86900002
-0.050983425 -0.20469466 0.86800003
-0.049461532 -0.20469466 0.86800003
-0.047884408 -0.20445883 0.86700004
-0.04636427 -0.20445883 0.86700004
-0.044792406 -0.20422301 0.86600006
-0.04332399 -0.20445883 0.86700004
-0.041803848 -0.20445883 0.86700004
-0.04028371 -0.20445883 0.86700004
-0.038718861 -0.20422301 0.86600006
-0.03724343 -0.20445883 0.86700004
-0.035764493 -0.20469466 0.86800003
-0.034203149 -0.20445883 0.86700004
-0.032569919 -0.20375136 0.86400002
-0.031019097 -0.20351553 0.86300004
-0.02957435 -0.20398718 0.86500007
-0.028122589 -0.20445883 0.86700004
-0.026602451 -0.20445883 0.86700004
-0.025024449 -0.20398718 0.86500007
-0.023507817 -0.20398718 0.86500007
-0.021991184 -0.20398718 0.86500007
-0.02049822 -0.20422301 0.86600006
-0.019023666 -0.20469466 0.86800003
-0.017501773 -0.20469466 0.86800003
-0.015998289 -0.20493047 0.86900002
-0.014507957 -0.20540212 0.87100005
-0.01301061 -0.20587377 0.87300003
-0.0114668 -0.20563795 0.87200004
-0.009926497 -0.20540212 0.87100005
-0.0083897002 -0.2051663 0.87000006
-0.0069353101 -0.20728871 0.87900007
-0.0053879935 -0.20705289 0.87800002
-0.0038397999 -0.20658123 0.87600005
-0.00230651 -0.20681706 0.87700003
-0.00076883665 -0.20681706 0.87700003
0.00076883665 -0.20681706 0.87700003
0.00230651 -0.20681706 0.87700003
0.0038441834 -0.20681706 0.87700003
0.0035040367 -0.13465512 0.57100004
0.0044972999 -0.13441929 0.57000005
0.0054774131 -0.13394766 0.56800002
0.0064960998 -0.13441929 0.57000005
0.0074955001 -0.13441929 0.57000005
0.0084948996 -0.13441929 0.57000005
0.0095109567 -0.13465512 0.57100004
0.01053052 -0.13489094 0.57200003
0.011533427 -0.13489094 0.57200003
0.0124925 -0.13441929 0.57000005
0.020805931 -0.20728871 0.87900007
0.022423379 -0.20799617 0.88200003
0.02388829 -0.20728871 0.87900007
0.02542947 -0.20728871 0.87900007
0.026970649 -0.20728871 0.87900007
0.02851183 -0.20728871 0.87900007
0.03005301 -0.20728871 0.87900007
0.020667417 -0.13559842 0.57500005
0.021637887 -0.1353626 0.574
0.0226443 -0.1353626 0.574
0.023650713 -0.1353626 0.574
0.024571214 -0.13489094 0.57200003
0.02557412 -0.13489094 0.57200003
0.026577026 -0.13489094 0.57200003
0.027579933 -0.13489094 0.57200003
0.02863281 -0.13512677 0.57300001
0.029637469 -0.13512677 0.57300001
0.030588653 -0.13489094 0.57200003
0.031702019 -0.1353626 0.574
0.03265145 -0.13512677 0.57300001
0.033538636 -0.13465512 0.57100004
0.034479301 -0.13441929 0.57000005
0.0354787 -0.13441929 0.57000005
0.036478098 -0.13441929 0.57000005
0.037543248 -0.13465512 0.57100004
0.038476899 -0.13441929 0.57000005
0.039476302 -0.13441929 0.57000005
0.040404689 -0.13418348 0.56900001
0.041475099 -0.13441929 0.57000005
0.042474501 -0.13441929 0.57000005
0.043473899 -0.13441929 0.57000005
0.044395275 -0.13418348 0.56900001
0.045392923 -0.13418348 0.56900001
0.046390571 -0.13418348 0.56900001
0.047304932 -0.13394766 0.56800002
0.074492119 -0.20658123 0.87600005
0.076028042 -0.20658123 0.87600005
0.077298328 -0.20587377 0.87300003
-0.03245683 -0.20002465 0.86100006
-0.031055041 -0.20072159 0.86400002
-0.02943759 -0.20002465 0.86100006
-0.027863096 -0.19956002 0.85900003
-0.026479717 -0.20048928 0.86300004
-0.02496659 -0.20048928 0.86300004
-0.023453463 -0.20048928 0.86300004
-0.021940336 -0.20048928 0.86300004
-0.020474549 -0.20095392 0.86500007
-0.018957917 -0.20095392 0.86500007
-0.017441284 -0.20095392 0.86500007
-0.015924649 -0.20095392 0.86500007
-0.0034549434 -0.13079429 0.56300002
-0.0024722 -0.1310266 0.56400001
-0.00148332 -0.1310266 0.56400001
-0.00049707002 -0.13172355 0.56700003
0.00049707002 -0.13172355 0.56700003
0.00149121 -0.13172355 0.56700003
0.0024897333 -0.13195586 0.56800002
0.0034917633 -0.13218819 0.56900001
0.0044894102 -0.13218819 0.56900001
0.0054677702 -0.13172355 0.56700003
0.0064847032 -0.13218819 0.56900001
0.0074955001 -0.1324205 0.57000005
0.0084948996 -0.1324205 0.57000005
0.028582839 -0.13188222 0.57200003
0.029585747 -0.13188222 0.57200003
0.030588653 -0.13188222 0.57200003
0.031591561 -0.13188222 0.57200003
0.032594465 -0.13188222 0.57200003
0.033538636 -0.13165167 0.57100004
0.034479301 -0.1314211 0.57000005
0.0354787 -0.1314211 0.57000005
0.036478098 -0.1314211 0.57000005
0.037477501 -0.1314211 0.57000005
0.038544402 -0.13165167 0.57100004
0.039545555 -0.13165167 0.57100004
0.0404757 -0.1314211 0.57000005
0.041475099 -0.1314211 0.57000005
0.042399984 -0.13119054 0.56900001
0.043397631 -0.13119054 0.56900001
0.044395275 -0.13119054 0.56900001
0.045392923 -0.13119054 0.56900001
0.046390571 -0.13119054 0.56900001
0.047304932 -0.13095997 0.56800002
0.048215788 -0.13072941 0.56700003
0.04920993 -0.13072941 0.56700003
0.050115526 -0.13049884 0.56600004
0.051017616 -0.13026828 0.565
0.051916201 -0.13003772 0.56400001
0.052811276 -0.12980716 0.56300002
0.053702846 -0.12957659 0.56200004
0.054590911 -0.12934603 0.56100005
0.055574529 -0.12934603 0.56100005
0.056356516 -0.1288849 0.55900002
0.057336628 -0.1288849 0.55900002
0.058525391 -0.12934603 0.56100005
0.059402931 -0.12911546 0.56
0.060492631 -0.12934603 0.56100005
0.061257083 -0.1288849 0.55900002
0.10497031 -0.20151235 0.87400001
0.10650273 -0.20151235 0.87400001
0.10716987 -0.19989841 0.86700004
0.10856465 -0.19966784 0.86600006
0.10944745 -0.19851503 0.86100006
0.11057046 -0.19782335 0.85800004
0.11207482 -0.19782335 0.85800004
0.11331443 -0.19736221 0.85600007
0.11494941 -0.19759278 0.85700005
0.11645202 -0.19759278 0.85700005
0.02863281 -0.13010347 0.57300001
0.029585747 -0.12987642 0.57200003
0.030588653 -0.12987642 0.57200003
0.03153633 -0.12964936 0.57100004
0.032537483 -0.12964936 0.57100004
0.033479899 -0.12942229 0.57000005
0.034479301 -0.12942229 0.57000005
0.0354787 -0.12942229 0.57000005
0.036478098 -0.12942229 0.57000005
0.037477501 -0.12942229 0.57000005
0.038476899 -0.12942229 0.57000005
0.039476302 -0.12942229 0.57000005
0.0404757 -0.12942229 0.57000005
0.041475099 -0.12942229 0.57000005
0.042399984 -0.12919524 0.56900001
0.043397631 -0.12919524 0.56900001
0.044317253 -0.12896818 0.56800002
0.045313146 -0.12896818 0.56800002
0.046390571 -0.12919524 0.56900001
0.047304932 -0.12896818 0.56800002
0.048215788 -0.12874113 0.56700003
0.04903635 -0.12828702 0.565
0.050026983 -0.12828702 0.565
0.050746728 -0.12760584 0.56200004
0.051824149 -0.1278329 0.56300002
0.052811276 -0.1278329 0.56300002
0.053702846 -0.12760584 0.56200004
0.054590911 -0.12737879 0.56100005
0.055673592 -0.12760584 0.56200004
0.056658965 -0.12760584 0.56200004
0.057439201 -0.12715173 0.56
-0.01023596 -0.1242938 0.55600005
-0.0092611071 -0.1242938 0.55600005
-0.0082862535 -0.1242938 0.55600005
-0.0073114 -0.1242938 0.55600005
-0.0063479431 -0.12451735 0.55700004
-0.0054002665 -0.12518799 0.56
-0.00441051 -0.12496445 0.55900002
-0.0034365333 -0.12518799 0.56
-0.0024546667 -0.12518799 0.56
-0.00147543 -0.12541156 0.56100005
-0.0004935633 -0.12585865 0.56300002
0.00049443997 -0.1260822 0.56400001
0.00148858 -0.12652931 0.56600004
0.00248535 -0.12675285 0.56700003
0.0034856265 -0.1269764 0.56800002
0.00448152 -0.1269764 0.56800002
0.0054870564 -0.12719995 0.56900001
0.0064960998 -0.1274235 0.57000005
0.0074692001 -0.1269764 0.56800002
0.0084650936 -0.1269764 0.56800002
0.0094943 -0.1274235 0.57000005
0.01047529 -0.12719995 0.56900001
0.011472937 -0.12719995 0.56900001
0.012448667 -0.1269764 0.56800002
0.0134919 -0.1274235 0.57000005
0.0144913 -0.1274235 0.57000005
0.0154907 -0.1274235 0.57000005
0.0164901 -0.1274235 0.57000005
0.0174895 -0.1274235 0.57000005
0.018521337 -0.12764704 0.57100004
0.01952249 -0.12764704 0.57100004
0.020523643 -0.12764704 0.57100004
0.021600191 -0.12809415 0.57300001
0.0226443 -0.1283177 0.574
0.02360951 -0.12809415 0.57300001
0.024571214 -0.1278706 0.57200003
0.025529411 -0.12764704 0.57100004
0.026577026 -0.1278706 0.57200003
0.02762815 -0.12809415 0.57300001
0.028582839 -0.1278706 0.57200003
0.029585747 -0.1278706 0.57200003
0.030588653 -0.1278706 0.57200003
0.03153633 -0.12764704 0.57100004
0.032480501 -0.1274235 0.57000005
0.033479899 -0.1274235 0.57000005
0.03441881 -0.12719995 0.56900001
0.035416458 -0.12719995 0.56900001
0.036414102 -0.12719995 0.56900001
0.037477501 -0.1274235 0.57000005
0.038476899 -0.1274235 0.57000005
0.039476302 -0.1274235 0.57000005
0.0404757 -0.1274235 0.57000005
0.041475099 -0.1274235 0.57000005
0.042399984 -0.12719995 0.56900001
0.043397631 -0.12719995 0.56900001
0.044317253 -0.1269764 0.56800002
0.045313146 -0.1269764 0.56800002
0.046309039 -0.1269764 0.56800002
0.047221649 -0.12675285 0.56700003
0.048130754 -0.12652931 0.56600004
0.04903635 -0.12630574 0.565
0.050026983 -0.12630574 0.565
0.050927319 -0.1260822 0.56400001
0.052008249 -0.12630574 0.565
0.052811276 -0.12585865 0.56300002
0.053798404 -0.12585865 0.56300002
0.054688219 -0.1256351 0.56200004
0.055673592 -0.1256351 0.56200004
0.056658965 -0.1256351 0.56200004
0.057439201 -0.12518799 0.56
0.058421068 -0.12518799 0.56
0.059296858 -0.12496445 0.55900002
0.060169138 -0.1247409 0.55800003
0.060928334 -0.1242938 0.55600005
0.061903186 -0.1242938 0.55600005
0.065456316 -0.12183475 0.54500002
0.00646191 -0.12476457 0.56700003
0.0074560498 -0.12476457 0.56700003
0.0084501896 -0.12476457 0.56700003
0.0094609866 -0.12498461 0.56800002
0.01047529 -0.12520465 0.56900001
0.011472937 -0.12520465 0.56900001
0.012470583 -0.12520465 0.56900001
0.0134919 -0.1254247 0.57000005
0.0144913 -0.1254247 0.57000005
0.0154907 -0.1254247 0.57000005
0.016519031 -0.12564474 0.57100004
0.0174895 -0.1254247 0.57000005
0.018521337 -0.12564474 0.57100004
0.019556681 -0.12586479 0.57200003
0.020559587 -0.12586479 0.57200003
0.021600191 -0.12608483 0.57300001
0.0225654 -0.12586479 0.57200003
0.023485899 -0.1254247 0.57000005
0.024485299 -0.1254247 0.57000005
0.025439991 -0.12520465 0.56900001
0.026437636 -0.12520465 0.56900001
0.027483501 -0.1254247 0.57000005
0.028482899 -0.1254247 0.57000005
0.029534023 -0.12564474 0.57100004
0.030428223 -0.12520465 0.56900001
0.031481098 -0.1254247 0.57000005
0.032594465 -0.12586479 0.57200003
0.033479899 -0.1254247 0.57000005
0.068515882 -0.11765831 0.53900003
0.069589801 -0.1178766 0.54000002
-0.013982833 -0.11909517 0.55000001
-0.0130185 -0.11909517 0.55000001
-0.012076084 -0.11931171 0.551
-0.011109997 -0.11931171 0.551
-0.01016232 -0.11952824 0.55200005
-0.009211137 -0.11974478 0.55300003
-0.0082862535 -0.12039439 0.55600005
-0.0072982498 -0.12017785 0.55500001
-0.0063365465 -0.12039439 0.55600005
-0.0053713368 -0.12061092 0.55700004
-0.0044026198 -0.12082746 0.55800003
-0.0034303966 -0.121044 0.55900002
-0.0024502834 -0.121044 0.55900002
-0.0014728 -0.12126053 0.56
-0.00049180997 -0.12147707 0.56100005
0.00049268664 -0.1216936 0.56200004
0.00147806 -0.1216936 0.56200004
0.0024678167 -0.12191014 0.56300002
0.0034610799 -0.12212668 0.56400001
0.0044657402 -0.12255976 0.56600004
0.0054581268 -0.12255976 0.56600004
0.00646191 -0.12277629 0.56700003
0.0074560498 -0.12277629 0.56700003
0.0084650936 -0.12299283 0.56800002
0.0094776433 -0.12320936 0.56900001
0.01047529 -0.12320936 0.56900001
0.011472937 -0.12320936 0.56900001
0.0124925 -0.1234259 0.57000005
0.0134919 -0.1234259 0.57000005
0.0144913 -0.1234259 0.57000005
0.0154907 -0.1234259 0.57000005
0.016519031 -0.12364244 0.57100004
0.0174895 -0.1234259 0.57000005
0.018521337 -0.12364244 0.57100004
0.019556681 -0.12385897 0.57200003
0.020559587 -0.12385897 0.57200003
0.021524796 -0.12364244 0.57100004
0.0225654 -0.12385897 0.57200003
0.023527103 -0.12364244 0.57100004
0.024485299 -0.1234259 0.57000005
0.025529411 -0.12364244 0.57100004
0.0264841 -0.1234259 0.57000005
0.027435282 -0.12320936 0.56900001
0.02843293 -0.12320936 0.56900001
0.029430576 -0.12320936 0.56900001
0.030428223 -0.12320936 0.56900001
0.031425871 -0.12320936 0.56900001
0.032594465 -0.12385897 0.57200003
0.033597372 -0.12385897 0.57200003
0.034539789 -0.12364244 0.57100004
0.035540942 -0.12364244 0.57100004
0.036414102 -0.12320936 0.56900001
0.037477501 -0.1234259 0.57000005
0.038476899 -0.1234259 0.57000005
0.039476302 -0.1234259 0.57000005
0.0404757 -0.1234259 0.57000005
0.041475099 -0.1234259 0.57000005
-0.013931987 -0.11674044 0.54800004
-0.01299483 -0.11695347 0.54900002
-0.012010333 -0.11674044 0.54800004
-0.011089833 -0.1171665 0.55000001
-0.0101255 -0.1171665 0.55000001
-0.0091778236 -0.11737953 0.551
-0.0082564466 -0.11801862 0.55400002
-0.0072982498 -0.11823165 0.55500001
-0.0063251499 -0.11823165 0.55500001
-0.0053616934 -0.11844468 0.55600005
-0.0043947301 -0.11865771 0.55700004
-0.0034242601 -0.11887074 0.55800003
-0.0024502834 -0.11908377 0.55900002
-0.00147017 -0.11908377 0.55900002
-0.00049180997 -0.11950983 0.56100005
0.00049443997 -0.12014892 0.56400001
0.00148595 -0.12036195 0.565
0.0024722 -0.12014892 0.56400001
0.0034672166 -0.12036195 0.565
-0.011109997 -0.11544736 0.551
-0.0101255 -0.11523783 0.55000001
-0.0091944803 -0.11565688 0.55200005
-0.0082415435 -0.1158664 0.55300003
-0.0072850999 -0.11607593 0.55400002
-0.0063251499 -0.11628545 0.55500001
-0.0053520501 -0.11628545 0.55500001
-0.0043947301 -0.11670449 0.55700004
-0.0034242601 -0.11691402 0.55800003
-0.0024458999 -0.11691402 0.55800003
-0.00147017 -0.11712354 0.55900002
-0.00049180997 -0.11754259 0.56100005
0.00049443997 -0.11817116 0.56400001
0.00148332 -0.11817116 0.56400001
0.0024765832 -0.11838068 0.565
0.0034733533 -0.11859021 0.56600004
0.0044657402 -0.11859021 0.56600004
0.0054677702 -0.11879973 0.56700003
0.0064847032 -0.11921877 0.56900001
0.0074955001 -0.1194283 0.57000005
0.0085098036 -0.11963782 0.57100004
0.0094943 -0.1194283 0.57000005
0.01051211 -0.11963782 0.57100004
0.0114931 -0.1194283 0.57000005
0.0124925 -0.1194283 0.57000005
0.01351557 -0.11963782 0.57100004
0.014516723 -0.11963782 0.57100004
0.015517876 -0.11963782 0.57100004
-0.0082713496 -0.11433925 0.55500001
-0.0072982498 -0.11433925 0.55500001
-0.0063251499 -0.11433925 0.55500001
-0.0053520501 -0.11433925 0.55500001
-0.0043868399 -0.11454526 0.55600005
-0.0034181233 -0.11475128 0.55700004
0.01353924 -0.11583572 0.57200003
0.014542147 -0.11583572 0.57200003
0.015545053 -0.11583572 0.57200003
0.01657689 -0.11603823 0.57300001
0.01758155 -0.11603823 0.57300001
0.018553773 -0.11583572 0.57200003
0.019556681 -0.11583572 0.57200003
0.02059553 -0.11603823 0.57300001
0.021600191 -0.11603823 0.57300001
0.022604849 -0.11603823 0.57300001
0.023650713 -0.11624074 0.574
0.024657127 -0.11624074 0.574
0.02575296 -0.11664576 0.57600003
0.026716417 -0.11644325 0.57500005
0.027772799 -0.11664576 0.57600003
0.02868278 -0.11624074 0.574
0.029689193 -0.11624074 0.574
0.030695606 -0.11624074 0.574
0.031702019 -0.11624074 0.574
0.032708433 -0.11624074 0.574
0.033597372 -0.11583572 0.57200003
0.034660771 -0.11603823 0.57300001
0.035603188 -0.11583572 0.57200003
0.036606092 -0.11583572 0.57200003
0.037609 -0.11583572 0.57200003
0.038544402 -0.11563321 0.57100004
0.039545555 -0.11563321 0.57100004
0.0404757 -0.1154307 0.57000005
0.041475099 -0.1154307 0.57000005
0.042474501 -0.1154307 0.57000005
0.043473899 -0.1154307 0.57000005
0.017520184 -0.11363091 0.57100004
0.018553773 -0.1138299 0.57200003
0.01962506 -0.11422791 0.574
0.020631474 -0.11422791 0.574
0.021600191 -0.11402891 0.57300001
0.022683749 -0.11442692 0.57500005
0.02373312 -0.11462592 0.57600003
0.024785997 -0.11482492 0.57700002
0.025797671 -0.11482492 0.57700002
0.02676288 -0.11462592 0.57600003
0.027772799 -0.11462592 0.57600003
0.028732751 -0.11442692 0.57500005
0.029740917 -0.11442692 0.57500005
0.030749083 -0.11442692 0.57500005
0.031702019 -0.11422791 0.574
0.03265145 -0.11402891 0.57300001
0.033656109 -0.11402891 0.57300001
-0.0024678167 -0.1090775 0.56300002
-0.00147806 -0.10888375 0.56200004
-0.00049443997 -0.10927124 0.56400001
0.00049619336 -0.10965873 0.56600004
0.00149121 -0.10985247 0.56700003
0.00248535 -0.10985247 0.56700003
0.0034856265 -0.11004622 0.56800002
0.00448152 -0.11004622 0.56800002
0.0054870564 -0.11023995 0.56900001
0.0064960998 -0.1104337 0.57000005
0.0085247066 -0.10881537 0.57200003
0.0095609268 -0.10919584 0.574
0.01056734 -0.10919584 0.574
0.011593916 -0.10938608 0.57500005
0.012602083 -0.10938608 0.57500005
0.01361025 -0.10938608 0.57500005
0.014618416 -0.10938608 0.57500005
0.015626583 -0.10938608 0.57500005
0.01666368 -0.10957632 0.57600003
0.0176736 -0.10957632 0.57600003
0.018683519 -0.10957632 0.57600003
0.01969344 -0.10957632 0.57600003
0.020775247 -0.10995679 0.57800001
-0.0040238998 -0.094338097 0.51000005
-0.0031174265 -0.093968146 0.50800002
-0.0022223501 -0.09378317 0.50700003
-0.00133341 -0.09378317 0.50700003
-0.00044447 -0.09378317 0.50700003
0.00044184001 -0.093228236 0.50400001
0.00132552 -0.093228236 0.50400001
0.0022004333 -0.092858285 0.50200003
0.00307447 -0.092673309 0.50100005
0.003945 -0.092488334 0.5
0.0048216665 -0.092488334 0.5
0.0056983335 -0.092488334 0.5
0.006575 -0.092488334 0.5
0.00746657 -0.092673309 0.50100005
0.0083449902 -0.092673309 0.50100005
0.0092049995 -0.092488334 0.5
0.01155359 -0.10599163 0.57300001
0.01255825 -0.10599163 0.57300001
0.0134919 -0.1054367 0.57000005
0.01441503 -0.10488177 0.56700003
0.01540917 -0.10488177 0.56700003
0.01640331 -0.10488177 0.56700003
0.017734967 -0.10691651 0.57800001
0.018748393 -0.10691651 0.57800001
0.038933642 -0.09055353 0.49900001
0.039808556 -0.09055353 0.49900001
0.040520411 -0.090190589 0.49700001
0.041391816 -0.090190589 0.49700001
0.042433295 -0.09055353 0.49900001
0.04330821 -0.09055353 0.49900001
0.044360209 -0.09091647 0.50100005
0.045238629 -0.09091647 0.50100005
0.046301149 -0.09127941 0.50300002
0.043395001 -0.088105001 0.5
0.044448752 -0.08845742 0.50200003
0.045419224 -0.088633627 0.50300002
0.046393201 -0.08880984 0.50400001
0.047276881 -0.08880984 0.50400001
0.048256118 -0.088986047 0.505
0.04904424 -0.08880984 0.50400001
0.049828857 -0.088633627 0.50300002
0.052515838 -0.09021952 0.51200002
0.053309225 -0.090043306 0.51100004
0.054311253 -0.09021952 0.51200002
0.055316791 -0.090395726 0.51300001
0.056325834 -0.09057194 0.514
0.057338383 -0.090748146 0.51500005
-0.033209011 -0.095776707 0.54900002
-0.032305166 -0.09595117 0.55000001
-0.031283848 -0.095776707 0.54900002
-0.030266039 -0.095602252 0.54800004
-0.0096836602 -0.091764204 0.52600002
-0.0087447502 -0.091589749 0.52500004
-0.0078391535 -0.091764204 0.52600002
-0.0069169002 -0.091764204 0.52600002
-0.0059832497 -0.091589749 0.52500004
0.0040396801 -0.087526396 0.51200002
0.0049277432 -0.08735545 0.51100004
0.0058122999 -0.087184496 0.51000005
0.0067065 -0.087184496 0.51000005
-0.032363903 -0.09129519 0.551
-0.031454802 -0.091460876 0.55200005
-0.0309288 -0.092786402 0.56
-0.029893456 -0.092620708 0.55900002
-0.028965067 -0.092786402 0.56
-0.0279832 -0.092786402 0.56
-0.027001332 -0.092786402 0.56
