# .PCD v0.7 - Point Cloud Data file format
VERSION 0.7
FIELDS x y z
SIZE 4 4 4
TYPE F F F
COUNT 1 1 1
WIDTH 317
HEIGHT 1
VIEWPOINT 0 0 0 1 0 0 0
POINTS 317
DATA ascii
-0.01808388 -0.92227787 2.2920001
0.0302187 -0.9166339 2.2980001
0.026143953 -0.91101623 2.2940001
0.022121806 -0.90699404 2.2940001
0.01808388 -0.90218467 2.2920001
-0.0060805599 -0.90600342 2.312
0.01406524 -0.89816606 2.2920001
0.01808388 -0.89816606 2.2920001
0.022121806 -0.8989498 2.2940001
-0.010121116 -0.90077937 2.309
0.0020242233 -0.90077937 2.309
0.01406524 -0.8941474 2.2920001
0.01809966 -0.89492762 2.2940001
-0.010055367 -0.8909055 2.2940001
-0.0020145799 -0.89245892 2.2980001
0.014071377 -0.89051712 2.2930002
-0.010055367 -0.88688332 2.2940001
-0.0060332199 -0.88688332 2.2940001
-0.01011235 -0.8838194 2.3070002
-0.0301398 -0.84994233 2.2920001
-0.054133289 -0.79996973 2.2870002
-0.074247532 -0.7806024 2.289
-0.078363478 -0.77760684 2.2920001
-0.13550548 -0.71393192 2.3070002
-0.1201533 -0.71888334 2.3230002
-0.13556422 -0.71019465 2.3080001
-0.13168848 -0.7111178 2.3110001
-0.12774698 -0.71173322 2.3130002
-0.12358458 -0.7111178 2.3110001
-0.1356817 -0.70675987 2.3100002
-0.13168848 -0.70706588 2.3110001
-0.12785745 -0.70828968 2.3150001
-0.12358458 -0.70706588 2.3110001
-0.12369153 -0.70362228 2.3130002
-0.19221793 -0.65758765 2.3080001
-0.19626462 -0.65354097 2.3080001
-0.19230121 -0.65382415 2.309
-0.18825276 -0.65382415 2.309
-0.18412454 -0.65354097 2.3080001
-0.2051549 -0.65202695 2.3170002
-0.20109242 -0.65202695 2.3170002
-0.19626462 -0.64949429 2.3080001
-0.19313405 -0.6525898 2.319
-0.18906806 -0.6525898 2.319
-0.18436387 -0.65033853 2.3110001
-0.20568617 -0.64964241 2.3230002
-0.20161317 -0.64964241 2.3230002
-0.19626462 -0.64544761 2.3080001
-0.19313405 -0.64852381 2.319
-0.18906806 -0.64852381 2.319
-0.20568617 -0.64556944 2.3230002
-0.20169996 -0.64584732 2.3240001
-0.19626462 -0.64140087 2.3080001
-0.22054479 -0.6373542 2.3080001
-0.21649809 -0.6373542 2.3080001
-0.2124514 -0.6373542 2.3080001
-0.20876589 -0.63845879 2.312
-0.20471218 -0.63845879 2.312
-0.2004849 -0.63790649 2.3100002
-0.22459148 -0.63330752 2.3080001
-0.22054479 -0.63330752 2.3080001
-0.21649809 -0.63330752 2.3080001
-0.2124514 -0.63330752 2.3080001
-0.20858529 -0.6338563 2.3100002
-0.2045351 -0.6338563 2.3100002
-0.22459148 -0.62926084 2.3080001
-0.22054479 -0.62926084 2.3080001
-0.21649809 -0.62926084 2.3080001
-0.21254344 -0.62953347 2.309
-0.20858529 -0.6298061 2.3100002
-0.23248324 -0.62467235 2.306
-0.22853911 -0.6249432 2.3070002
-0.22459148 -0.6252141 2.3080001
-0.22054479 -0.6252141 2.3080001
-0.21649809 -0.6252141 2.3080001
-0.2126355 -0.62575591 2.3100002
-0.20858529 -0.62575591 2.3100002
-0.23238242 -0.62036002 2.3050001
-0.22844005 -0.62062913 2.306
-0.22459148 -0.62116742 2.3080001
-0.22054479 -0.62116742 2.3080001
-0.23238242 -0.61631858 2.3050001
-0.22844005 -0.61658597 2.306
-0.22459148 -0.61712074 2.3080001
-0.22054479 -0.61712074 2.3080001
-0.23652641 -0.61254275 2.306
-0.23238242 -0.61227715 2.3050001
-0.22853911 -0.61280841 2.3070002
-0.22459148 -0.61307406 2.3080001
-0.22054479 -0.61307406 2.3080001
-0.21790515 -0.61705852 2.3230002
-0.23683412 -0.6092912 2.309
-0.23258404 -0.60876346 2.3070002
-0.24077825 -0.60498065 2.3080001
-0.24482495 -0.59688729 2.3080001
-0.24482495 -0.59284055 2.3080001
-0.24887164 -0.58879387 2.3080001
-0.24482495 -0.58879387 2.3080001
-0.24887164 -0.5847472 2.3080001
-0.25423333 -0.57558429 2.3200002
-0.26828894 -0.55473274 2.3010001
-0.31633639 -0.52042443 2.3280001
-0.31238878 -0.52064794 2.329
-0.31579286 -0.51545542 2.3240001
-0.31185225 -0.51567727 2.325
-0.30790812 -0.51589906 2.3260002
-0.30461362 -0.5172298 2.332
-0.3006537 -0.51745164 2.3330002
-0.33194897 -0.51116067 2.3230002
-0.32759368 -0.51072055 2.3210001
-0.31552109 -0.51094061 2.322
-0.311584 -0.51116067 2.3230002
-0.30777574 -0.51160073 2.325
-0.30422175 -0.51248091 2.329
-0.30052483 -0.51314104 2.332
-0.32928738 -0.50927055 2.3330002
-0.32408175 -0.50752425 2.325
-0.31972998 -0.50708765 2.3230002
-0.31565699 -0.50708765 2.3230002
-0.311584 -0.50708765 2.3230002
-0.307511 -0.50708765 2.3230002
-0.30382988 -0.50774252 2.3260002
-0.33280635 -0.50431389 2.329
-0.32787597 -0.50301468 2.3230002
-0.32380298 -0.50301468 2.3230002
-0.31972998 -0.50301468 2.3230002
-0.31565699 -0.50301468 2.3230002
-0.311584 -0.50301468 2.3230002
-0.33194897 -0.49894169 2.3230002
-0.32773483 -0.4987269 2.322
-0.32366359 -0.4987269 2.322
-0.3194547 -0.49851212 2.3210001
-0.31538522 -0.49851212 2.3210001
-0.31144986 -0.4987269 2.322
-0.33194897 -0.4948687 2.3230002
-0.32745254 -0.49422958 2.3200002
-0.32338479 -0.49422958 2.3200002
-0.33602196 -0.4907957 2.3230002
-0.33180606 -0.4905844 2.322
-0.32759368 -0.49037313 2.3210001
-0.32324541 -0.4899506 2.319
-0.34009495 -0.48672271 2.3230002
-0.33602196 -0.48672271 2.3230002
-0.33194897 -0.48672271 2.3230002
-0.32759368 -0.48630366 2.3210001
-0.34869066 -0.48327303 2.3260002
-0.33602196 -0.48264971 2.3230002
-0.33194897 -0.48264971 2.3230002
-0.32759368 -0.48223418 2.3210001
-0.36108059 -0.47940078 2.3270001
-0.35684717 -0.47919476 2.3260002
-0.3527689 -0.47919476 2.3260002
-0.34869066 -0.47919476 2.3260002
-0.33573264 -0.47816467 2.3210001
-0.33166316 -0.47816467 2.3210001
-0.36924061 -0.47532079 2.3270001
-0.36516058 -0.47532079 2.3270001
-0.36108059 -0.47532079 2.3270001
-0.35669374 -0.47491226 2.325
-0.35261723 -0.47491226 2.325
-0.34869066 -0.47511652 2.3260002
-0.34476057 -0.47532079 2.3270001
-0.34068054 -0.47532079 2.3270001
-0.33558801 -0.47389093 2.3200002
-0.37332061 -0.47124076 2.3270001
-0.36924061 -0.47124076 2.3270001
-0.36516058 -0.47124076 2.3270001
-0.36108059 -0.47124076 2.3270001
-0.35669374 -0.47083575 2.325
-0.35261723 -0.47083575 2.325
-0.34854075 -0.47083575 2.325
-0.34461239 -0.47103825 2.3260002
-0.34053415 -0.47103825 2.3260002
-0.36516058 -0.46716076 2.3270001
-0.36108059 -0.46716076 2.3270001
-0.3563869 -0.46635774 2.3230002
-0.35231394 -0.46635774 2.3230002
-0.34824094 -0.46635774 2.3230002
-0.34416795 -0.46635774 2.3230002
-0.36516058 -0.46308076 2.3270001
-0.36108059 -0.46308076 2.3270001
-0.3563869 -0.46228474 2.3230002
-0.35231394 -0.46228474 2.3230002
-0.34824094 -0.46228474 2.3230002
-0.38115275 -0.45860624 2.325
-0.37675187 -0.45821175 2.3230002
-0.37267888 -0.45821175 2.3230002
-0.36892325 -0.45860624 2.325
-0.36484674 -0.45860624 2.325
-0.36045989 -0.45821175 2.3230002
-0.3563869 -0.45821175 2.3230002
-0.35231394 -0.45821175 2.3230002
-0.38506356 -0.45433426 2.3240001
-0.38164455 -0.45511624 2.3280001
-0.37675187 -0.45413876 2.3230002
-0.37267888 -0.45413876 2.3230002
-0.36860588 -0.45413876 2.3230002
-0.36453289 -0.45413876 2.3230002
-0.36045989 -0.45413876 2.3230002
-0.3563869 -0.45413876 2.3230002
-0.38638908 -0.45180944 2.332
-0.37707624 -0.45045325 2.325
-0.37267888 -0.45006576 2.3230002
-0.36860588 -0.45006576 2.3230002
-0.36484674 -0.45045325 2.325
-0.36077026 -0.45045325 2.325
-0.3563869 -0.45006576 2.3230002
-0.38672045 -0.44810465 2.3340001
-0.37707624 -0.44637674 2.325
-0.37267888 -0.44599277 2.3230002
-0.36860588 -0.44599277 2.3230002
-0.36484674 -0.44637674 2.325
-0.36092541 -0.44656873 2.3260002
-0.37707624 -0.44230026 2.325
-0.37267888 -0.44191977 2.3230002
-0.36860588 -0.44191977 2.3230002
-0.36453289 -0.44191977 2.3230002
-0.36077026 -0.44230026 2.325
-0.37707624 -0.43822375 2.325
-0.37267888 -0.43784678 2.3230002
-0.36860588 -0.43784678 2.3230002
-0.36453289 -0.43784678 2.3230002
-0.38638908 -0.43545437 2.332
-0.38295606 -0.43620127 2.3360002
-0.37707624 -0.43414724 2.325
-0.37267888 -0.43377379 2.3230002
-0.36860588 -0.43377379 2.3230002
-0.38440078 -0.42914587 2.3200002
-0.38082486 -0.42970079 2.3230002
-0.37675187 -0.42970079 2.3230002
-0.37267888 -0.42970079 2.3230002
-0.38846853 -0.42507812 2.3200002
-0.38440078 -0.42507812 2.3200002
-0.38082486 -0.4256278 2.3230002
-0.39253625 -0.4210104 2.3200002
-0.40222606 -0.41856012 2.329
-0.41820067 -0.41004068 2.3270001
-0.41554439 -0.41145036 2.335
-0.41963843 -0.40735632 2.335
-0.41554439 -0.40735632 2.335
-0.42373246 -0.40326229 2.335
-0.41963843 -0.40326229 2.335
-0.42599425 -0.39745876 2.325
-0.42373246 -0.39916825 2.335
-0.40840307 -0.40019396 2.3410001
-0.40326229 -0.39916825 2.335
-0.39916825 -0.39916825 2.335
-0.41821384 -0.39761215 2.3500001
-0.40840307 -0.3960894 2.3410001
-0.40602553 -0.39778137 2.3510001
-0.40190345 -0.39778137 2.3510001
-0.39778137 -0.39778137 2.3510001
-0.39365926 -0.39778137 2.3510001
-0.42373246 -0.39098018 2.335
-0.41145036 -0.39098018 2.335
-0.40735632 -0.39098018 2.335
-0.40602553 -0.39365926 2.3510001
-0.40190345 -0.39365926 2.3510001
-0.39778137 -0.39365926 2.3510001
-0.42373246 -0.38688615 2.335
-0.41963843 -0.38688615 2.335
-0.41554439 -0.38688615 2.335
-0.41145036 -0.38688615 2.335
-0.40735632 -0.38688615 2.335
-0.40585282 -0.38937148 2.3500001
-0.40156156 -0.38920581 2.3490002
-0.44293582 -0.38525116 2.3500001
-0.4388155 -0.38525116 2.3500001
-0.41501048 -0.38230032 2.332
-0.41092172 -0.38230032 2.332
-0.40683293 -0.38230032 2.332
-0.45648471 -0.37869808 2.335
-0.44293582 -0.38113084 2.3500001
-0.4388155 -0.38113084 2.3500001
-0.41092172 -0.37821153 2.332
-0.45589823 -0.37412277 2.332
-0.44067404 -0.37508532 2.3380001
-0.43657473 -0.37508532 2.3380001
-0.43543506 -0.37765223 2.3540001
-0.45668021 -0.37066868 2.3360002
-0.45258442 -0.37066868 2.3360002
-0.44848862 -0.37066868 2.3360002
-0.4472464 -0.37304884 2.3510001
-0.44312432 -0.37304884 2.3510001
-0.43900222 -0.37304884 2.3510001
-0.43488014 -0.37304884 2.3510001
-0.45239067 -0.36641598 2.335
-0.44829664 -0.36641598 2.335
-0.4472464 -0.36892676 2.3510001
-0.44312432 -0.36892676 2.3510001
-0.43900222 -0.36892676 2.3510001
-0.43488014 -0.36892676 2.3510001
-0.43075806 -0.36892676 2.3510001
-0.45239067 -0.36232194 2.335
-0.44829664 -0.36232194 2.335
-0.44312432 -0.36480466 2.3510001
-0.43900222 -0.36480466 2.3510001
-0.43488014 -0.36480466 2.3510001
-0.43020838 -0.36433914 2.348
-0.45239067 -0.35822791 2.335
-0.44829664 -0.35822791 2.335
-0.4472464 -0.36068258 2.3510001
-0.44312432 -0.36068258 2.3510001
-0.43900222 -0.36068258 2.3510001
-0.43469515 -0.36052915 2.3500001
-0.45239067 -0.35413387 2.335
-0.44829664 -0.35413387 2.335
-0.4472464 -0.3565605 2.3510001
-0.44312432 -0.3565605 2.3510001
-0.43900222 -0.3565605 2.3510001
-0.44829664 -0.35003984 2.335
-0.4472464 -0.35243842 2.3510001
-0.44312432 -0.35243842 2.3510001
-0.48022309 -0.33182797 2.3510001
-0.4758985 -0.33168682 2.3500001
-0.48784396 -0.3067036 2.348
-0.48742843 -0.302329 2.3460002
