# .PCD v0.7 - Point Cloud Data file format
VERSION 0.7
FIELDS x y z
SIZE 4 4 4
TYPE F F F
COUNT 1 1 1
WIDTH 1457
HEIGHT 1
VIEWPOINT 0 0 0 1 0 0 0
POINTS 1457
DATA ascii
-0.20162193 -0.38037953 2.3710001
-0.19763134 -0.38070038 2.3730001
-0.19347069 -0.38070038 2.3730001
-0.19018757 -0.38246512 2.3840001
-0.18616368 -0.38278598 2.3860002
-0.18220903 -0.38326725 2.3890002
-0.17802031 -0.38326725 2.3890002
-0.17397712 -0.38358814 2.391
-0.1697139 -0.38342771 2.3900001
-0.16552344 -0.38342771 2.3900001
-0.16133296 -0.38342771 2.3900001
-0.15694524 -0.3829464 2.3870001
-0.15269604 -0.38278598 2.3860002
-0.14944625 -0.38519242 2.401
-0.14499453 -0.38455072 2.3970001
-0.14102674 -0.38519242 2.401
-0.13681698 -0.38519242 2.401
-0.13244154 -0.38471115 2.398
-0.12813009 -0.38439026 2.3960001
-0.12398083 -0.38455072 2.3970001
-0.11962818 -0.38406941 2.3940001
-0.11528605 -0.38358814 2.391
-0.11090798 -0.3829464 2.3870001
-0.10672277 -0.3829464 2.3870001
-0.10318191 -0.38535285 2.4020002
-0.099011607 -0.38551328 2.4030001
-0.094798349 -0.38551328 2.4030001
-0.09058509 -0.38551328 2.4030001
-0.086371832 -0.38551328 2.4030001
-0.082192756 -0.38567373 2.404
-0.077977747 -0.38567373 2.404
-0.074284352 -0.38840103 2.421
-0.070039533 -0.38840103 2.421
-0.065359883 -0.38583416 2.4050002
-0.061066847 -0.38535285 2.4020002
-0.056807999 -0.385032 2.4000001
-0.0526 -0.385032 2.4000001
-0.048492815 -0.38583416 2.4050002
-0.044331279 -0.38631544 2.4080002
-0.040292475 -0.38808018 2.4190001
-0.036066066 -0.38824061 2.4200001
-0.031822998 -0.38824061 2.4200001
-0.027876247 -0.39241177 2.4460001
-0.023674384 -0.39385566 2.4550002
-0.01951197 -0.39674339 2.473
-0.015182113 -0.39690381 2.4740002
-0.010844367 -0.39690381 2.4740002
-0.0064908401 -0.39594123 2.4680002
-0.00216186 -0.39562038 2.4660001
0.0021539701 -0.39417651 2.457
0.00646191 -0.39417651 2.457
0.010761083 -0.39385566 2.4550002
0.015065516 -0.39385566 2.4550002
0.019369951 -0.39385566 2.4550002
0.023674384 -0.39385566 2.4550002
0.027978817 -0.39385566 2.4550002
0.032322701 -0.39433694 2.4580002
0.03670691 -0.3951391 2.4630001
0.04102537 -0.3951391 2.4630001
0.0454727 -0.39626211 2.47
0.049843758 -0.39658296 2.4720001
0.054265667 -0.39722466 2.4760001
0.058961969 -0.39963111 2.4910002
0.063227832 -0.39898941 2.4870002
0.067588367 -0.39898941 2.4870002
0.071948908 -0.39898941 2.4870002
0.076278768 -0.39882898 2.4860001
0.080150999 -0.39642254 2.4710002
0.084483489 -0.39642254 2.4710002
0.088744089 -0.39610165 2.4690001
0.093751609 -0.39898941 2.4870002
0.097402051 -0.39610165 2.4690001
-1.0186998 -0.66564864 4.1950002
-1.0139965 -0.66739404 4.2060003
-1.0082973 -0.66850477 4.2130003
-0.98903167 -0.66057098 4.1630001
-0.98173255 -0.66057098 4.1630001
-0.97654003 -0.66199905 4.1720004
-0.95923549 -0.65517592 4.1290002
-0.93447316 -0.64311653 4.053
-0.92965502 -0.64470327 4.0630002
-0.92253125 -0.64470327 4.0630002
-0.71424222 -0.50697196 3.1950002
-0.70132107 -0.50173563 3.1620002
-0.68961579 -0.49729267 3.1340001
-0.68412083 -0.49729267 3.1340001
-0.67321247 -0.49332574 3.1090002
-0.52836698 -0.39034459 2.46
-0.5212844 -0.38828179 2.447
-0.50981057 -0.3828868 2.4130001
-0.4992941 -0.3781265 2.3830001
-0.49511591 -0.3781265 2.3830001
-0.48764145 -0.37558767 2.3670001
-0.48001882 -0.37289017 2.3500001
-0.47427842 -0.37162074 2.342
-0.46876681 -0.37051001 2.335
-0.46467277 -0.37051001 2.335
-0.46057874 -0.37051001 2.335
-0.45668021 -0.37066868 2.3360002
-0.45258442 -0.37066868 2.3360002
-0.44848862 -0.37066868 2.3360002
-0.4472464 -0.37304884 2.3510001
-0.44312432 -0.37304884 2.3510001
-0.43900222 -0.37304884 2.3510001
-0.43488014 -0.37304884 2.3510001
-0.43075806 -0.37304884 2.3510001
-0.42609155 -0.37257281 2.348
-0.41909927 -0.37003398 2.332
-0.41501048 -0.37003398 2.332
-0.41092172 -0.37003398 2.332
-0.40683293 -0.37003398 2.332
-0.40274417 -0.37003398 2.332
-0.39865538 -0.37003398 2.332
-0.39524341 -0.37066868 2.3360002
-0.39164996 -0.37114471 2.3390002
-0.38754889 -0.37114471 2.3390002
-0.38377574 -0.37146208 2.3410001
-0.37967119 -0.37146208 2.3410001
-0.37829393 -0.37415957 2.358
-0.37114471 -0.37114471 2.3390002
-0.36798522 -0.37209678 2.345
-0.36340815 -0.37162074 2.342
-0.35930184 -0.37162074 2.342
-0.35519552 -0.37162074 2.342
-0.35108921 -0.37162074 2.342
-0.34579766 -0.37035134 2.3340001
-0.34287661 -0.37162074 2.342
-0.34122935 -0.37431824 2.3590002
-0.33709323 -0.37431824 2.3590002
-0.33253369 -0.37384221 2.3560002
-0.33049369 -0.37622237 2.3710001
-0.32633653 -0.37622237 2.3710001
-0.32217938 -0.37622237 2.3710001
-0.31802222 -0.37622237 2.3710001
-0.31267369 -0.37479427 2.3620002
-0.30787921 -0.37400091 2.3570001
-0.30400434 -0.37431824 2.3590002
-0.29999533 -0.37447694 2.3600001
-0.29686037 -0.37574634 2.368
-0.29270849 -0.37574634 2.368
-0.28855658 -0.37574634 2.368
-0.28404438 -0.37527031 2.365
-0.28025278 -0.37574634 2.368
-0.27633411 -0.3760637 2.3700001
-0.27229354 -0.37622237 2.3710001
-0.26813638 -0.37622237 2.3710001
-0.2645359 -0.37701577 2.3760002
-0.2602604 -0.37685707 2.375
-0.25782153 -0.3793959 2.391
-0.2536293 -0.3793959 2.391
-0.2490198 -0.3787612 2.3870001
-0.24483459 -0.3787612 2.3870001
-0.23863305 -0.37558767 2.3670001
-0.23448291 -0.37558767 2.3670001
-0.23188972 -0.3781265 2.3830001
-0.22771153 -0.3781265 2.3830001
-0.22343954 -0.3779678 2.3820002
-0.21898694 -0.3774918 2.3790002
-0.21499637 -0.37780914 2.381
-0.21099876 -0.3781265 2.3830001
-0.20682056 -0.3781265 2.3830001
-0.20145187 -0.37590501 2.3690002
-0.19746478 -0.37622237 2.3710001
-0.19355223 -0.3766984 2.3740001
-0.18978868 -0.3774918 2.3790002
-0.18577355 -0.37780914 2.381
-0.18159887 -0.37780914 2.381
-0.17727515 -0.3774918 2.3790002
-0.17317674 -0.37765047 2.3800001
-0.16886178 -0.3773331 2.378
-0.16545418 -0.37907857 2.3890002
-0.16126546 -0.37907857 2.3890002
-0.1568795 -0.37860253 2.3860002
-0.1517361 -0.37622237 2.3710001
-0.14739221 -0.37574634 2.368
-0.14366375 -0.37685707 2.375
-0.14085053 -0.38050663 2.398
-0.13653207 -0.3801893 2.3960001
-0.13177878 -0.37860253 2.3860002
-0.12775576 -0.37907857 2.3890002
-0.12367049 -0.3793959 2.391
-0.11927839 -0.3787612 2.3870001
-0.11509318 -0.3787612 2.3870001
-0.11090798 -0.3787612 2.3870001
-0.10672277 -0.3787612 2.3870001
-0.10322487 -0.38130003 2.4030001
-0.099011607 -0.38130003 2.4030001
-0.0948378 -0.3814587 2.404
-0.090622783 -0.3814587 2.404
-0.086371832 -0.38130003 2.4030001
-0.082192756 -0.3814587 2.404
-0.077977747 -0.3814587 2.404
-0.074284352 -0.3841562 2.421
-0.070039533 -0.3841562 2.421
-0.065359883 -0.38161737 2.4050002
-0.06116854 -0.38177606 2.4060001
-0.056902681 -0.3814587 2.404
-0.0526 -0.380824 2.4000001
-0.048492815 -0.38161737 2.4050002
-0.044331279 -0.3820934 2.4080002
-0.040292475 -0.38383886 2.4190001
-0.036066066 -0.38399753 2.4200001
-0.03191505 -0.38510826 2.427
-0.027853454 -0.38780576 2.444
-0.023674384 -0.38955122 2.4550002
-0.01951197 -0.39240739 2.473
-0.015175977 -0.39240739 2.473
-0.010831216 -0.39209005 2.4710002
-0.0065039899 -0.39240739 2.473
-0.0021679967 -0.39240739 2.473
0.0021679967 -0.39240739 2.473
0.0065039899 -0.39240739 2.473
0.010839983 -0.39240739 2.473
0.0150962 -0.39034459 2.46
0.019496189 -0.39209005 2.4710002
0.023828676 -0.39209005 2.4710002
0.028035799 -0.39034459 2.46
0.032519951 -0.39240739 2.473
0.036855944 -0.39240739 2.473
0.041191936 -0.39240739 2.473
0.04582249 -0.39494622 2.4890001
0.049843758 -0.39224872 2.4720001
0.054243751 -0.39272475 2.4750001
0.05900931 -0.39558092 2.493
0.063278675 -0.39494622 2.4890001
0.067642726 -0.39494622 2.4890001
0.071948908 -0.39462885 2.4870002
0.076156035 -0.39383548 2.4820001
0.080086127 -0.39177269 2.4690001
0.085030526 -0.39462885 2.4870002
0.089391068 -0.39462885 2.4870002
0.093751609 -0.39462885 2.4870002
0.098112151 -0.39462885 2.4870002
-1.0230708 -0.66111797 4.2130003
-1.0139965 -0.66001952 4.2060003
-1.006622 -0.66001952 4.2060003
-0.98903167 -0.65327185 4.1630001
-0.98173255 -0.65327185 4.1630001
-0.97654003 -0.65468413 4.1720004
-0.95923549 -0.64793646 4.1290002
-0.93447316 -0.63601029 4.053
-0.92965502 -0.6375795 4.0630002
-0.92253125 -0.6375795 4.0630002
-0.71513647 -0.50199777 3.1990001
-0.70864034 -0.50137007 3.1950002
-0.70237833 -0.50089926 3.1920002
-0.69525367 -0.4998008 3.1850002
-0.6855551 -0.49681926 3.1660001
-0.52987045 -0.38712987 2.467
-0.5212844 -0.38399139 2.447
-0.51297975 -0.38100985 2.4280002
-0.50641787 -0.3792837 2.4170001
-0.49864799 -0.376616 2.4000001
-0.49073169 -0.37379137 2.3820002
-0.48287851 -0.37096676 2.3640001
-0.47670853 -0.36939752 2.3540001
-0.47197893 -0.36892676 2.3510001
-0.46467277 -0.36641598 2.335
-0.46057874 -0.36641598 2.335
-0.45648471 -0.36641598 2.335
-0.45239067 -0.36641598 2.335
-0.44829664 -0.36641598 2.335
-0.4472464 -0.36892676 2.3510001
-0.44312432 -0.36892676 2.3510001
-0.43900222 -0.36892676 2.3510001
-0.43488014 -0.36892676 2.3510001
-0.43075806 -0.36892676 2.3510001
-0.42609155 -0.36845598 2.348
-0.42197472 -0.36845598 2.348
-0.41750199 -0.36814213 2.3460002
-0.41338867 -0.36814213 2.3460002
-0.41014761 -0.36892676 2.3510001
-0.40222606 -0.36547443 2.329
-0.39814255 -0.36547443 2.329
-0.39473581 -0.36610213 2.3330002
-0.39081272 -0.36625907 2.3340001
-0.38754889 -0.36704367 2.3390002
-0.3841036 -0.36767137 2.3430002
-0.38031992 -0.36798522 2.345
-0.37877524 -0.37049598 2.3610001
-0.37463561 -0.37049598 2.3610001
-0.37049598 -0.37049598 2.3610001
-0.36620119 -0.37033907 2.3600001
-0.36190993 -0.37018213 2.3590002
-0.35519552 -0.36751443 2.342
-0.34929031 -0.36563137 2.3300002
-0.34787184 -0.36845598 2.348
-0.34536546 -0.37018213 2.3590002
-0.34122935 -0.37018213 2.3590002
-0.33937958 -0.37269291 2.375
-0.33479199 -0.37222216 2.3720002
-0.33049369 -0.37206522 2.3710001
-0.32633653 -0.37206522 2.3710001
-0.32217938 -0.37206522 2.3710001
-0.31802222 -0.37206522 2.3710001
-0.31280607 -0.37080982 2.3630002
-0.3080098 -0.37002522 2.358
-0.30426207 -0.37049598 2.3610001
-0.30012244 -0.37049598 2.3610001
-0.29686037 -0.37159446 2.368
-0.29270849 -0.37159446 2.368
-0.28867844 -0.37175137 2.3690002
-0.2845248 -0.37175137 2.3690002
-0.28060785 -0.37206522 2.3710001
-0.27645069 -0.37206522 2.3710001
-0.27229354 -0.37206522 2.3710001
-0.26836258 -0.37237906 2.3730001
-0.26464725 -0.37300676 2.3770001
-0.2602604 -0.37269291 2.375
-0.25782153 -0.3752037 2.391
-0.2536293 -0.3752037 2.391
-0.2490198 -0.374576 2.3870001
-0.24483459 -0.374576 2.3870001
-0.2389355 -0.37190831 2.3700001
-0.23458198 -0.37159446 2.368
-0.23188972 -0.37394831 2.3830001
-0.22771153 -0.37394831 2.3830001
-0.22343954 -0.37379137 2.3820002
-0.21917105 -0.37363446 2.381
-0.21499637 -0.37363446 2.381
-0.21099876 -0.37394831 2.3830001
-0.20682056 -0.37394831 2.3830001
-0.20128179 -0.37143752 2.3670001
-0.19746478 -0.37206522 2.3710001
-0.19347069 -0.37237906 2.3730001
-0.18954936 -0.37284985 2.3760002
-0.18561751 -0.37332061 2.3790002
-0.18144633 -0.37332061 2.3790002
-0.1783929 -0.37567446 2.3940001
-0.17310397 -0.37332061 2.3790002
-0.16879077 -0.37300676 2.3770001
-0.16552344 -0.37504676 2.3900001
-0.16133296 -0.37504676 2.3900001
-0.1568795 -0.37441906 2.3860002
-0.15237606 -0.37363446 2.381
-0.14739221 -0.37159446 2.368
-0.14426865 -0.37426215 2.3850002
-0.14008695 -0.37426215 2.3850002
-0.13681698 -0.37677291 2.401
-0.13216539 -0.37551755 2.3930001
-0.12770228 -0.37473291 2.388
-0.12351532 -0.37473291 2.388
-0.11932836 -0.37473291 2.388
-0.1151414 -0.37473291 2.388
-0.11090798 -0.374576 2.3870001
-0.10672277 -0.374576 2.3870001
-0.10322487 -0.37708676 2.4030001
-0.099011607 -0.37708676 2.4030001
-0.09487725 -0.37740061 2.4050002
-0.090660483 -0.37740061 2.4050002
-0.086371832 -0.37708676 2.4030001
-0.082158573 -0.37708676 2.4030001
-0.077945307 -0.37708676 2.4030001
-0.074284352 -0.37991139 2.421
-0.070039533 -0.37991139 2.421
-0.065332703 -0.3772437 2.404
-0.06116854 -0.37755755 2.4060001
-0.056902681 -0.3772437 2.404
-0.0526 -0.376616 2.4000001
-0.048432328 -0.37692985 2.4020002
-0.04422082 -0.37692985 2.4020002
-0.040592298 -0.38242215 2.437
-0.036334325 -0.38257909 2.4380002
-0.031849299 -0.3800683 2.4220002
-0.02772809 -0.38179445 2.4330001
-0.02363581 -0.38461909 2.4510002
-0.019472521 -0.38728678 2.4680002
-0.015175977 -0.38807139 2.473
-0.010839983 -0.38807139 2.473
-0.0065039899 -0.38807139 2.473
-0.0021679967 -0.38807139 2.473
0.0021679967 -0.38807139 2.473
0.0065039899 -0.38807139 2.473
0.010839983 -0.38807139 2.473
0.015163703 -0.38775754 2.4710002
0.019496189 -0.38775754 2.4710002
0.023828676 -0.38775754 2.4710002
0.028035799 -0.38603139 2.46
0.032519951 -0.38807139 2.473
0.036855944 -0.38807139 2.473
0.041191936 -0.38807139 2.473
0.04580408 -0.39042526 2.4880002
0.050206698 -0.39073908 2.49
0.054594416 -0.39089602 2.4910002
0.058961969 -0.39089602 2.4910002
0.063329525 -0.39089602 2.4910002
0.067697078 -0.39089602 2.4910002
0.0720357 -0.39073908 2.49
0.076033302 -0.38885602 2.4780002
0.080118567 -0.38760063 2.47
0.085030526 -0.39026833 2.4870002
0.089391068 -0.39026833 2.4870002
0.093751609 -0.39026833 2.4870002
0.098112151 -0.39026833 2.4870002
-1.0230708 -0.65373123 4.2130003
-1.0142375 -0.6528002 4.2070003
-1.0018353 -0.64954162 4.1860003
-0.98903167 -0.64597273 4.1630001
-0.98503405 -0.64814508 4.177
-0.98871166 -0.65543807 4.224
-0.97085136 -0.64845544 4.1790004
-0.94784588 -0.63790387 4.1110001
-0.94063789 -0.63790387 4.1110001
-0.93342996 -0.63790387 4.1110001
-0.71513647 -0.49638882 3.1990001
-0.70864034 -0.49576816 3.1950002
-0.70303845 -0.49576816 3.1950002
-0.69197929 -0.49188891 3.1700001
-0.68642122 -0.49188891 3.1700001
-0.53008527 -0.38295954 2.4680002
-0.52213651 -0.38032168 2.4510002
-0.51403612 -0.37752861 2.4330001
-0.50641787 -0.3750459 2.4170001
-0.49864799 -0.372408 2.4000001
-0.49320391 -0.37147698 2.3940001
-0.48573822 -0.36899427 2.378
-0.47650602 -0.36511502 2.3530002
-0.47197893 -0.36480466 2.3510001
-0.46467277 -0.36232194 2.335
-0.46057874 -0.36232194 2.335
-0.45648471 -0.36232194 2.335
-0.45239067 -0.36232194 2.335
-0.44829664 -0.36232194 2.335
-0.4472464 -0.36480466 2.3510001
-0.44312432 -0.36480466 2.3510001
-0.43900222 -0.36480466 2.3510001
-0.43488014 -0.36480466 2.3510001
-0.43020838 -0.36433914 2.348
-0.42609155 -0.36433914 2.348
-0.42179501 -0.36418399 2.3470001
-0.41785792 -0.36433914 2.348
-0.41409349 -0.3646495 2.3500001
-0.40997317 -0.3646495 2.3500001
-0.40602553 -0.36480466 2.3510001
-0.40002298 -0.36309779 2.3400002
-0.39355144 -0.36092541 2.3260002
-0.39081272 -0.36216679 2.3340001
-0.38754889 -0.36294264 2.3390002
-0.3841036 -0.3635633 2.3430002
-0.38031992 -0.36387366 2.345
-0.37877524 -0.36635637 2.3610001
-0.37463561 -0.36635637 2.3610001
-0.37049598 -0.36635637 2.3610001
-0.36620119 -0.36620119 2.3600001
-0.36190993 -0.36604604 2.3590002
-0.35777381 -0.36604604 2.3590002
-0.3536377 -0.36604604 2.3590002
-0.34950158 -0.36604604 2.3590002
-0.34536546 -0.36604604 2.3590002
-0.34122935 -0.36604604 2.3590002
-0.33937958 -0.36852875 2.375
-0.33479199 -0.36806324 2.3720002
-0.33049369 -0.36790806 2.3710001
-0.32633653 -0.36790806 2.3710001
-0.32217938 -0.36790806 2.3710001
-0.31802222 -0.36790806 2.3710001
-0.31293845 -0.36682189 2.3640001
-0.30814043 -0.36604604 2.3590002
-0.30400434 -0.36604604 2.3590002
-0.29948688 -0.36558053 2.3560002
-0.29673502 -0.3672874 2.3670001
-0.29258487 -0.3672874 2.3670001
-0.28855658 -0.36744255 2.368
-0.2845248 -0.36759773 2.3690002
-0.28060785 -0.36790806 2.3710001
-0.27645069 -0.36790806 2.3710001
-0.27229354 -0.36790806 2.3710001
-0.26836258 -0.36821842 2.3730001
-0.2645359 -0.3686839 2.3760002
-0.2602604 -0.36852875 2.375
-0.25782153 -0.37101147 2.391
-0.2536293 -0.37101147 2.391
-0.24745494 -0.36806324 2.3720002
-0.24329604 -0.36806324 2.3720002
-0.23933877 -0.36837357 2.3740001
-0.23497823 -0.36806324 2.3720002
-0.23052739 -0.36759773 2.3690002
-0.22771153 -0.36977011 2.3830001
-0.22353335 -0.36977011 2.3830001
-0.21935515 -0.36977011 2.3830001
-0.21517695 -0.36977011 2.3830001
-0.21099876 -0.36977011 2.3830001
-0.20682056 -0.36977011 2.3830001
-0.20128179 -0.3672874 2.3670001
-0.19746478 -0.36790806 2.3710001
-0.19330762 -0.36790806 2.3710001
-0.18946958 -0.36852875 2.375
-0.18553948 -0.36899427 2.378
-0.18144633 -0.36914942 2.3790002
-0.17831838 -0.3713218 2.3930001
-0.17346779 -0.36992529 2.3840001
-0.16985592 -0.37116665 2.3920002
-0.16552344 -0.37085629 2.3900001
-0.16133296 -0.37085629 2.3900001
-0.1568795 -0.37023562 2.3860002
-0.15269604 -0.37023562 2.3860002
-0.1483881 -0.36992529 2.3840001
-0.14420816 -0.36992529 2.3840001
-0.14002821 -0.36992529 2.3840001
-0.13681698 -0.37256315 2.401
-0.13216539 -0.3713218 2.3930001
-0.12770228 -0.37054595 2.388
-0.12346359 -0.37039077 2.3870001
-0.11932836 -0.37054595 2.388
-0.1151414 -0.37054595 2.388
-0.11090798 -0.37039077 2.3870001
-0.10672277 -0.37039077 2.3870001
-0.10258052 -0.37054595 2.388
-0.099011607 -0.37287351 2.4030001
-0.0948378 -0.37302867 2.404
-0.090622783 -0.37302867 2.404
-0.086371832 -0.37287351 2.4030001
-0.082090192 -0.37256315 2.401
-0.077912875 -0.37271833 2.4020002
-0.0741923 -0.37520105 2.4180002
-0.070039533 -0.37566656 2.421
-0.065387063 -0.37333903 2.4060001
-0.061117694 -0.37302867 2.404
-0.05687901 -0.37287351 2.4030001
-0.052621916 -0.37256315 2.401
-0.048392002 -0.372408 2.4000001
-0.044496968 -0.3750459 2.4170001
-0.040525671 -0.37752861 2.4330001
-0.036274713 -0.37768379 2.434
-0.031822998 -0.37551141 2.4200001
-0.027705297 -0.37721828 2.4310002
-0.023616523 -0.38001132 2.4490001
-0.019472521 -0.38295954 2.4680002
-0.015157566 -0.38326991 2.47
-0.010831216 -0.38342506 2.4710002
-0.0064987298 -0.38342506 2.4710002
-0.0021671199 -0.38358024 2.4720001
0.0021679967 -0.38373542 2.473
0.0065039899 -0.38373542 2.473
0.010839983 -0.38373542 2.473
0.015163703 -0.38342506 2.4710002
0.01941729 -0.38187337 2.4610002
0.023732243 -0.38187337 2.4610002
0.028013006 -0.38140786 2.4580002
0.032519951 -0.38373542 2.473
0.036855944 -0.38373542 2.473
0.041158624 -0.38342506 2.4710002
0.04580408 -0.38606295 2.4880002
0.050206698 -0.38637331 2.49
0.054594416 -0.38652846 2.4910002
0.058961969 -0.38652846 2.4910002
0.063329525 -0.38652846 2.4910002
0.067697078 -0.38652846 2.4910002
0.071919978 -0.38575262 2.4860001
0.075849198 -0.38358024 2.4720001
0.080183439 -0.38358024 2.4720001
0.085167289 -0.38652846 2.4910002
0.088744089 -0.38311473 2.4690001
0.09307307 -0.38311473 2.4690001
0.098112151 -0.3859078 2.4870002
-1.0216138 -0.64542389 4.2070003
-1.0111035 -0.64342952 4.1940002
-1.0003994 -0.64128166 4.1800003
-1.0009105 -0.64634442 4.2130003
-0.98809975 -0.64281583 4.1900001
-0.99128646 -0.6497196 4.2350001
-0.97317451 -0.64266241 4.1890001
-0.95914346 -0.63821334 4.1600003
-0.92736691 -0.62179774 4.053
-0.92026067 -0.62179774 4.053
-0.91540742 -0.6233319 4.0630002
-0.71513647 -0.49077991 3.1990001
-0.70797497 -0.48970601 3.1920002
-0.69753736 -0.48633084 3.1700001
-0.69001466 -0.48495007 3.1610003
-0.68447238 -0.48495007 3.1610003
-0.67463446 -0.48188174 3.141
-0.52575803 -0.37863234 2.4680002
-0.51783913 -0.37602425 2.4510002
-0.50977027 -0.37326273 2.4330001
-0.5021801 -0.37080809 2.4170001
-0.49217382 -0.36651242 2.3890002
-0.4841041 -0.36359751 2.3700001
-0.47610101 -0.36068258 2.3510001
-0.47197893 -0.36068258 2.3510001
-0.46785682 -0.36068258 2.3510001
-0.46057874 -0.35822791 2.335
-0.45648471 -0.35822791 2.335
-0.45239067 -0.35822791 2.335
-0.44829664 -0.35822791 2.335
-0.4472464 -0.36068258 2.3510001
-0.44312432 -0.36068258 2.3510001
-0.43900222 -0.36068258 2.3510001
-0.43469515 -0.36052915 2.3500001
-0.43020838 -0.36022234 2.348
-0.42591009 -0.36006892 2.3470001
-0.42215446 -0.36037576 2.3490002
-0.41785792 -0.36022234 2.348
-0.41268381 -0.35930184 2.342
-0.40979871 -0.36037576 2.3490002
-0.40568012 -0.36037576 2.3490002
-0.39985204 -0.35884157 2.3390002
-0.39558181 -0.35868818 2.3380001
-0.39164996 -0.35884157 2.3390002
-0.38904011 -0.36022234 2.348
-0.38607085 -0.36129624 2.355
-0.38242829 -0.3617565 2.358
-0.37845436 -0.36190993 2.3590002
-0.37431824 -0.36190993 2.3590002
-0.37018213 -0.36190993 2.3590002
-0.36604604 -0.36190993 2.3590002
-0.36190993 -0.36190993 2.3590002
-0.35777381 -0.36190993 2.3590002
-0.3536377 -0.36190993 2.3590002
-0.34950158 -0.36190993 2.3590002
-0.34536546 -0.36190993 2.3590002
-0.34122935 -0.36190993 2.3590002
-0.33937958 -0.36436459 2.375
-0.33479199 -0.36390433 2.3720002
-0.33049369 -0.3637509 2.3710001
-0.32633653 -0.3637509 2.3710001
-0.32217938 -0.3637509 2.3710001
-0.31802222 -0.3637509 2.3710001
-0.3130708 -0.3628304 2.365
-0.30774859 -0.36144966 2.3560002
-0.30310223 -0.360836 2.352
-0.29897839 -0.360836 2.352
-0.29673502 -0.36313725 2.3670001
-0.29258487 -0.36313725 2.3670001
-0.28867844 -0.36344409 2.3690002
-0.2845248 -0.36344409 2.3690002
-0.28060785 -0.3637509 2.3710001
-0.27645069 -0.3637509 2.3710001
-0.27229354 -0.3637509 2.3710001
-0.26836258 -0.36405775 2.3730001
-0.2645359 -0.36451799 2.3760002
-0.2602604 -0.36436459 2.375
-0.25782153 -0.36681926 2.391
-0.2536293 -0.36681926 2.391
-0.24766359 -0.36421117 2.3740001
-0.24350117 -0.36421117 2.3740001
-0.23903632 -0.3637509 2.3710001
-0.23487917 -0.3637509 2.3710001
-0.23072201 -0.3637509 2.3710001
-0.22771153 -0.36559191 2.3830001
-0.22353335 -0.36559191 2.3830001
-0.21935515 -0.36559191 2.3830001
-0.21517695 -0.36559191 2.3830001
-0.21099876 -0.36559191 2.3830001
-0.20682056 -0.36559191 2.3830001
-0.20128179 -0.36313725 2.3670001
-0.19746478 -0.3637509 2.3710001
-0.19330762 -0.3637509 2.3710001
-0.18946958 -0.36436459 2.375
-0.18538344 -0.36451799 2.3760002
-0.18205649 -0.36620557 2.3870001
-0.17779677 -0.36605215 2.3860002
-0.17375883 -0.366359 2.388
-0.1696429 -0.36651242 2.3890002
-0.16552344 -0.36666584 2.3900001
-0.16113046 -0.36620557 2.3870001
-0.156748 -0.36574534 2.3840001
-0.15256806 -0.36574534 2.3840001
-0.1483881 -0.36574534 2.3840001
-0.14420816 -0.36574534 2.3840001
-0.14008695 -0.36589876 2.3850002
-0.13590525 -0.36589876 2.3850002
-0.13222063 -0.3672795 2.3940001
-0.12786271 -0.36681926 2.391
-0.12351532 -0.366359 2.388
-0.1194283 -0.36666584 2.3900001
-0.11523783 -0.36666584 2.3900001
-0.11165139 -0.36866024 2.4030001
-0.10672277 -0.36620557 2.3870001
-0.10262348 -0.36651242 2.3890002
-0.099052809 -0.36881366 2.404
-0.09487725 -0.36896709 2.4050002
-0.090660483 -0.36896709 2.4050002
-0.086443715 -0.36896709 2.4050002
-0.082192756 -0.36881366 2.404
-0.077977747 -0.36881366 2.404
-0.074253663 -0.37126833 2.4200001
-0.069981672 -0.37111491 2.4190001
-0.065522946 -0.36988759 2.411
-0.061397351 -0.37050125 2.4150002
-0.057139378 -0.37034783 2.414
-0.053345166 -0.37341616 2.434
-0.049057391 -0.37326273 2.4330001
-0.044681069 -0.37234226 2.427
-0.040309135 -0.37126833 2.4200001
-0.036304519 -0.373723 2.4360001
-0.032033399 -0.373723 2.4360001
-0.02783066 -0.3746435 2.4420002
-0.023674384 -0.37663791 2.4550002
-0.01951197 -0.37939942 2.473
-0.01516984 -0.379246 2.4720001
-0.010831216 -0.37909257 2.4710002
-0.0064987298 -0.37909257 2.4710002
-0.0021671199 -0.379246 2.4720001
0.0021679967 -0.37939942 2.473
0.0065039899 -0.37939942 2.473
0.010839983 -0.37939942 2.473
0.015065516 -0.37663791 2.4550002
0.019369951 -0.37663791 2.4550002
0.023674384 -0.37663791 2.4550002
0.028013006 -0.37709817 2.4580002
0.032519951 -0.37939942 2.473
0.036855944 -0.37939942 2.473
0.041158624 -0.37909257 2.4710002
0.045785669 -0.38154724 2.4870002
0.050206698 -0.38200751 2.49
0.0545725 -0.38200751 2.49
0.058938298 -0.38200751 2.49
0.063329525 -0.3821609 2.4910002
0.067697078 -0.3821609 2.4910002
0.071717471 -0.38031992 2.4790001
0.075849198 -0.379246 2.4720001
0.080183439 -0.379246 2.4720001
0.085167289 -0.3821609 2.4910002
0.088744089 -0.37878576 2.4690001
0.09307307 -0.37878576 2.4690001
0.098269947 -0.3821609 2.4910002
-1.0216138 -0.63804764 4.2070003
-1.012309 -0.63683432 4.1990004
-1.0015961 -0.63471103 4.1850004
-1.0025735 -0.64001924 4.2200003
-0.98927885 -0.63622767 4.1950002
-0.98988205 -0.64138424 4.2290001
-0.97712392 -0.637896 4.2060003
-0.95937401 -0.63107115 4.1610003
-0.92736691 -0.6146915 4.053
-0.92026067 -0.6146915 4.053
-0.91540742 -0.61620814 4.0630002
-0.71424222 -0.48456433 3.1950002
-0.70797497 -0.48410934 3.1920002
-0.69753736 -0.48077276 3.1700001
-0.68892324 -0.47864947 3.1560001
-0.68338972 -0.47864947 3.1560001
-0.67270142 -0.47500956 3.1320002
-0.52575803 -0.3743051 2.4680002
-0.51783913 -0.37172684 2.4510002
-0.50977027 -0.36899689 2.4330001
-0.5021801 -0.36657026 2.4170001
-0.49093771 -0.36141372 2.3830001
-0.4834913 -0.35898709 2.3670001
-0.47610101 -0.3565605 2.3510001
-0.47197893 -0.3565605 2.3510001
-0.46785682 -0.3565605 2.3510001
-0.46373475 -0.3565605 2.3510001
-0.45648471 -0.35413387 2.335
-0.45239067 -0.35413387 2.335
-0.44829664 -0.35413387 2.335
-0.4472464 -0.3565605 2.3510001
-0.44312432 -0.3565605 2.3510001
-0.43900222 -0.3565605 2.3510001
-0.43469515 -0.35640883 2.3500001
-0.43020838 -0.35610551 2.348
-0.42609155 -0.35610551 2.348
-0.42251387 -0.3565605 2.3510001
-0.41803586 -0.35625717 2.3490002
-0.41286004 -0.35534719 2.3430002
-0.40910089 -0.35565051 2.345
-0.4049893 -0.35565051 2.345
-0.39985204 -0.35474053 2.3390002
-0.39558181 -0.35458887 2.3380001
-0.39164996 -0.35474053 2.3390002
-0.38953719 -0.3565605 2.3510001
-0.38672659 -0.35777381 2.3590002
-0.38259047 -0.35777381 2.3590002
-0.37845436 -0.35777381 2.3590002
-0.37431824 -0.35777381 2.3590002
-0.37018213 -0.35777381 2.3590002
-0.36604604 -0.35777381 2.3590002
-0.36190993 -0.35777381 2.3590002
-0.35777381 -0.35777381 2.3590002
-0.3536377 -0.35777381 2.3590002
-0.34950158 -0.35777381 2.3590002
-0.34536546 -0.35777381 2.3590002
-0.34354374 -0.36020041 2.375
-0.33937958 -0.36020041 2.375
-0.33479199 -0.35974541 2.3720002
-0.33049369 -0.35959375 2.3710001
-0.32633653 -0.35959375 2.3710001
-0.32217938 -0.35959375 2.3710001
-0.31802222 -0.35959375 2.3710001
-0.31293845 -0.35853213 2.3640001
-0.30774859 -0.35731882 2.3560002
-0.30284449 -0.35640883 2.3500001
-0.29859704 -0.35625717 2.3490002
-0.29673502 -0.35898709 2.3670001
-0.29258487 -0.35898709 2.3670001
-0.28892216 -0.35959375 2.3710001
-0.28476501 -0.35959375 2.3710001
-0.28060785 -0.35959375 2.3710001
-0.27645069 -0.35959375 2.3710001
-0.27229354 -0.35959375 2.3710001
-0.26813638 -0.35959375 2.3710001
-0.2645359 -0.36035207 2.3760002
-0.26036999 -0.36035207 2.3760002
-0.25782153 -0.36262703 2.391
-0.2536293 -0.36262703 2.391
-0.24755926 -0.35989708 2.3730001
-0.2430909 -0.35944209 2.3700001
-0.23903632 -0.35959375 2.3710001
-0.23487917 -0.35959375 2.3710001
-0.23072201 -0.35959375 2.3710001
-0.22771153 -0.36141372 2.3830001
-0.22353335 -0.36141372 2.3830001
-0.21935515 -0.36141372 2.3830001
-0.21517695 -0.36141372 2.3830001
-0.21099876 -0.36141372 2.3830001
-0.20682056 -0.36141372 2.3830001
-0.20153689 -0.35944209 2.3700001
-0.19746478 -0.35959375 2.3710001
-0.19338916 -0.35974541 2.3720002
-0.18938981 -0.36004874 2.3740001
-0.18522739 -0.36004874 2.3740001
-0.18175142 -0.36141372 2.3830001
-0.17757322 -0.36141372 2.3830001
-0.17375883 -0.36217204 2.388
-0.16957188 -0.36217204 2.388
-0.16524641 -0.36186871 2.3860002
-0.16092795 -0.36156538 2.3840001
-0.15681376 -0.36171705 2.3850002
-0.15269604 -0.36186871 2.3860002
-0.14851259 -0.36186871 2.3860002
-0.14420816 -0.36156538 2.3840001
-0.14014569 -0.36186871 2.3860002
-0.13584827 -0.36156538 2.3840001
-0.13233107 -0.36338535 2.3960001
-0.12807661 -0.36323369 2.3950002
-0.12351532 -0.36217204 2.388
-0.1194283 -0.36247537 2.3900001
-0.11523783 -0.36247537 2.3900001
-0.11165139 -0.364447 2.4030001
-0.10743813 -0.364447 2.4030001
-0.1024946 -0.36186871 2.3860002
-0.098434761 -0.3623237 2.3890002
-0.09487725 -0.36475033 2.4050002
-0.090660483 -0.36475033 2.4050002
-0.086479656 -0.36490199 2.4060001
-0.0827398 -0.36702526 2.4200001
-0.078496732 -0.36702526 2.4200001
-0.074253663 -0.36702526 2.4200001
-0.070010602 -0.36702526 2.4200001
-0.065522946 -0.36566028 2.411
-0.061448198 -0.36657026 2.4170001
-0.057186719 -0.3664186 2.4160001
-0.053410918 -0.36960354 2.437
-0.049138043 -0.36960354 2.437
-0.0447363 -0.3685419 2.4300001
-0.040409073 -0.36793524 2.4260001
-0.036304519 -0.36945188 2.4360001
-0.032033399 -0.36945188 2.4360001
-0.02783066 -0.37036186 2.4420002
-0.023674384 -0.37233347 2.4550002
-0.01951197 -0.37506342 2.473
-0.015175977 -0.37506342 2.473
-0.0108356 -0.37491176 2.4720001
-0.0065039899 -0.37506342 2.473
-0.0021679967 -0.37506342 2.473
0.0021653667 -0.37460843 2.47
0.0064987298 -0.37476009 2.4710002
0.010774233 -0.37278846 2.4580002
0.015065516 -0.37233347 2.4550002
0.019369951 -0.37233347 2.4550002
0.023674384 -0.37233347 2.4550002
0.028013006 -0.37278846 2.4580002
0.032493651 -0.37476009 2.4710002
0.036826137 -0.37476009 2.4710002
0.041141968 -0.37460843 2.47
0.045785669 -0.37718672 2.4870002
0.050206698 -0.37764171 2.49
0.0545725 -0.37764171 2.49
0.05900931 -0.3780967 2.493
0.063405789 -0.37824836 2.4940002
0.06775143 -0.3780967 2.493
0.071775332 -0.37627673 2.4810002
0.075849198 -0.37491176 2.4720001
0.080183439 -0.37491176 2.4720001
0.085098907 -0.37749004 2.4890001
0.088744089 -0.37445676 2.4690001
0.09307307 -0.37445676 2.4690001
0.0987828 -0.37976497 2.5040002
-1.0186998 -0.62887245 4.1950002
-0.99760282 -0.62032759 4.138
-0.99513412 -0.62332577 4.158
-0.9975844 -0.62947208 4.1990004
-0.98173255 -0.62407535 4.1630001
-0.98847759 -0.63306993 4.223
-0.97967941 -0.63217044 4.217
-0.97228557 -0.63217044 4.217
-0.93102789 -0.6099838 4.0690002
-0.92366654 -0.6098339 4.0680003
-0.90977484 -0.60533655 4.0380001
-0.71066546 -0.4765639 3.1790001
-0.70486981 -0.47641397 3.1780002
-0.69775742 -0.4753646 3.1710002
-0.68739522 -0.47206658 3.1490002
-0.67927551 -0.47026765 3.1370001
-0.66776139 -0.46607018 3.1090002
-0.52447987 -0.36907843 2.4620001
-0.51636016 -0.36638004 2.444
-0.50809407 -0.36353174 2.4250002
-0.5001024 -0.36083338 2.4070001
-0.49093771 -0.35723552 2.3830001
-0.4834913 -0.35483697 2.3670001
-0.47610101 -0.35243842 2.3510001
-0.47197893 -0.35243842 2.3510001
-0.46745881 -0.35213858 2.3490002
-0.46314299 -0.35198867 2.348
-0.45609373 -0.34974003 2.3330002
-0.45200318 -0.34974003 2.3330002
-0.44829664 -0.35003984 2.335
-0.4472464 -0.35243842 2.3510001
-0.44312432 -0.35243842 2.3510001
-0.43582782 -0.34988993 2.3340001
-0.43155056 -0.34974003 2.3330002
-0.43112451 -0.35273823 2.3530002
-0.42699891 -0.35273823 2.3530002
-0.42269361 -0.35258833 2.352
-0.41856974 -0.35258833 2.352
-0.41303623 -0.35138905 2.3440001
-0.4085775 -0.35108921 2.342
-0.40429851 -0.3509393 2.3410001
-0.39985204 -0.35063949 2.3390002
-0.395751 -0.35063949 2.3390002
-0.3914825 -0.35048959 2.3380001
-0.39019996 -0.35303804 2.355
-0.38672659 -0.3536377 2.3590002
-0.38259047 -0.3536377 2.3590002
-0.37845436 -0.3536377 2.3590002
-0.37431824 -0.3536377 2.3590002
-0.37018213 -0.3536377 2.3590002
-0.36604604 -0.3536377 2.3590002
-0.36190993 -0.3536377 2.3590002
-0.35777381 -0.3536377 2.3590002
-0.3536377 -0.3536377 2.3590002
-0.34950158 -0.3536377 2.3590002
-0.34536546 -0.3536377 2.3590002
-0.34354374 -0.35603625 2.375
-0.33937958 -0.35603625 2.375
-0.33479199 -0.35558653 2.3720002
-0.33049369 -0.35543659 2.3710001
-0.32633653 -0.35543659 2.3710001
-0.32217938 -0.35543659 2.3710001
-0.31802222 -0.35543659 2.3710001
-0.31320319 -0.35468706 2.3660002
-0.3085323 -0.35408741 2.3620002
-0.30310223 -0.35258833 2.352
-0.29910553 -0.35273823 2.3530002
-0.29660964 -0.35468706 2.3660002
-0.29233766 -0.35453716 2.365
-0.28855658 -0.35498688 2.368
-0.28476501 -0.35543659 2.3710001
-0.28060785 -0.35543659 2.3710001
-0.27645069 -0.35543659 2.3710001
-0.27229354 -0.35543659 2.3710001
-0.26813638 -0.35543659 2.3710001
-0.26464725 -0.35633606 2.3770001
-0.26234251 -0.35888454 2.3940001
-0.25782153 -0.3584348 2.391
-0.25161386 -0.35558653 2.3720002
-0.2472463 -0.35528669 2.3700001
-0.2430909 -0.35528669 2.3700001
-0.23903632 -0.35543659 2.3710001
-0.23487917 -0.35543659 2.3710001
-0.23072201 -0.35543659 2.3710001
-0.22771153 -0.35723552 2.3830001
-0.22353335 -0.35723552 2.3830001
-0.21935515 -0.35723552 2.3830001
-0.21517695 -0.35723552 2.3830001
-0.21099876 -0.35723552 2.3830001
-0.20682056 -0.35723552 2.3830001
-0.20264238 -0.35723552 2.3830001
-0.19763134 -0.35573643 2.3730001
-0.19338916 -0.35558653 2.3720002
-0.18938981 -0.35588634 2.3740001
-0.18522739 -0.35588634 2.3740001
-0.18175142 -0.35723552 2.3830001
-0.17757322 -0.35723552 2.3830001
-0.17375883 -0.35798508 2.388
-0.16957188 -0.35798508 2.388
-0.16524641 -0.35768527 2.3860002
-0.16092795 -0.35738543 2.3840001
-0.15681376 -0.35753536 2.3850002
-0.15269604 -0.35768527 2.3860002
-0.14851259 -0.35768527 2.3860002
-0.14426865 -0.35753536 2.3850002
-0.14014569 -0.35768527 2.3860002
-0.13510749 -0.35543659 2.3710001
-0.13133694 -0.35648596 2.378
-0.12802313 -0.35888454 2.3940001
-0.12346359 -0.35783517 2.3870001
-0.11937833 -0.35813498 2.3890002
-0.11518962 -0.35813498 2.3890002
-0.11165139 -0.36023372 2.4030001
-0.10748284 -0.36038363 2.404
-0.10322487 -0.36023372 2.4030001
-0.09913522 -0.36068347 2.4060001
-0.095271751 -0.36203265 2.4150002
-0.091037452 -0.36203265 2.4150002
-0.086479656 -0.36068347 2.4060001
-0.082261138 -0.36068347 2.4060001
-0.078366987 -0.36218256 2.4160001
-0.074161619 -0.36233246 2.4170001
-0.069923811 -0.36233246 2.4170001
-0.065387063 -0.36068347 2.4060001
-0.062007509 -0.36563048 2.4390001
-0.057683788 -0.36533067 2.437
-0.053388998 -0.36518076 2.4360001
-0.049097717 -0.36503085 2.4350002
-0.044846758 -0.36518076 2.4360001
-0.040459044 -0.36413139 2.4290001
-0.036259811 -0.36473101 2.4330001
-0.031993952 -0.36473101 2.4330001
-0.027785074 -0.36548057 2.4380002
-0.023664739 -0.36787915 2.4540002
-0.019496189 -0.37042761 2.4710002
-0.015175977 -0.37072742 2.473
-0.0108356 -0.37057751 2.4720001
-0.0065039899 -0.37072742 2.473
-0.0021679967 -0.37072742 2.473
0.0021644901 -0.3701278 2.4690001
0.0064987298 -0.37042761 2.4710002
0.010761083 -0.36802906 2.4550002
0.015065516 -0.36802906 2.4550002
0.019369951 -0.36802906 2.4550002
0.023674384 -0.36802906 2.4550002
0.027978817 -0.36802906 2.4550002
0.0324542 -0.36997789 2.4680002
0.036781427 -0.36997789 2.4680002
0.041141968 -0.3702777 2.47
0.045785669 -0.37282616 2.4870002
0.050206698 -0.37327591 2.49
0.0545725 -0.37327591 2.49
0.05903298 -0.37387553 2.4940002
0.063405789 -0.37387553 2.4940002
0.06777861 -0.37387553 2.4940002
0.071804263 -0.37207663 2.4820001
0.075849198 -0.37057751 2.4720001
0.080183439 -0.37057751 2.4720001
0.085201479 -0.37357572 2.4920001
0.088851921 -0.37057751 2.4720001
0.09307307 -0.3701278 2.4690001
0.098112151 -0.37282616 2.4870002
-1.0046153 -0.6129241 4.1370001
-0.99760282 -0.61307228 4.138
-1.0099726 -0.62522113 4.2200003
-1.0025735 -0.62522113 4.2200003
-0.98951471 -0.62166536 4.1960001
-0.99011612 -0.62670267 4.23
-0.9813056 -0.62581378 4.224
-0.97389954 -0.62581378 4.224
-0.93102789 -0.60284948 4.0690002
-0.92366654 -0.60270131 4.0680003
-0.90166396 -0.59292299 4.0020003
-0.70686507 -0.46847138 3.1620002
-0.69932491 -0.46713796 3.1530001
-0.69291645 -0.46654534 3.1490002
-0.68739522 -0.46654534 3.1490002
-0.67581093 -0.46239695 3.1210001
-0.66432482 -0.45824856 3.0930002
-0.52107137 -0.3623912 2.4460001
-0.51382482 -0.36031702 2.4320002
-0.50641787 -0.35809466 2.4170001
-0.49885577 -0.35572416 2.401
-0.48722941 -0.35039052 2.365
-0.48287851 -0.35024235 2.3640001
-0.47549349 -0.34787184 2.348
-0.47197893 -0.34831631 2.3510001
-0.46785682 -0.34831631 2.3510001
-0.46373475 -0.34831631 2.3510001
-0.45961267 -0.34831631 2.3510001
-0.45219693 -0.34579766 2.3340001
-0.44829664 -0.34594581 2.335
-0.4472464 -0.34831631 2.3510001
-0.44010857 -0.34594581 2.335
-0.43601453 -0.34594581 2.335
-0.43173555 -0.34579766 2.3340001
-0.43075806 -0.34831631 2.3510001
-0.42663598 -0.34831631 2.3510001
-0.42287332 -0.34861264 2.3530002
-0.41856974 -0.34846449 2.352
-0.41409349 -0.34816816 2.3500001
-0.41014761 -0.34831631 2.3510001
-0.40533471 -0.34772369 2.3470001
-0.39985204 -0.34653845 2.3390002
-0.39896575 -0.34935343 2.358
-0.39466393 -0.34920526 2.3570001
-0.39003426 -0.34876078 2.3540001
-0.38623479 -0.34905711 2.3560002
-0.38259047 -0.34950158 2.3590002
-0.37845436 -0.34950158 2.3590002
-0.37415957 -0.34935343 2.358
-0.37018213 -0.34950158 2.3590002
-0.36604604 -0.34950158 2.3590002
-0.36190993 -0.34950158 2.3590002
-0.35777381 -0.34950158 2.3590002
-0.3536377 -0.34950158 2.3590002
-0.34950158 -0.34950158 2.3590002
-0.34536546 -0.34950158 2.3590002
-0.34354374 -0.35187209 2.375
-0.33937958 -0.35187209 2.375
-0.33479199 -0.35142761 2.3720002
-0.33049369 -0.35127947 2.3710001
-0.32633653 -0.35127947 2.3710001
-0.32217938 -0.35127947 2.3710001
-0.31802222 -0.35127947 2.3710001
-0.31373268 -0.35113129 2.3700001
-0.30931604 -0.350835 2.368
-0.30464867 -0.35024235 2.3640001
-0.30050379 -0.35024235 2.3640001
-0.29648429 -0.35039052 2.365
-0.29246125 -0.35053867 2.3660002
-0.28758174 -0.34964973 2.3600001
-0.28428459 -0.35068682 2.3670001
-0.28013444 -0.35068682 2.3670001
-0.27633411 -0.35113129 2.3700001
-0.27229354 -0.35127947 2.3710001
-0.27005893 -0.35379812 2.388
-0.26598328 -0.35394627 2.3890002
-0.26212335 -0.35439074 2.3920002
-0.25749803 -0.35379812 2.388
-0.25108346 -0.35068682 2.3670001
-0.2472463 -0.35113129 2.3700001
-0.2430909 -0.35113129 2.3700001
-0.23903632 -0.35127947 2.3710001
-0.23487917 -0.35127947 2.3710001
-0.23062471 -0.35113129 2.3700001
-0.22790265 -0.35335365 2.3850002
-0.22362715 -0.3532055 2.3840001
-0.2194472 -0.3532055 2.3840001
-0.21526726 -0.3532055 2.3840001
-0.21091022 -0.35290918 2.3820002
-0.20673378 -0.35290918 2.3820002
-0.20264238 -0.35305732 2.3830001
-0.1988806 -0.35379812 2.388
-0.19469364 -0.35379812 2.388
-0.19066623 -0.35409445 2.3900001
-0.18639775 -0.35394627 2.3890002
-0.18213277 -0.35379812 2.388
-0.17794579 -0.35379812 2.388
-0.17375883 -0.35379812 2.388
-0.16957188 -0.35379812 2.388
-0.16531566 -0.35364997 2.3870001
-0.16092795 -0.3532055 2.3840001
-0.15681376 -0.35335365 2.3850002
-0.15269604 -0.3535018 2.3860002
-0.14851259 -0.3535018 2.3860002
-0.14426865 -0.35335365 2.3850002
-0.14014569 -0.3535018 2.3860002
-0.13505051 -0.35113129 2.3700001
-0.13166831 -0.3532055 2.3840001
-0.12845096 -0.3558723 2.4020002
-0.12382566 -0.35468706 2.3940001
-0.11962818 -0.35468706 2.3940001
-0.11605752 -0.3566131 2.4070001
-0.11197663 -0.35705757 2.4100001
-0.1077511 -0.35705757 2.4100001
-0.10352556 -0.35705757 2.4100001
-0.099341236 -0.35720572 2.411
-0.095863499 -0.3600207 2.4300001
-0.091527507 -0.35972437 2.4280002
-0.087090693 -0.35898361 2.4230001
-0.082842372 -0.35898361 2.4230001
-0.078107491 -0.35676125 2.4080002
-0.074161619 -0.35809466 2.4170001
-0.070415616 -0.36061332 2.434
-0.065849066 -0.35898361 2.4230001
-0.062007509 -0.36135411 2.4390001
-0.057660121 -0.36090964 2.4360001
-0.053367082 -0.36076149 2.4350002
-0.049097717 -0.36076149 2.4350002
-0.044846758 -0.36090964 2.4360001
-0.040459044 -0.35987255 2.4290001
-0.036274713 -0.36061332 2.434
-0.032007098 -0.36061332 2.434
-0.027785074 -0.36120597 2.4380002
-0.023664739 -0.36357647 2.4540002
-0.019496189 -0.36609513 2.4710002
-0.015175977 -0.36639142 2.473
-0.010839983 -0.36639142 2.473
-0.00655133 -0.36905825 2.4910002
-0.0021837766 -0.36905825 2.4910002
0.0021732566 -0.36728036 2.4790001
0.0064803199 -0.36505803 2.4640002
0.010761083 -0.36372462 2.4550002
0.01516984 -0.36624327 2.4720001
0.019488299 -0.36594698 2.47
0.023645453 -0.36328015 2.4520001
0.027944626 -0.36328015 2.4520001
0.03228325 -0.36372462 2.4550002
0.036587682 -0.36372462 2.4550002
0.040892117 -0.36372462 2.4550002
0.045785669 -0.36846563 2.4870002
0.050146211 -0.36846563 2.4870002
0.054484833 -0.36831748 2.4860001
0.058890961 -0.36861378 2.4880002
0.063405789 -0.36950272 2.4940002
0.06777861 -0.36950272 2.4940002
0.071804263 -0.36772484 2.4820001
0.075910568 -0.3665396 2.4740002
0.080864608 -0.36935458 2.493
0.085167289 -0.36905825 2.4910002
0.088851921 -0.36624327 2.4720001
0.09307307 -0.3657988 2.4690001
0.0980727 -0.36831748 2.4860001
-1.0048581 -0.60581696 4.138
-1.0002548 -0.60742742 4.1490002
-1.0176312 -0.62250698 4.2520003
-1.0101759 -0.62250698 4.2520003
-1.0095596 -0.62675267 4.2810001
-0.9978404 -0.62411743 4.263
-0.99361837 -0.62616706 4.2770004
-0.97389954 -0.61840767 4.224
-0.94201076 -0.60274249 4.1170001
-0.93411112 -0.60230333 4.1140003
-0.9120279 -0.5926407 4.0480003
-0.71357161 -0.46731943 3.1920002
-0.70575696 -0.46585539 3.1820002
-0.69929773 -0.4652698 3.1780002
-0.68739522 -0.46102411 3.1490002
-0.68165743 -0.46087769 3.1480002
-0.67012399 -0.45677841 3.1200001
-0.66103208 -0.45428953 3.1030002
-0.65854937 -0.45633918 3.1170001
-0.65538901 -0.45794964 3.1280003
-0.64990455 -0.45794964 3.1280003
-0.48372713 -0.34375504 2.348
-0.47961029 -0.34375504 2.348
-0.47549349 -0.34375504 2.348
-0.47197893 -0.34419423 2.3510001
-0.46785682 -0.34419423 2.3510001
-0.46373475 -0.34419423 2.3510001
-0.45961267 -0.34419423 2.3510001
-0.45549056 -0.34419423 2.3510001
-0.45136848 -0.34419423 2.3510001
-0.4472464 -0.34419423 2.3510001
-0.44010857 -0.34185177 2.335
-0.43601453 -0.34185177 2.335
-0.43192053 -0.34185177 2.335
-0.43075806 -0.34419423 2.3510001
-0.42663598 -0.34419423 2.3510001
-0.42269361 -0.34434065 2.352
-0.41839179 -0.34419423 2.3510001
-0.41426972 -0.34419423 2.3510001
-0.41293892 -0.3465367 2.3670001
-0.40844339 -0.34624389 2.365
-0.40327105 -0.34536546 2.3590002
-0.40065771 -0.34668308 2.368
-0.39633837 -0.3465367 2.3670001
-0.39235392 -0.34668308 2.368
-0.38869384 -0.34712231 2.3710001
-0.38453668 -0.34712231 2.3710001
-0.38053995 -0.3472687 2.3720002
-0.37638104 -0.3472687 2.3720002
-0.37018213 -0.34536546 2.3590002
-0.36604604 -0.34536546 2.3590002
-0.36436459 -0.34770793 2.375
-0.36020041 -0.34770793 2.375
-0.35603625 -0.34770793 2.375
-0.35187209 -0.34770793 2.375
-0.34770793 -0.34770793 2.375
-0.34325445 -0.34741512 2.3730001
-0.33937958 -0.34770793 2.375
-0.33422741 -0.34668308 2.368
-0.33007553 -0.34668308 2.368
-0.32633653 -0.34712231 2.3710001
-0.32217938 -0.34712231 2.3710001
-0.31788811 -0.34697589 2.3700001
-0.31373268 -0.34697589 2.3700001
-0.30931604 -0.34668308 2.368
-0.30464867 -0.34609747 2.3640001
-0.30050379 -0.34609747 2.3640001
-0.29648429 -0.34624389 2.365
-0.29246125 -0.34639028 2.3660002
-0.28745988 -0.34536546 2.3590002
-0.28428459 -0.3465367 2.3670001
-0.28013444 -0.3465367 2.3670001
-0.27819964 -0.34931836 2.3860002
-0.2740162 -0.34931836 2.3860002
-0.27005893 -0.34961116 2.388
-0.26598328 -0.34975755 2.3890002
-0.26168498 -0.34961116 2.388
-0.25674322 -0.34858632 2.381
-0.2509774 -0.34639028 2.3660002
-0.24703765 -0.34668308 2.368
-0.2430909 -0.34697589 2.3700001
-0.23903632 -0.34712231 2.3710001
-0.23487917 -0.34712231 2.3710001
-0.23237628 -0.34961116 2.388
-0.22809376 -0.34946474 2.3870001
-0.22362715 -0.34902555 2.3840001
-0.2194472 -0.34902555 2.3840001
-0.21526726 -0.34902555 2.3840001
-0.21099876 -0.34887913 2.3830001
-0.20673378 -0.34873274 2.3820002
-0.20255734 -0.34873274 2.3820002
-0.19871403 -0.34931836 2.3860002
-0.19469364 -0.34961116 2.388
-0.19050668 -0.34961116 2.388
-0.18631972 -0.34961116 2.388
-0.18213277 -0.34961116 2.388
-0.17794579 -0.34961116 2.388
-0.17375883 -0.34961116 2.388
-0.16957188 -0.34961116 2.388
-0.16531566 -0.34946474 2.3870001
-0.16099545 -0.34917194 2.3850002
-0.15681376 -0.34917194 2.3850002
-0.15269604 -0.34931836 2.3860002
-0.14851259 -0.34931836 2.3860002
-0.14432915 -0.34931836 2.3860002
-0.14020443 -0.34946474 2.3870001
-0.1360762 -0.34961116 2.388
-0.13282815 -0.35210001 2.4050002
-0.12855791 -0.35195363 2.404
-0.1243429 -0.35195363 2.404
-0.12027779 -0.35239282 2.4070001
-0.11682899 -0.35473529 2.4230001
-0.11258066 -0.35473529 2.4230001
-0.10833233 -0.35473529 2.4230001
-0.10485722 -0.35737053 2.4410002
-0.10057734 -0.35737053 2.4410002
-0.096179098 -0.35693133 2.4380002
-0.091414414 -0.35502809 2.4250002
-0.087090693 -0.35473529 2.4230001
-0.082226947 -0.35210001 2.4050002
-0.078010187 -0.35210001 2.4050002
-0.0738241 -0.3522464 2.4060001
-0.070097387 -0.35473529 2.4230001
-0.065821886 -0.35458887 2.4220002
-0.06170243 -0.3553209 2.427
-0.057376079 -0.35488167 2.424
-0.053191751 -0.3553209 2.427
-0.048936408 -0.3553209 2.427
-0.044625841 -0.35488167 2.424
-0.040409073 -0.35517448 2.4260001
-0.036274713 -0.35634571 2.434
-0.032046549 -0.35678491 2.437
-0.027819263 -0.35737053 2.4410002
-0.023645453 -0.35898098 2.4520001
-0.019496189 -0.36176264 2.4710002
-0.015175977 -0.36205545 2.473
-0.010839983 -0.36205545 2.473
-0.00655133 -0.36469069 2.4910002
-0.0021837766 -0.36469069 2.4910002
0.0021732566 -0.36293387 2.4790001
0.0064803199 -0.3607378 2.4640002
0.0107567 -0.35927379 2.4540002
0.01516984 -0.36190903 2.4720001
0.019480409 -0.36146984 2.4690001
0.023645453 -0.35898098 2.4520001
0.027944626 -0.35898098 2.4520001
0.0324542 -0.36132342 2.4680002
0.036781427 -0.36132342 2.4680002
0.041241907 -0.36249465 2.4760001
0.045785669 -0.36410508 2.4870002
0.050206698 -0.3645443 2.49
0.0545725 -0.3645443 2.49
0.058867291 -0.36410508 2.4870002
0.063253254 -0.36425149 2.4880002
0.067615546 -0.36425149 2.4880002
0.071746401 -0.36308026 2.48
0.075879879 -0.36205545 2.473
0.080832176 -0.36483711 2.4920001
0.085064717 -0.36425149 2.4880002
0.088744089 -0.36146984 2.4690001
0.093186162 -0.36190903 2.4720001
0.097599298 -0.36220184 2.4740002
-1.0065579 -0.59957427 4.145
-1.0050764 -0.60304582 4.1690001
-1.0152378 -0.61360532 4.2420001
-1.0101759 -0.61505181 4.2520003
-1.0095596 -0.61924666 4.2810001
-1.0102462 -0.62430942 4.316
-0.99036592 -0.61664295 4.263
-0.97182447 -0.60969973 4.2150002
-0.94681579 -0.5985617 4.138
-0.93956047 -0.5985617 4.138
-0.94357038 -0.60579419 4.1880002
-0.98339647 -0.63631535 4.3990002
-0.71218908 -0.46447116 3.2110002
-0.70017791 -0.46027631 3.1820002
-0.69372559 -0.45969769 3.1780002
-0.68187398 -0.45550284 3.1490002
-0.67141271 -0.45217589 3.1260002
-0.66870117 -0.45405635 3.1390002
-0.6655215 -0.4556475 3.1500001
-0.66146517 -0.45666003 3.1570001
-0.65592986 -0.45666003 3.1570001
-0.48372713 -0.3396382 2.348
-0.47961029 -0.3396382 2.348
-0.47549349 -0.3396382 2.348
-0.47177815 -0.33992749 2.3500001
-0.46765783 -0.33992749 2.3500001
-0.46373475 -0.34007215 2.3510001
-0.45961267 -0.34007215 2.3510001
-0.45549056 -0.34007215 2.3510001
-0.45136848 -0.34007215 2.3510001
-0.4472464 -0.34007215 2.3510001
-0.44312432 -0.34007215 2.3510001
-0.43601453 -0.33775774 2.335
-0.43192053 -0.33775774 2.335
-0.43039161 -0.33978283 2.3490002
-0.42627302 -0.33978283 2.3490002
-0.42251387 -0.34007215 2.3510001
-0.41839179 -0.34007215 2.3510001
-0.41708907 -0.34238654 2.3670001
-0.41293892 -0.34238654 2.3670001
-0.40844339 -0.34209725 2.365
-0.4044677 -0.34224188 2.3660002
-0.4008269 -0.34267583 2.3690002
-0.3965058 -0.3425312 2.368
-0.39235392 -0.3425312 2.368
-0.38869384 -0.34296516 2.3710001
-0.38453668 -0.34296516 2.3710001
-0.38053995 -0.34310979 2.3720002
-0.37638104 -0.34310979 2.3720002
-0.37269291 -0.34354374 2.375
-0.36852875 -0.34354374 2.375
-0.36436459 -0.34354374 2.375
-0.36020041 -0.34354374 2.375
-0.35603625 -0.34354374 2.375
-0.35187209 -0.34354374 2.375
-0.34770793 -0.34354374 2.375
-0.3436884 -0.3436884 2.3760002
-0.33937958 -0.34354374 2.375
-0.3345097 -0.3428205 2.3700001
-0.33007553 -0.3425312 2.368
-0.32619891 -0.3428205 2.3700001
-0.32217938 -0.34296516 2.3710001
-0.31802222 -0.34296516 2.3710001
-0.31598309 -0.34527954 2.3870001
-0.31114477 -0.3445563 2.3820002
-0.30683947 -0.34441164 2.381
-0.302919 -0.34470096 2.3830001
-0.29849011 -0.34441164 2.381
-0.29456264 -0.34470096 2.3830001
-0.28843471 -0.34238654 2.3670001
-0.28428459 -0.34238654 2.3670001
-0.28202805 -0.34470096 2.3830001
-0.27843285 -0.34542421 2.388
-0.2740162 -0.34513488 2.3860002
-0.27005893 -0.34542421 2.388
-0.26587197 -0.34542421 2.388
-0.26168498 -0.34542421 2.388
-0.25652757 -0.34412235 2.3790002
-0.25278071 -0.34470096 2.3830001
-0.2472463 -0.3428205 2.3700001
-0.2430909 -0.3428205 2.3700001
-0.24075019 -0.34542421 2.388
-0.23656324 -0.34542421 2.388
-0.23237628 -0.34542421 2.388
-0.22809376 -0.34527954 2.3870001
-0.22362715 -0.34484559 2.3840001
-0.2194472 -0.34484559 2.3840001
-0.21526726 -0.34484559 2.3840001
-0.21099876 -0.34470096 2.3830001
-0.20673378 -0.3445563 2.3820002
-0.20255734 -0.3445563 2.3820002
-0.19854747 -0.34484559 2.3840001
