# .PCD v0.7 - Point Cloud Data file format
VERSION 0.7
FIELDS x y z
SIZE 4 4 4
TYPE F F F
COUNT 1 1 1
WIDTH 1484
HEIGHT 1
VIEWPOINT 0 0 0 1 0 0 0
POINTS 1484
DATA ascii
0.16943337 0.15447041 0.50200003
0.17031354 0.15447041 0.50200003
0.17153473 0.15477812 0.50300002
0.17241666 0.15477812 0.50300002
0.17329858 0.15477812 0.50300002
0.17418052 0.15477812 0.50300002
0.1747144 0.15447041 0.50200003
0.17524479 0.1541627 0.50100005
0.1761232 0.1541627 0.50100005
0.17735493 0.15447041 0.50200003
0.17788005 0.1541627 0.50100005
0.17840166 0.153855 0.5
0.17927833 0.153855 0.5
0.18015499 0.153855 0.5
0.18066961 0.15354729 0.49900001
0.1811807 0.15323958 0.49800003
0.18168829 0.15293187 0.49700001
0.18292701 0.15323958 0.49800003
0.18380018 0.15323958 0.49800003
0.18393168 0.15262416 0.49600002
0.18442875 0.15231645 0.49500003
0.18529665 0.15231645 0.49500003
0.18578845 0.15200874 0.49400002
0.18627676 0.15170103 0.49300003
0.18638197 0.15108562 0.49100003
0.1868615 0.15077791 0.49000001
0.18848684 0.15139332 0.49200001
0.18857977 0.15077791 0.49000001
0.18943889 0.15077791 0.49000001
0.19068639 0.15108562 0.49100003
0.19154729 0.15108562 0.49100003
0.19240817 0.15108562 0.49100003
0.19326906 0.15108562 0.49100003
0.19333918 0.15047018 0.48900002
0.19379944 0.15016247 0.48800004
0.19425619 0.14985476 0.48700002
0.19470942 0.14954706 0.48600003
0.19596393 0.14985476 0.48700002
0.1968178 0.14985476 0.48700002
0.19726577 0.14954706 0.48600003
0.19771025 0.14923935 0.48500001
0.19856061 0.14923935 0.48500001
0.19941097 0.14923935 0.48500001
0.20108716 0.14985476 0.48700002
0.20194104 0.14985476 0.48700002
0.20279491 0.14985476 0.48700002
0.20323062 0.14954706 0.48600003
0.20450266 0.14985476 0.48700002
0.20577821 0.15016247 0.48800004
0.20875099 0.15170103 0.49300003
0.20961538 0.15170103 0.49300003
0.2096259 0.15108562 0.49100003
0.21048678 0.15108562 0.49100003
0.21134767 0.15108562 0.49100003
0.21220857 0.15108562 0.49100003
0.21350341 0.15139332 0.49200001
0.21436603 0.15139332 0.49200001
0.21566613 0.15170103 0.49300003
0.21653053 0.15170103 0.49300003
0.21651299 0.15108562 0.49100003
0.21781659 0.15139332 0.49200001
0.21912371 0.15170103 0.49300003
0.22043432 0.15200874 0.49400002
0.31158924 0.20831966 0.67700005
0.31231424 0.20801196 0.67600006
0.15658143 0.16401556 0.53000003
0.15810508 0.1646345 0.53200001
0.15843996 0.16401556 0.53000003
0.15846714 0.16308717 0.52700001
0.15787891 0.16153985 0.52200001
0.15879413 0.16153985 0.52200001
0.15940343 0.1612304 0.52100003
0.1597015 0.16061147 0.51900005
0.15999255 0.15999255 0.51700002
0.1605878 0.15968308 0.51600003
0.1605536 0.15875469 0.51300001
0.16113834 0.15844522 0.51200002
0.1614031 0.1578263 0.51000005
0.16166084 0.15720737 0.50800002
0.16255154 0.15720737 0.50800002
0.16279875 0.15658845 0.50600004
0.16368593 0.15658845 0.50600004
0.16457313 0.15658845 0.50600004
0.16546032 0.15658845 0.50600004
0.16601875 0.15627898 0.505
0.16690418 0.15627898 0.505
0.16712511 0.15566006 0.50300002
0.16767302 0.1553506 0.50200003
0.16922472 0.15596952 0.50400001
0.16977088 0.15566006 0.50300002
0.17065281 0.15566006 0.50300002
0.17153473 0.15566006 0.50300002
0.17310221 0.15627898 0.505
0.17364311 0.15596952 0.50400001
0.1745268 0.15596952 0.50400001
0.1747144 0.1553506 0.50200003
0.17524479 0.15504113 0.50100005
0.17577167 0.15473166 0.5
0.17664833 0.15473166 0.5
0.177525 0.15473166 0.5
0.17804486 0.15442221 0.49900001
0.17891978 0.15442221 0.49900001
0.17907406 0.15380327 0.49700001
0.18030754 0.15411274 0.49800003
0.1811807 0.15411274 0.49800003
0.18168829 0.15380327 0.49700001
0.1825597 0.15380327 0.49700001
0.1834311 0.15380327 0.49700001
0.18393168 0.15349381 0.49600002
0.18442875 0.15318435 0.49500003
0.18529665 0.15318435 0.49500003
0.18541236 0.15256542 0.49300003
0.18589891 0.15225595 0.49200001
0.18676156 0.15225595 0.49200001
0.18724285 0.1519465 0.49100003
0.18848684 0.15225595 0.49200001
0.18896462 0.1519465 0.49100003
0.18982551 0.1519465 0.49100003
0.19068639 0.1519465 0.49100003
0.1919374 0.15225595 0.49200001
0.19240817 0.1519465 0.49100003
0.19326906 0.1519465 0.49100003
0.19333918 0.15132757 0.48900002
0.19379944 0.15101811 0.48800004
0.19465506 0.15101811 0.48800004
0.19470942 0.15039918 0.48600003
0.19556154 0.15039918 0.48600003
0.19641367 0.15039918 0.48600003
0.19726577 0.15039918 0.48600003
0.19771025 0.15008971 0.48500001
0.19856061 0.15008971 0.48500001
0.19941097 0.15008971 0.48500001
0.20108716 0.15070865 0.48700002
0.20235571 0.15101811 0.48800004
0.20279491 0.15070865 0.48700002
0.20364879 0.15070865 0.48700002
0.2053425 0.15132757 0.48900002
0.20662157 0.15163703 0.49000001
0.20790413 0.1519465 0.49100003
0.20876502 0.1519465 0.49100003
0.2096259 0.1519465 0.49100003
0.21048678 0.1519465 0.49100003
0.21091723 0.15163703 0.49000001
0.21091197 0.15101811 0.48800004
0.2126355 0.15163703 0.49000001
0.21436603 0.15225595 0.49200001
0.21566613 0.15256542 0.49300003
0.21653053 0.15256542 0.49300003
0.21651299 0.1519465 0.49100003
0.21781659 0.15225595 0.49200001
0.21912371 0.15256542 0.49300003
0.22088055 0.15318435 0.49500003
0.22174844 0.15318435 0.49500003
0.31066874 0.20888776 0.67500001
0.31185225 0.20888776 0.67500001
0.156286 0.16463362 0.52900004
0.15721351 0.16463362 0.52900004
0.15754314 0.16401118 0.52700001
0.15816644 0.16369997 0.52600002
0.15757644 0.16214389 0.52100003
0.15879413 0.1624551 0.52200001
0.15940343 0.16214389 0.52100003
0.1597015 0.16152145 0.51900005
0.15999255 0.16089901 0.51700002
0.1605878 0.1605878 0.51600003
0.1605536 0.15965416 0.51300001
0.16082363 0.15903172 0.51100004
0.16108662 0.15840928 0.509
0.16166084 0.15809807 0.50800002
0.16255154 0.15809807 0.50800002
0.16279875 0.15747564 0.50600004
0.16368593 0.15747564 0.50600004
0.16457313 0.15747564 0.50600004
0.16578731 0.15778685 0.50700003
0.16601875 0.15716441 0.505
0.16657367 0.1568532 0.50400001
0.16712511 0.15654199 0.50300002
0.16800703 0.15654199 0.50300002
0.16888896 0.15654199 0.50300002
0.16977088 0.15654199 0.50300002
0.17065281 0.15654199 0.50300002
0.17153473 0.15654199 0.50300002
0.17310221 0.15716441 0.505
0.17398764 0.15716441 0.505
0.17418052 0.15654199 0.50300002
0.17436637 0.15591955 0.50100005
0.174895 0.15560833 0.5
0.17471704 0.15467468 0.49700001
0.17594174 0.1549859 0.49800003
0.17716995 0.15529712 0.49900001
0.17768806 0.1549859 0.49800003
0.17856123 0.1549859 0.49800003
0.17871375 0.15436347 0.49600002
0.17958342 0.15436347 0.49600002
0.18081689 0.15467468 0.49700001
0.18168829 0.15467468 0.49700001
0.18219237 0.15436347 0.49600002
0.18306203 0.15436347 0.49600002
0.18393168 0.15436347 0.49600002
0.18442875 0.15405224 0.49500003
0.18492231 0.15374103 0.49400002
0.18503627 0.1531186 0.49200001
0.18589891 0.1531186 0.49200001
0.18676156 0.1531186 0.49200001
0.18800555 0.15342982 0.49300003
0.18886994 0.15342982 0.49300003
0.18973434 0.15342982 0.49300003
0.18982551 0.15280738 0.49100003
0.19068639 0.15280738 0.49100003
0.19154729 0.15280738 0.49100003
0.19240817 0.15280738 0.49100003
0.19326906 0.15280738 0.49100003
0.19333918 0.15218495 0.48900002
0.19379944 0.15187374 0.48800004
0.19465506 0.15187374 0.48800004
0.19511005 0.15156251 0.48700002
0.19596393 0.15156251 0.48700002
0.1968178 0.15156251 0.48700002
0.19767168 0.15156251 0.48700002
0.1981179 0.1512513 0.48600003
0.19897002 0.1512513 0.48600003
0.19982214 0.1512513 0.48600003
0.20150007 0.15187374 0.48800004
0.20277037 0.15218495 0.48900002
0.20279491 0.15156251 0.48700002
0.20364879 0.15156251 0.48700002
0.2053425 0.15218495 0.48900002
0.20662157 0.15249616 0.49000001
0.20663384 0.15187374 0.48800004
0.20748946 0.15187374 0.48800004
0.20834509 0.15187374 0.48800004
0.20920072 0.15187374 0.48800004
0.21005635 0.15187374 0.48800004
0.21047978 0.15156251 0.48700002
0.21306945 0.15280738 0.49100003
0.21436603 0.1531186 0.49200001
0.21479122 0.15280738 0.49100003
0.21609132 0.1531186 0.49200001
0.21739492 0.15342982 0.49300003
0.21825932 0.15342982 0.49300003
0.21867923 0.1531186 0.49200001
0.22043432 0.15374103 0.49400002
0.22174844 0.15405224 0.49500003
0.29596967 0.2016684 0.648
0.29710585 0.2016684 0.648
0.29962274 0.20260204 0.65100002
0.30122617 0.20291327 0.65200001
0.15447743 0.16462222 0.52600002
0.15721351 0.16556112 0.52900004
0.15724419 0.16462222 0.52600002
0.15786575 0.16430925 0.52500004
0.15787891 0.16337034 0.52200001
0.15909834 0.16368331 0.523
0.15940343 0.16305737 0.52100003
0.1597015 0.16243143 0.51900005
0.15999255 0.1618055 0.51700002
0.1605878 0.16149251 0.51600003
0.1605536 0.1605536 0.51300001
0.16082363 0.15992767 0.51100004
0.16108662 0.15930173 0.509
0.16166084 0.15898876 0.50800002
0.16223155 0.15867579 0.50700003
0.16279875 0.15836282 0.50600004
0.16336244 0.15804985 0.505
0.16457313 0.15836282 0.50600004
0.16513331 0.15804985 0.505
0.16569 0.15773688 0.50400001
0.16624318 0.15742391 0.50300002
0.16712511 0.15742391 0.50300002
0.16767302 0.15711094 0.50200003
0.16888896 0.15742391 0.50300002
0.16977088 0.15742391 0.50300002
0.17065281 0.15742391 0.50300002
0.17119372 0.15711094 0.50200003
0.17207389 0.15711094 0.50200003
0.17329858 0.15742391 0.50300002
0.17348795 0.15679798 0.50100005
0.17367029 0.15617202 0.49900001
0.17419542 0.15585905 0.49800003
0.17471704 0.15554608 0.49700001
0.17594174 0.15585905 0.49800003
0.17716995 0.15617202 0.49900001
0.17768806 0.15585905 0.49800003
0.17784411 0.15523311 0.49600002
0.17871375 0.15523311 0.49600002
0.17958342 0.15523311 0.49600002
0.18081689 0.15554608 0.49700001
0.18168829 0.15554608 0.49700001
0.18219237 0.15523311 0.49600002
0.18269295 0.15492015 0.49500003
0.18356085 0.15492015 0.49500003
0.18405616 0.15460718 0.49400002
0.18492231 0.15460718 0.49400002
0.18503627 0.15398124 0.49200001
0.18589891 0.15398124 0.49200001
0.18638197 0.15366827 0.49100003
0.1876242 0.15398124 0.49200001
0.18925305 0.15460718 0.49400002
0.19011919 0.15460718 0.49400002
0.19059873 0.15429421 0.49300003
0.19107476 0.15398124 0.49200001
0.19154729 0.15366827 0.49100003
0.19240817 0.15366827 0.49100003
0.19366267 0.15398124 0.49200001
0.19333918 0.15304233 0.48900002
0.19379944 0.15272936 0.48800004
0.19465506 0.15272936 0.48800004
0.19551069 0.15272936 0.48800004
0.19636633 0.15272936 0.48800004
0.19722195 0.15272936 0.48800004
0.19767168 0.15241639 0.48700002
0.19852555 0.15241639 0.48700002
0.19937943 0.15241639 0.48700002
0.20064445 0.15272936 0.48800004
0.2023259 0.1533553 0.49000001
0.20318504 0.1533553 0.49000001
0.20321134 0.15272936 0.48800004
0.20406696 0.15272936 0.48800004
0.20576243 0.1533553 0.49000001
0.20704325 0.15366827 0.49100003
0.2074807 0.1533553 0.49000001
0.20833983 0.1533553 0.49000001
0.20834509 0.15272936 0.48800004
0.20920072 0.15272936 0.48800004
0.2096259 0.15241639 0.48700002
0.21047978 0.15241639 0.48700002
0.21306945 0.15366827 0.49100003
0.21436603 0.15398124 0.49200001
0.21479122 0.15366827 0.49100003
0.21609132 0.15398124 0.49200001
0.21783589 0.15460718 0.49400002
0.21870203 0.15460718 0.49400002
0.21912371 0.15429421 0.49300003
0.29688317 0.2034305 0.65000004
0.29802284 0.2034305 0.65000004
0.29916251 0.2034305 0.65000004
0.30168816 0.20436941 0.65300006
0.15694524 0.16522975 0.52500004
0.15786575 0.16522975 0.52500004
0.15818135 0.1646003 0.523
0.15879413 0.16428559 0.52200001
0.15970938 0.16428559 0.52200001
0.16000921 0.16365613 0.52000004
0.15999255 0.16271196 0.51700002
0.1605878 0.16239724 0.51600003
0.1605536 0.16145307 0.51300001
0.16113834 0.16113834 0.51200002
0.16108662 0.16019417 0.509
0.16166084 0.15987945 0.50800002
0.16191156 0.15925001 0.50600004
0.16247702 0.15893528 0.505
0.16303895 0.15862057 0.50400001
0.16457313 0.15925001 0.50600004
0.16513331 0.15893528 0.505
0.16569 0.15862057 0.50400001
0.16591267 0.15799111 0.50200003
0.16712511 0.15830584 0.50300002
0.16800703 0.15830584 0.50300002
0.16888896 0.15830584 0.50300002
0.16977088 0.15830584 0.50300002
0.17065281 0.15830584 0.50300002
0.17119372 0.15799111 0.50200003
0.17207389 0.15799111 0.50200003
0.17329858 0.15830584 0.50300002
0.17348795 0.15767638 0.50100005
0.17367029 0.15704694 0.49900001
0.17384563 0.15641749 0.49700001
0.17471704 0.15641749 0.49700001
0.17558844 0.15641749 0.49700001
0.17645985 0.15641749 0.49700001
0.17733125 0.15641749 0.49700001
0.17784411 0.15610278 0.49600002
0.17871375 0.15610278 0.49600002
0.17958342 0.15610278 0.49600002
0.18081689 0.15641749 0.49700001
0.18168829 0.15641749 0.49700001
0.18219237 0.15610278 0.49600002
0.18269295 0.15578805 0.49500003
0.18356085 0.15578805 0.49500003
0.18405616 0.15547332 0.49400002
0.18492231 0.15547332 0.49400002
0.18503627 0.15484388 0.49200001
0.18627676 0.15515861 0.49300003
0.18638197 0.15452915 0.49100003
0.1876242 0.15484388 0.49200001
0.18925305 0.15547332 0.49400002
0.19011919 0.15547332 0.49400002
0.19021212 0.15484388 0.49200001
0.19107476 0.15484388 0.49200001
0.19154729 0.15452915 0.49100003
0.1920163 0.15421443 0.49000001
0.19326906 0.15452915 0.49100003
0.19333918 0.15389971 0.48900002
0.19379944 0.15358499 0.48800004
0.19465506 0.15358499 0.48800004
0.19551069 0.15358499 0.48800004
0.19636633 0.15358499 0.48800004
0.19722195 0.15358499 0.48800004
0.19807757 0.15358499 0.48800004
0.19852555 0.15327026 0.48700002
0.19897002 0.15295553 0.48600003
0.19982214 0.15295553 0.48600003
0.20108716 0.15327026 0.48700002
0.20194104 0.15327026 0.48700002
0.20321134 0.15358499 0.48800004
0.20406696 0.15358499 0.48800004
0.20660228 0.15484388 0.49200001
0.20746492 0.15484388 0.49200001
0.20790413 0.15452915 0.49100003
0.20876502 0.15452915 0.49100003
0.2096259 0.15452915 0.49100003
0.21005809 0.15421443 0.49000001
0.21134767 0.15452915 0.49100003
0.21177636 0.15421443 0.49000001
0.21350341 0.15484388 0.49200001
0.21436603 0.15484388 0.49200001
0.21566613 0.15515861 0.49300003
0.21740896 0.15578805 0.49500003
0.21827684 0.15578805 0.49500003
0.21958746 0.15610278 0.49600002
0.22001265 0.15578805 0.49500003
0.22088055 0.15578805 0.49500003
0.29642642 0.20425545 0.64900005
0.29756433 0.20425545 0.64900005
0.29916251 0.20457016 0.65000004
0.30122617 0.20519961 0.65200001
0.15694524 0.16615024 0.52500004
0.15786575 0.16615024 0.52500004
0.1584838 0.16583377 0.52400005
0.15879413 0.16520081 0.52200001
0.15970938 0.16520081 0.52200001
0.16000921 0.16456787 0.52000004
0.16061147 0.16425139 0.51900005
0.1605878 0.16330196 0.51600003
0.1605536 0.16235253 0.51300001
0.16019417 0.16108662 0.509
0.16077015 0.16077015 0.50800002
0.16134261 0.16045366 0.50700003
0.16191156 0.16013719 0.50600004
0.16215529 0.15950423 0.50400001
0.16271546 0.15918776 0.50300002
0.16424789 0.15982072 0.505
0.16480632 0.15950423 0.50400001
0.16569 0.15950423 0.50400001
0.16591267 0.15887129 0.50200003
0.16679284 0.15887129 0.50200003
0.16800703 0.15918776 0.50300002
0.16888896 0.15918776 0.50300002
0.16977088 0.15918776 0.50300002
0.17065281 0.15918776 0.50300002
0.17119372 0.15887129 0.50200003
0.17207389 0.15887129 0.50200003
0.17295405 0.15887129 0.50200003
0.17348795 0.15855481 0.50100005
0.17367029 0.15792185 0.49900001
0.17419542 0.15760538 0.49800003
0.17471704 0.15728891 0.49700001
0.17523515 0.15697242 0.49600002
0.17645985 0.15728891 0.49700001
0.17733125 0.15728891 0.49700001
0.17784411 0.15697242 0.49600002
0.17871375 0.15697242 0.49600002
0.18030754 0.15760538 0.49800003
0.18081689 0.15728891 0.49700001
0.18168829 0.15728891 0.49700001
0.18219237 0.15697242 0.49600002
0.18269295 0.15665595 0.49500003
0.18356085 0.15665595 0.49500003
0.18442875 0.15665595 0.49500003
0.18492231 0.15633947 0.49400002
0.18578845 0.15633947 0.49400002
0.18627676 0.156023 0.49300003
0.18638197 0.15539004 0.49100003
0.1876242 0.15570652 0.49200001
0.18925305 0.15633947 0.49400002
0.19011919 0.15633947 0.49400002
0.19059873 0.156023 0.49300003
0.19146313 0.156023 0.49300003
0.19154729 0.15539004 0.49100003
0.1920163 0.15507357 0.49000001
0.19326906 0.15539004 0.49100003
0.19333918 0.15475708 0.48900002
0.19379944 0.15444061 0.48800004
0.19465506 0.15444061 0.48800004
0.19551069 0.15444061 0.48800004
0.19636633 0.15444061 0.48800004
0.19722195 0.15444061 0.48800004
0.19848347 0.15475708 0.48900002
0.1989332 0.15444061 0.48800004
0.19897002 0.15380765 0.48600003
0.19982214 0.15380765 0.48600003
0.20108716 0.15412414 0.48700002
0.20194104 0.15412414 0.48700002
0.20321134 0.15444061 0.48800004
0.20406696 0.15444061 0.48800004
0.20660228 0.15570652 0.49200001
0.20746492 0.15570652 0.49200001
0.20832756 0.15570652 0.49200001
0.2091902 0.15570652 0.49200001
0.21090671 0.15633947 0.49400002
0.21048678 0.15539004 0.49100003
0.21134767 0.15539004 0.49100003
0.21177636 0.15507357 0.49000001
0.2126355 0.15507357 0.49000001
0.21393034 0.15539004 0.49100003
0.21522868 0.15570652 0.49200001
0.21696974 0.15633947 0.49400002
0.21915877 0.15728891 0.49700001
0.21958746 0.15697242 0.49600002
0.22001265 0.15665595 0.49500003
0.22088055 0.15665595 0.49500003
0.22309238 0.15760538 0.49800003
0.29688317 0.20570983 0.65000004
0.29664734 0.2047604 0.64700001
0.29778174 0.2047604 0.64700001
0.23146367 0.15855481 0.50100005
0.15604842 0.16611606 0.52200001
0.15726435 0.16643429 0.523
0.15818135 0.16643429 0.523
0.15909834 0.16643429 0.523
0.15970938 0.16611606 0.52200001
0.16031691 0.16579783 0.52100003
0.16061147 0.16516137 0.51900005
0.1605878 0.16420668 0.51600003
0.1605536 0.163252 0.51300001
0.16019417 0.16197906 0.509
0.16077015 0.16166084 0.50800002
0.16134261 0.16134261 0.50700003
0.16223155 0.16134261 0.50700003
0.16247702 0.16070615 0.505
0.16271546 0.16006969 0.50300002
0.16424789 0.16070615 0.505
0.16480632 0.16038792 0.50400001
0.16569 0.16038792 0.50400001
0.16624318 0.16006969 0.50300002
0.16712511 0.16006969 0.50300002
0.16800703 0.16006969 0.50300002
0.16888896 0.16006969 0.50300002
0.16977088 0.16006969 0.50300002
0.17031354 0.15975146 0.50200003
0.17119372 0.15975146 0.50200003
0.17207389 0.15975146 0.50200003
0.17226499 0.159115 0.5
0.17314166 0.159115 0.5
0.17367029 0.15879677 0.49900001
0.17419542 0.15847854 0.49800003
0.17471704 0.15816031 0.49700001
0.17523515 0.15784208 0.49600002
0.1761048 0.15784208 0.49600002
0.17733125 0.15816031 0.49700001
0.17784411 0.15784208 0.49600002
0.17871375 0.15784208 0.49600002
0.18030754 0.15847854 0.49800003
0.18045306 0.15784208 0.49600002
0.18132272 0.15784208 0.49600002
0.18292701 0.15847854 0.49800003
0.18269295 0.15752386 0.49500003
0.18356085 0.15752386 0.49500003
0.18442875 0.15752386 0.49500003
0.18492231 0.15720563 0.49400002
0.18578845 0.15720563 0.49400002
0.18665461 0.15720563 0.49400002
0.18752076 0.15720563 0.49400002
0.1883869 0.15720563 0.49400002
0.18963616 0.15752386 0.49500003
0.19050404 0.15752386 0.49500003
0.19137195 0.15752386 0.49500003
0.19185148 0.15720563 0.49400002
0.1919374 0.15656915 0.49200001
0.19280005 0.15656915 0.49200001
0.19326906 0.15625092 0.49100003
0.19333918 0.15561447 0.48900002
0.19379944 0.15529624 0.48800004
0.19465506 0.15529624 0.48800004
0.19551069 0.15529624 0.48800004
0.19636633 0.15529624 0.48800004
0.19722195 0.15529624 0.48800004
0.19807757 0.15529624 0.48800004
0.19934085 0.15561447 0.48900002
0.19937943 0.15497801 0.48700002
0.2002333 0.15497801 0.48700002
0.20150007 0.15529624 0.48800004
0.20235571 0.15529624 0.48800004
0.20362775 0.15561447 0.48900002
0.20448513 0.15561447 0.48900002
0.20660228 0.15656915 0.49200001
0.20746492 0.15656915 0.49200001
0.20875099 0.15688738 0.49300003
0.21046574 0.15752386 0.49500003
0.21047978 0.15688738 0.49300003
0.21048678 0.15625092 0.49100003
0.21134767 0.15625092 0.49100003
0.21134417 0.15561447 0.48900002
0.2126355 0.15593269 0.49000001
0.21349463 0.15593269 0.49000001
0.21435377 0.15593269 0.49000001
0.21653053 0.15688738 0.49300003
0.21827684 0.15752386 0.49500003
0.21914475 0.15752386 0.49500003
0.22045712 0.15784208 0.49600002
0.22132677 0.15784208 0.49600002
0.22354035 0.15879677 0.49900001
0.22441527 0.15879677 0.49900001
0.23062383 0.16006969 0.50300002
0.2310455 0.15975146 0.50200003
0.23100166 0.159115 0.5
0.15572757 0.16767126 0.52400005
0.15604842 0.1670313 0.52200001
0.15696366 0.1670313 0.52200001
0.15787891 0.1670313 0.52200001
0.15909834 0.16735128 0.523
0.15970938 0.1670313 0.52200001
0.16031691 0.16671132 0.52100003
0.160302 0.16575137 0.51800001
0.1605878 0.16511139 0.51600003
0.16024064 0.16383147 0.51200002
0.16019417 0.16287151 0.509
0.16077015 0.16255154 0.50800002
0.16166084 0.16255154 0.50800002
0.16223155 0.16223155 0.50700003
0.16215529 0.1612716 0.50400001
0.16303895 0.1612716 0.50400001
0.16424789 0.16159159 0.505
0.16480632 0.1612716 0.50400001
0.16536126 0.16095161 0.50300002
0.16624318 0.16095161 0.50300002
0.16712511 0.16095161 0.50300002
0.16800703 0.16095161 0.50300002
0.16855319 0.16063163 0.50200003
0.16943337 0.16063163 0.50200003
0.17031354 0.16063163 0.50200003
0.17085269 0.16031165 0.50100005
0.17173111 0.16031165 0.50100005
0.17260952 0.16031165 0.50100005
0.17348795 0.16031165 0.50100005
0.17436637 0.16031165 0.50100005
0.17454521 0.15967168 0.49900001
0.17506857 0.15935169 0.49800003
0.17594174 0.15935169 0.49800003
0.17645985 0.15903172 0.49700001
0.17768806 0.15935169 0.49800003
0.17820266 0.15903172 0.49700001
0.17907406 0.15903172 0.49700001
0.17922135 0.15839174 0.49500003
0.18008925 0.15839174 0.49500003
0.18095715 0.15839174 0.49500003
0.1825597 0.15903172 0.49700001
0.18269295 0.15839174 0.49500003
0.18356085 0.15839174 0.49500003
0.18442875 0.15839174 0.49500003
0.18492231 0.15807177 0.49400002
0.18616454 0.15839174 0.49500003
0.18665461 0.15807177 0.49400002
0.18752076 0.15807177 0.49400002
0.18800555 0.15775178 0.49300003
0.18963616 0.15839174 0.49500003
0.19050404 0.15839174 0.49500003
0.19137195 0.15839174 0.49500003
0.19223985 0.15839174 0.49500003
0.19232751 0.15775178 0.49300003
0.19280005 0.1574318 0.49200001
0.19326906 0.15711181 0.49100003
0.19452532 0.1574318 0.49200001
0.19300517 0.1555119 0.48600003
0.1938573 0.1555119 0.48600003
0.19511005 0.15583189 0.48700002
0.19596393 0.15583189 0.48700002
0.1968178 0.15583189 0.48700002
0.19726577 0.1555119 0.48600003
0.19934085 0.15647185 0.48900002
0.19978882 0.15615186 0.48800004
0.20064445 0.15615186 0.48800004
0.20191298 0.15647185 0.48900002
0.20235571 0.15615186 0.48800004
0.20279491 0.15583189 0.48700002
0.20406696 0.15615186 0.48800004
0.20660228 0.1574318 0.49200001
0.20746492 0.1574318 0.49200001
0.20917442 0.15807177 0.49400002
0.21004057 0.15807177 0.49400002
0.21047978 0.15775178 0.49300003
0.21048678 0.15711181 0.49100003
0.21134767 0.15711181 0.49100003
0.21134417 0.15647185 0.48900002
0.21220155 0.15647185 0.48900002
0.21349463 0.15679184 0.49000001
0.21435377 0.15679184 0.49000001
0.21609132 0.1574318 0.49200001
0.21783589 0.15807177 0.49400002
0.21914475 0.15839174 0.49500003
0.22001265 0.15839174 0.49500003
0.22132677 0.15871173 0.49600002
0.22488429 0.16063163 0.50200003
0.22576445 0.16063163 0.50200003
0.29551294 0.20702921 0.64700001
0.23062383 0.16095161 0.50300002
0.2310455 0.16063163 0.50200003
0.23100166 0.15999167 0.5
0.15602475 0.16891176 0.52500004
0.15634736 0.16826828 0.523
0.15726435 0.16826828 0.523
0.15787891 0.16794653 0.52200001
0.15909834 0.16826828 0.523
0.15940343 0.1676248 0.52100003
0.16000921 0.16730307 0.52000004
0.160302 0.16665959 0.51800001
0.1605878 0.16601612 0.51600003
0.15992767 0.16440743 0.51100004
0.16019417 0.16376396 0.509
0.16077015 0.16344222 0.50800002
0.16166084 0.16344222 0.50800002
0.16223155 0.16312049 0.50700003
0.16247702 0.16247702 0.505
0.16336244 0.16247702 0.505
0.16424789 0.16247702 0.505
0.16480632 0.16215529 0.50400001
0.16536126 0.16183354 0.50300002
0.16591267 0.16151181 0.50200003
0.16679284 0.16151181 0.50200003
0.16767302 0.16151181 0.50200003
0.16855319 0.16151181 0.50200003
0.16943337 0.16151181 0.50200003
0.16997427 0.16119006 0.50100005
0.17085269 0.16119006 0.50100005
0.17173111 0.16119006 0.50100005
0.17260952 0.16119006 0.50100005
0.17314166 0.16086833 0.5
0.17401834 0.16086833 0.5
0.17419542 0.16022485 0.49800003
0.17542012 0.1605466 0.49900001
0.17629504 0.1605466 0.49900001
0.17716995 0.1605466 0.49900001
0.17733125 0.15990312 0.49700001
0.17820266 0.15990312 0.49700001
0.17907406 0.15990312 0.49700001
0.17958342 0.15958139 0.49600002
0.18008925 0.15925965 0.49500003
0.18095715 0.15925965 0.49500003
0.1825597 0.15990312 0.49700001
0.18306203 0.15958139 0.49600002
0.18393168 0.15958139 0.49600002
0.18405616 0.15893792 0.49400002
0.18492231 0.15893792 0.49400002
0.18654063 0.15958139 0.49600002
0.18627676 0.15861617 0.49300003
0.18676156 0.15829444 0.49200001
0.18800555 0.15861617 0.49300003
0.18925305 0.15893792 0.49400002
0.19011919 0.15893792 0.49400002
0.19098534 0.15893792 0.49400002
0.19107476 0.15829444 0.49200001
0.1919374 0.15829444 0.49200001
0.19280005 0.15829444 0.49200001
0.19366267 0.15829444 0.49200001
0.19373457 0.15765096 0.49000001
0.19419657 0.15732923 0.48900002
0.19505395 0.15732923 0.48900002
0.19631197 0.15765096 0.49000001
0.19717109 0.15765096 0.49000001
0.1968178 0.15668575 0.48700002
0.19807757 0.15700749 0.48800004
0.19934085 0.15732923 0.48900002
0.20019823 0.15732923 0.48900002
0.20105562 0.15732923 0.48900002
0.20150007 0.15700749 0.48800004
0.20235571 0.15700749 0.48800004
0.20321134 0.15700749 0.48800004
0.20406696 0.15700749 0.48800004
0.20576243 0.15765096 0.49000001
0.20662157 0.15765096 0.49000001
0.20875099 0.15861617 0.49300003
0.2091902 0.15829444 0.49200001
0.2096259 0.15797271 0.49100003
0.21048678 0.15797271 0.49100003
0.21134767 0.15797271 0.49100003
0.21177636 0.15765096 0.49000001
0.2126355 0.15765096 0.49000001
0.21349463 0.15765096 0.49000001
0.21435377 0.15765096 0.49000001
0.21609132 0.15829444 0.49200001
0.21827684 0.15925965 0.49500003
0.22003019 0.15990312 0.49700001
0.22045712 0.15958139 0.49600002
0.221773 0.15990312 0.49700001
0.22396554 0.16022485 0.49800003
0.29414269 0.20719841 0.64400005
0.23062383 0.16183354 0.50300002
0.23150575 0.16183354 0.50300002
0.29660612 0.20655493 0.64200002
0.15569513 0.17047922 0.52700001
0.15632194 0.17015573 0.52600002
0.15664631 0.16950876 0.52400005
0.15756506 0.16950876 0.52400005
0.1584838 0.16950876 0.52400005
0.15909834 0.16918527 0.523
0.15940343 0.16853829 0.52100003
0.16000921 0.1682148 0.52000004
0.15999255 0.16724433 0.51700002
0.15996537 0.16627386 0.514
0.15992767 0.16530339 0.51100004
0.16082363 0.16530339 0.51100004
0.16108662 0.16465642 0.509
0.16166084 0.16433293 0.50800002
0.16255154 0.16433293 0.50800002
0.16279875 0.16368593 0.50600004
0.16336244 0.16336244 0.505
0.16457313 0.16368593 0.50600004
0.16513331 0.16336244 0.505
0.16601875 0.16336244 0.505
0.16657367 0.16303895 0.50400001
0.16712511 0.16271546 0.50300002
0.16800703 0.16271546 0.50300002
0.16855319 0.16239198 0.50200003
0.16909584 0.16206849 0.50100005
0.169635 0.161745 0.5
0.17085269 0.16206849 0.50100005
0.17173111 0.16206849 0.50100005
0.17226499 0.161745 0.5
0.17314166 0.161745 0.5
0.17401834 0.161745 0.5
0.174895 0.161745 0.5
0.17664833 0.161745 0.5
0.17768806 0.16109802 0.49800003
0.17856123 0.16109802 0.49800003
0.17907406 0.16077453 0.49700001
0.17994547 0.16077453 0.49700001
0.18081689 0.16077453 0.49700001
0.18168829 0.16077453 0.49700001
0.18329434 0.16142151 0.49900001
0.18306203 0.16045104 0.49600002
0.18430251 0.16077453 0.49700001
0.18442875 0.16012755 0.49500003
0.18529665 0.16012755 0.49500003
0.18654063 0.16045104 0.49600002
0.18665461 0.15980406 0.49400002
0.18676156 0.15915708 0.49200001
0.1876242 0.15915708 0.49200001
0.18848684 0.15915708 0.49200001
0.18934947 0.15915708 0.49200001
0.19021212 0.15915708 0.49200001
0.19107476 0.15915708 0.49200001
0.1919374 0.15915708 0.49200001
0.19280005 0.15915708 0.49200001
0.19366267 0.15915708 0.49200001
0.19373457 0.1585101 0.49000001
0.1945937 0.1585101 0.49000001
0.19545284 0.1585101 0.49000001
0.19631197 0.1585101 0.49000001
0.19717109 0.1585101 0.49000001
0.1968178 0.15753964 0.48700002
0.19848347 0.15818661 0.48900002
0.19934085 0.15818661 0.48900002
0.19978882 0.15786313 0.48800004
0.20064445 0.15786313 0.48800004
0.20191298 0.15818661 0.48900002
0.20235571 0.15786313 0.48800004
0.20279491 0.15753964 0.48700002
0.20364879 0.15753964 0.48700002
0.2053425 0.15818661 0.48900002
0.20662157 0.1585101 0.49000001
0.20790413 0.15883359 0.49100003
0.20876502 0.15883359 0.49100003
0.2096259 0.15883359 0.49100003
0.21048678 0.15883359 0.49100003
0.21134767 0.15883359 0.49100003
0.21177636 0.1585101 0.49000001
0.2126355 0.1585101 0.49000001
0.21393034 0.15883359 0.49100003
0.21479122 0.15883359 0.49100003
0.21653053 0.15948057 0.49300003
0.21783589 0.15980406 0.49400002
0.22003019 0.16077453 0.49700001
0.22090159 0.16077453 0.49700001
0.22266544 0.16142151 0.49900001
0.22666392 0.16303895 0.50400001
0.2275476 0.16303895 0.50400001
0.22843128 0.16303895 0.50400001
0.29301357 0.20832756 0.64400005
0.29505619 0.20897454 0.64600003
0.29618883 0.20897454 0.64600003
0.29594076 0.20800407 0.64300001
0.29660612 0.20768058 0.64200002
0.15326326 0.17075275 0.52500004
0.15447743 0.171078 0.52600002
0.15569513 0.17140323 0.52700001
0.15632194 0.171078 0.52600002
0.15694524 0.17075275 0.52500004
0.15816644 0.171078 0.52600002
0.15878625 0.17075275 0.52500004
0.15940255 0.1704275 0.52400005
0.16001533 0.17010227 0.523
0.16031691 0.16945177 0.52100003
0.160302 0.16847605 0.51800001
0.15996537 0.16717507 0.514
0.15992767 0.16619934 0.51100004
0.16082363 0.16619934 0.51100004
0.16108662 0.16554886 0.509
0.16166084 0.16522361 0.50800002
0.16255154 0.16522361 0.50800002
0.16279875 0.16457313 0.50600004
0.16336244 0.16424789 0.505
0.16457313 0.16457313 0.50600004
0.16513331 0.16424789 0.505
0.16601875 0.16424789 0.505
0.16657367 0.16392264 0.50400001
0.16712511 0.16359739 0.50300002
0.16800703 0.16359739 0.50300002
0.16788167 0.16262166 0.5
0.16875833 0.16262166 0.5
0.169635 0.16262166 0.5
0.17085269 0.16294691 0.50100005
0.17104556 0.16229643 0.49900001
0.17192046 0.16229643 0.49900001
0.17314166 0.16262166 0.5
0.17401834 0.16262166 0.5
0.17559458 0.16327216 0.50200003
0.1761232 0.16294691 0.50100005
0.17733125 0.16164593 0.49700001
0.17820266 0.16164593 0.49700001
0.17907406 0.16164593 0.49700001
0.17994547 0.16164593 0.49700001
0.18045306 0.16132069 0.49600002
0.18168829 0.16164593 0.49700001
0.18292701 0.16197118 0.49800003
0.1834311 0.16164593 0.49700001
0.18393168 0.16132069 0.49600002
0.18442875 0.16099545 0.49500003
0.18529665 0.16099545 0.49500003
0.18616454 0.16099545 0.49500003
0.18627676 0.16034496 0.49300003
0.18676156 0.16001973 0.49200001
0.1876242 0.16001973 0.49200001
0.18886994 0.16034496 0.49300003
0.18934947 0.16001973 0.49200001
0.19021212 0.16001973 0.49200001
0.19107476 0.16001973 0.49200001
0.19154729 0.15969448 0.49100003
0.19240817 0.15969448 0.49100003
0.19326906 0.15969448 0.49100003
0.19412994 0.15969448 0.49100003
0.19379944 0.15871875 0.48800004
0.19465506 0.15871875 0.48800004
0.19591133 0.15904398 0.48900002
0.19676872 0.15904398 0.48900002
0.1968178 0.1583935 0.48700002
0.19807757 0.15871875 0.48800004
0.1989332 0.15871875 0.48800004
0.19978882 0.15871875 0.48800004
0.20064445 0.15871875 0.48800004
0.20191298 0.15904398 0.48900002
0.20277037 0.15904398 0.48900002
0.20362775 0.15904398 0.48900002
0.20448513 0.15904398 0.48900002
0.20576243 0.15936923 0.49000001
0.20662157 0.15936923 0.49000001
0.2074807 0.15936923 0.49000001
0.20876502 0.15969448 0.49100003
0.21005283 0.16001973 0.49200001
0.21048678 0.15969448 0.49100003
0.21134767 0.15969448 0.49100003
0.21220857 0.15969448 0.49100003
0.21306945 0.15969448 0.49100003
0.21393034 0.15969448 0.49100003
0.21479122 0.15969448 0.49100003
0.21653053 0.16034496 0.49300003
0.21783589 0.16067021 0.49400002
0.22003019 0.16164593 0.49700001
0.22090159 0.16164593 0.49700001
0.22355789 0.16294691 0.50100005
0.22488429 0.16327216 0.50200003
0.22621419 0.16359739 0.50300002
0.2275476 0.16392264 0.50400001
0.22843128 0.16392264 0.50400001
0.22931495 0.16392264 0.50400001
0.29505619 0.21010719 0.64600003
0.29573035 0.20978194 0.64500004
0.29548049 0.20880622 0.64200002
0.29660612 0.20880622 0.64200002
0.18542288 0.20895086 0.63900006
0.15355518 0.17200024 0.52600002
0.15447743 0.17200024 0.52600002
0.15539968 0.17200024 0.52600002
0.15602475 0.17167325 0.52500004
0.15664631 0.17134625 0.52400005
0.15756506 0.17134625 0.52400005
0.1584838 0.17134625 0.52400005
0.15879413 0.17069227 0.52200001
0.15940343 0.17036526 0.52100003
0.16000921 0.17003827 0.52000004
0.15999255 0.16905728 0.51700002
0.15996537 0.16807629 0.514
0.15992767 0.16709529 0.51100004
0.16082363 0.16709529 0.51100004
0.16108662 0.16644131 0.509
0.16197906 0.16644131 0.509
0.16255154 0.1661143 0.50800002
0.16279875 0.16546032 0.50600004
0.16336244 0.16513331 0.505
0.16457313 0.16546032 0.50600004
0.16513331 0.16513331 0.505
0.16569 0.16480632 0.50400001
0.16624318 0.16447932 0.50300002
0.16679284 0.16415232 0.50200003
0.167005 0.16349833 0.5
0.1675459 0.16317134 0.49900001
0.16842082 0.16317134 0.49900001
0.16929573 0.16317134 0.49900001
0.17051166 0.16349833 0.5
0.17104556 0.16317134 0.49900001
0.17192046 0.16317134 0.49900001
0.17314166 0.16349833 0.5
0.17401834 0.16349833 0.5
0.17524479 0.16382533 0.50100005
0.1761232 0.16382533 0.50100005
0.17820266 0.16251734 0.49700001
0.17907406 0.16251734 0.49700001
0.17958342 0.16219035 0.49600002
0.18045306 0.16219035 0.49600002
0.18168829 0.16251734 0.49700001
0.1825597 0.16251734 0.49700001
0.1834311 0.16251734 0.49700001
0.18393168 0.16219035 0.49600002
0.18442875 0.16186334 0.49500003
0.18529665 0.16186334 0.49500003
0.18616454 0.16186334 0.49500003
0.18703245 0.16186334 0.49500003
0.18714115 0.16120936 0.49300003
0.1876242 0.16088235 0.49200001
0.18848684 0.16088235 0.49200001
0.18934947 0.16088235 0.49200001
0.19021212 0.16088235 0.49200001
0.19068639 0.16055536 0.49100003
0.19115716 0.16022837 0.49000001
0.1920163 0.16022837 0.49000001
0.19287543 0.16022837 0.49000001
0.19373457 0.16022837 0.49000001
0.19379944 0.15957437 0.48800004
0.19425619 0.15924737 0.48700002
0.19591133 0.15990137 0.48900002
0.19676872 0.15990137 0.48900002
0.19762608 0.15990137 0.48900002
0.19767168 0.15924737 0.48700002
0.19852555 0.15924737 0.48700002
0.19937943 0.15924737 0.48700002
0.2002333 0.15924737 0.48700002
0.20191298 0.15990137 0.48900002
0.20318504 0.16022837 0.49000001
0.20404416 0.16022837 0.49000001
0.2061578 0.16120936 0.49300003
0.2070222 0.16120936 0.49300003
0.20746492 0.16088235 0.49200001
0.2074807 0.16022837 0.49000001
0.2091902 0.16088235 0.49200001
0.2096259 0.16055536 0.49100003
0.21048678 0.16055536 0.49100003
0.21091723 0.16022837 0.49000001
0.21220857 0.16055536 0.49100003
0.21350341 0.16088235 0.49200001
0.21436603 0.16088235 0.49200001
0.21479122 0.16055536 0.49100003
0.21696974 0.16153635 0.49400002
0.21783589 0.16153635 0.49400002
0.22003019 0.16251734 0.49700001
0.22267947 0.16382533 0.50100005
0.22445033 0.16447932 0.50300002
0.22533226 0.16447932 0.50300002
0.22666392 0.16480632 0.50400001
0.2275476 0.16480632 0.50400001
0.22843128 0.16480632 0.50400001
0.22931495 0.16480632 0.50400001
0.23065539 0.16513331 0.505
0.23154081 0.16513331 0.505
0.29502025 0.20960486 0.64100003
0.29660612 0.20993187 0.64200002
0.18571307 0.2104 0.64000005
0.15355518 0.17292249 0.52600002
0.15389006 0.17226499 0.52400005
0.15451337 0.17193624 0.523
0.15632194 0.17292249 0.52600002
0.15694524 0.17259374 0.52500004
0.15726435 0.17193624 0.523
0.15818135 0.17193624 0.523
0.15848994 0.17127874 0.52100003
0.15909746 0.17095 0.52000004
0.16000921 0.17095 0.52000004
0.15968308 0.169635 0.51600003
0.15996537 0.1689775 0.514
0.15992767 0.16799125 0.51100004
0.16082363 0.16799125 0.51100004
0.16108662 0.16733375 0.509
0.16197906 0.16733375 0.509
0.16255154 0.167005 0.50800002
0.16312049 0.16667625 0.50700003
0.16336244 0.16601875 0.505
0.16457313 0.1663475 0.50600004
0.16513331 0.16601875 0.505
0.16569 0.16569 0.50400001
0.16624318 0.16536126 0.50300002
0.16679284 0.16503251 0.50200003
0.16667099 0.16404624 0.49900001
0.1675459 0.16404624 0.49900001
0.16842082 0.16404624 0.49900001
0.16895646 0.16371749 0.49800003
0.17051166 0.16437499 0.5
0.17138833 0.16437499 0.5
0.17226499 0.16437499 0.5
0.17279539 0.16404624 0.49900001
0.17367029 0.16404624 0.49900001
0.17542012 0.16404624 0.49900001
0.17784411 0.16305999 0.49600002
0.17871375 0.16305999 0.49600002
0.17922135 0.16273125 0.49500003
0.18008925 0.16273125 0.49500003
0.18095715 0.16273125 0.49500003
0.18182504 0.16273125 0.49500003
0.1834311 0.16338874 0.49700001
0.18393168 0.16305999 0.49600002
0.18405616 0.1624025 0.49400002
0.18492231 0.1624025 0.49400002
0.18578845 0.1624025 0.49400002
0.18703245 0.16273125 0.49500003
0.18790035 0.16273125 0.49500003
0.1883869 0.1624025 0.49400002
0.18925305 0.1624025 0.49400002
0.18934947 0.161745 0.49200001
0.19021212 0.161745 0.49200001
0.19107476 0.161745 0.49200001
0.19154729 0.16141625 0.49100003
0.19280005 0.161745 0.49200001
0.19366267 0.161745 0.49200001
0.19452532 0.161745 0.49200001
0.19419657 0.16075875 0.48900002
0.19425619 0.16010125 0.48700002
0.19631197 0.1610875 0.49000001
0.19676872 0.16075875 0.48900002
0.19722195 0.16043 0.48800004
0.19807757 0.16043 0.48800004
0.1989332 0.16043 0.48800004
0.19978882 0.16043 0.48800004
0.20064445 0.16043 0.48800004
0.20273881 0.16141625 0.49100003
0.20359969 0.16141625 0.49100003
0.20446058 0.16141625 0.49100003
0.2061578 0.16207375 0.49300003
0.2070222 0.16207375 0.49300003
0.20746492 0.161745 0.49200001
0.2074807 0.1610875 0.49000001
0.2091902 0.161745 0.49200001
0.2096259 0.16141625 0.49100003
0.21048678 0.16141625 0.49100003
0.21091723 0.1610875 0.49000001
0.21220857 0.16141625 0.49100003
0.21350341 0.161745 0.49200001
0.21480174 0.16207375 0.49300003
0.21522868 0.161745 0.49200001
0.21696974 0.1624025 0.49400002
0.21871781 0.16305999 0.49600002
0.2204729 0.16371749 0.49800003
0.22179052 0.16404624 0.49900001
0.22445033 0.16536126 0.50300002
0.22533226 0.16536126 0.50300002
0.22711365 0.16601875 0.505
0.22799908 0.16601875 0.505
0.22843128 0.16569 0.50400001
0.22931495 0.16569 0.50400001
0.23065539 0.16601875 0.505
0.23154081 0.16601875 0.505
0.28627551 0.2044825 0.62200004
0.29660612 0.2110575 0.64200002
0.1517624 0.17285325 0.523
0.15297131 0.17318374 0.52400005
0.15389006 0.17318374 0.52400005
0.15451337 0.17285325 0.523
0.15632194 0.17384475 0.52600002
0.15694524 0.17351425 0.52500004
0.15726435 0.17285325 0.523
0.15787891 0.17252274 0.52200001
0.15879413 0.17252274 0.52200001
0.15909746 0.17186174 0.52000004
0.1597015 0.17153123 0.51900005
0.15875469 0.16954821 0.51300001
0.15934293 0.16921771 0.51200002
0.15992767 0.1688872 0.51100004
0.16082363 0.1688872 0.51100004
0.16108662 0.1682262 0.509
0.16197906 0.1682262 0.509
0.16255154 0.16789569 0.50800002
0.16312049 0.16756518 0.50700003
0.16368593 0.16723469 0.50600004
0.16489837 0.16756518 0.50700003
0.16513331 0.16690418 0.505
0.16569 0.16657367 0.50400001
0.16591267 0.16591267 0.50200003
0.16679284 0.16591267 0.50200003
0.167005 0.16525167 0.5
0.1675459 0.16492116 0.49900001
0.16842082 0.16492116 0.49900001
0.169635 0.16525167 0.5
0.17051166 0.16525167 0.5
0.17138833 0.16525167 0.5
0.17157593 0.16459066 0.49800003
0.1724491 0.16459066 0.49800003
0.17332226 0.16459066 0.49800003
0.174895 0.16525167 0.5
0.17594174 0.16459066 0.49800003
0.1768149 0.16459066 0.49800003
0.17733125 0.16426015 0.49700001
0.17871375 0.16392966 0.49600002
0.17885928 0.16326864 0.49400002
0.17972544 0.16326864 0.49400002
0.18059158 0.16326864 0.49400002
0.18145773 0.16326864 0.49400002
0.1819548 0.16293815 0.49300003
0.18319002 0.16326864 0.49400002
0.18405616 0.16326864 0.49400002
0.18492231 0.16326864 0.49400002
0.18578845 0.16326864 0.49400002
0.18665461 0.16326864 0.49400002
0.18714115 0.16293815 0.49300003
0.18800555 0.16293815 0.49300003
0.18886994 0.16293815 0.49300003
0.18934947 0.16260764 0.49200001
0.19021212 0.16260764 0.49200001
0.19107476 0.16260764 0.49200001
0.19154729 0.16227713 0.49100003
0.19319192 0.16293815 0.49300003
0.1940563 0.16293815 0.49300003
0.19452532 0.16260764 0.49200001
0.19419657 0.16161613 0.48900002
0.19505395 0.16161613 0.48900002
0.19631197 0.16194664 0.49000001
0.19717109 0.16194664 0.49000001
0.19762608 0.16161613 0.48900002
0.19848347 0.16161613 0.48900002
0.19934085 0.16161613 0.48900002
0.19978882 0.16128562 0.48800004
0.20064445 0.16128562 0.48800004
0.20273881 0.16227713 0.49100003
0.20359969 0.16227713 0.49100003
0.20529342 0.16293815 0.49300003
0.20657597 0.16326864 0.49400002
0.2070222 0.16293815 0.49300003
0.20788659 0.16293815 0.49300003
0.2074807 0.16194664 0.49000001
0.20876502 0.16227713 0.49100003
0.20919897 0.16194664 0.49000001
0.21005809 0.16194664 0.49000001
0.21091723 0.16194664 0.49000001
0.21307296 0.16293815 0.49300003
0.21350341 0.16260764 0.49200001
0.21436603 0.16260764 0.49200001
0.2161036 0.16326864 0.49400002
0.21740896 0.16359915 0.49500003
0.21871781 0.16392966 0.49600002
0.2204729 0.16459066 0.49800003
0.22134607 0.16459066 0.49800003
0.22445033 0.16624318 0.50300002
0.22533226 0.16624318 0.50300002
0.22756338 0.16723469 0.50600004
0.22845057 0.16723469 0.50600004
0.22888452 0.16690418 0.505
0.22931495 0.16657367 0.50400001
0.23111212 0.16723469 0.50600004
0.28472644 0.20524257 0.62100005
0.28673574 0.20590357 0.62300003
0.28736606 0.20557307 0.62200004
0.15267938 0.17377023 0.523
0.15359639 0.17377023 0.523
0.15451337 0.17377023 0.523
0.15632194 0.174767 0.52600002
0.15694524 0.17443475 0.52500004
0.15726435 0.17377023 0.523
0.15787891 0.17343798 0.52200001
0.15909834 0.17377023 0.523
0.15970938 0.17343798 0.52200001
0.16031691 0.17310572 0.52100003
0.15906416 0.17077993 0.514
0.15934293 0.17011541 0.51200002
0.15992767 0.16978316 0.51100004
0.16082363 0.16978316 0.51100004
0.16171958 0.16978316 0.51100004
0.16197906 0.16911864 0.509
0.16255154 0.16878639 0.50800002
0.16312049 0.16845413 0.50700003
0.16400942 0.16845413 0.50700003
0.16489837 0.16845413 0.50700003
0.16546032 0.16812187 0.50600004
0.16569 0.16745736 0.50400001
0.16591267 0.16679284 0.50200003
0.16679284 0.16679284 0.50200003
0.16733901 0.16646059 0.50100005
0.16788167 0.16612834 0.5
0.16842082 0.16579607 0.49900001
0.169635 0.16612834 0.5
0.17051166 0.16612834 0.5
0.17104556 0.16579607 0.49900001
0.17157593 0.16546382 0.49800003
0.1724491 0.16546382 0.49800003
0.17367029 0.16579607 0.49900001
0.174895 0.16612834 0.5
0.17542012 0.16579607 0.49900001
0.17558844 0.16513157 0.49700001
0.17645985 0.16513157 0.49700001
0.17733125 0.16513157 0.49700001
0.17784411 0.1647993 0.49600002
0.17835344 0.16446705 0.49500003
0.17922135 0.16446705 0.49500003
0.17972544 0.16413479 0.49400002
0.18059158 0.16413479 0.49400002
0.18145773 0.16413479 0.49400002
0.1819548 0.16380253 0.49300003
0.18281919 0.16380253 0.49300003
0.18405616 0.16413479 0.49400002
0.18492231 0.16413479 0.49400002
0.18578845 0.16413479 0.49400002
0.18665461 0.16413479 0.49400002
0.18714115 0.16380253 0.49300003
0.18800555 0.16380253 0.49300003
0.18848684 0.16347028 0.49200001
0.18934947 0.16347028 0.49200001
0.19021212 0.16347028 0.49200001
0.19068639 0.16313802 0.49100003
0.19154729 0.16313802 0.49100003
0.19240817 0.16313802 0.49100003
0.19326906 0.16313802 0.49100003
0.19373457 0.16280577 0.49000001
0.19419657 0.16247351 0.48900002
0.19465506 0.16214125 0.48800004
0.19591133 0.16247351 0.48900002
0.19676872 0.16247351 0.48900002
0.19762608 0.16247351 0.48900002
0.19848347 0.16247351 0.48900002
0.19934085 0.16247351 0.48900002
0.20019823 0.16247351 0.48900002
0.20105562 0.16247351 0.48900002
0.20273881 0.16313802 0.49100003
0.20359969 0.16313802 0.49100003
0.20529342 0.16380253 0.49300003
0.2061578 0.16380253 0.49300003
0.2070222 0.16380253 0.49300003
0.20788659 0.16380253 0.49300003
0.2074807 0.16280577 0.49000001
0.20876502 0.16313802 0.49100003
0.20919897 0.16280577 0.49000001
0.21005809 0.16280577 0.49000001
0.21134767 0.16313802 0.49100003
0.21220857 0.16313802 0.49100003
0.21350341 0.16347028 0.49200001
0.21523744 0.16413479 0.49400002
0.2161036 0.16413479 0.49400002
0.21828736 0.16513157 0.49700001
0.21959974 0.16546382 0.49800003
0.2204729 0.16546382 0.49800003
0.22090159 0.16513157 0.49700001
0.22534278 0.16778961 0.505
0.22622822 0.16778961 0.505
0.22756338 0.16812187 0.50600004
0.27946818 0.20566687 0.61900002
0.27964702 0.20500237 0.61700004
0.28027382 0.2046701 0.61600006
0.28181064 0.20500237 0.61700004
0.28335094 0.20533462 0.61800003
0.28627551 0.20666364 0.62200004
0.28644207 0.20599914 0.62
0.15267938 0.17468722 0.523
0.1533027 0.17435321 0.52200001
0.1539225 0.1740192 0.52100003
0.15572757 0.17502125 0.52400005
0.15634736 0.17468722 0.523
0.15696366 0.17435321 0.52200001
0.15787891 0.17435321 0.52200001
0.15848994 0.1740192 0.52100003
0.15909746 0.17368519 0.52000004
0.16062462 0.17435321 0.52200001
0.16061147 0.17335118 0.51900005
0.15934293 0.17101312 0.51200002
0.15992767 0.17067911 0.51100004
0.16082363 0.17067911 0.51100004
0.16171958 0.17067911 0.51100004
0.16197906 0.17001109 0.509
0.16255154 0.16967708 0.50800002
0.16312049 0.16934307 0.50700003
0.16400942 0.16934307 0.50700003
0.16489837 0.16934307 0.50700003
0.16546032 0.16900906 0.50600004
0.16569 0.16834104 0.50400001
0.16624318 0.16800703 0.50300002
0.16679284 0.16767302 0.50200003
0.16767302 0.16767302 0.50200003
0.16788167 0.167005 0.5
0.16842082 0.16667099 0.49900001
0.169635 0.167005 0.5
0.17051166 0.167005 0.5
0.17036 0.16600297 0.49700001
0.17088687 0.16566896 0.49600002
0.1724491 0.16633698 0.49800003
0.17332226 0.16633698 0.49800003
0.17419542 0.16633698 0.49800003
0.17506857 0.16633698 0.49800003
0.17523515 0.16566896 0.49600002
0.1761048 0.16566896 0.49600002
0.17697445 0.16566896 0.49600002
0.17748556 0.16533495 0.49500003
0.17835344 0.16533495 0.49500003
0.17885928 0.16500095 0.49400002
0.17972544 0.16500095 0.49400002
0.18059158 0.16500095 0.49400002
0.1810904 0.16466694 0.49300003
0.1819548 0.16466694 0.49300003
0.18281919 0.16466694 0.49300003
0.18405616 0.16500095 0.49400002
0.18492231 0.16500095 0.49400002
0.18578845 0.16500095 0.49400002
0.18665461 0.16500095 0.49400002
0.18714115 0.16466694 0.49300003
0.18800555 0.16466694 0.49300003
0.18848684 0.16433293 0.49200001
0.18973434 0.16466694 0.49300003
0.19021212 0.16433293 0.49200001
0.19029804 0.16366489 0.49000001
0.19154729 0.1639989 0.49100003
0.1920163 0.16366489 0.49000001
0.19326906 0.1639989 0.49100003
0.19373457 0.16366489 0.49000001
0.19419657 0.16333088 0.48900002
0.19465506 0.16299687 0.48800004
0.19551069 0.16299687 0.48800004
0.19636633 0.16299687 0.48800004
0.19762608 0.16333088 0.48900002
0.19848347 0.16333088 0.48900002
0.1997485 0.16366489 0.49000001
0.20101704 0.1639989 0.49100003
0.20228907 0.16433293 0.49200001
0.20315172 0.16433293 0.49200001
0.20401436 0.16433293 0.49200001
0.204877 0.16433293 0.49200001
0.2061578 0.16466694 0.49300003
0.20744212 0.16500095 0.49400002
0.20830826 0.16500095 0.49400002
0.20875099 0.16466694 0.49300003
0.2091902 0.16433293 0.49200001
0.21005283 0.16433293 0.49200001
0.21048678 0.1639989 0.49100003
0.21134767 0.1639989 0.49100003
0.21350515 0.16500095 0.49400002
0.2152392 0.16566896 0.49600002
0.21654455 0.16600297 0.49700001
0.21741596 0.16600297 0.49700001
0.21872658 0.16633698 0.49800003
0.21959974 0.16633698 0.49800003
0.2204729 0.16633698 0.49800003
0.22090159 0.16600297 0.49700001
0.22221921 0.16633698 0.49800003
0.22309238 0.16633698 0.49800003
0.27919379 0.20575015 0.61600006
0.28027382 0.20575015 0.61600006
0.28181064 0.20608416 0.61700004
0.28335094 0.20641817 0.61800003
0.28581524 0.20742022 0.62100005
0.28644207 0.20708621 0.62
0.15300901 0.17493269 0.52100003
0.15362707 0.17459694 0.52000004
0.15543036 0.17560422 0.523
0.15604842 0.17526846 0.52200001
0.15636227 0.17459694 0.52000004
0.15757644 0.17493269 0.52100003
0.15848994 0.17493269 0.52100003
0.15909746 0.17459694 0.52000004
0.16031691 0.17493269 0.52100003
0.160302 0.1739254 0.51800001
0.15934293 0.17191082 0.51200002
0.15992767 0.17157507 0.51100004
0.16082363 0.17157507 0.51100004
0.16108662 0.17090353 0.509
0.16166084 0.17056777 0.50800002
0.16255154 0.17056777 0.50800002
0.16312049 0.17023201 0.50700003
0.16368593 0.16989625 0.50600004
0.16489837 0.17023201 0.50700003
0.16513331 0.16956048 0.505
0.16569 0.16922472 0.50400001
0.16591267 0.16855319 0.50200003
0.16646059 0.16821744 0.50100005
0.16733901 0.16821744 0.50100005
