# .PCD v0.7 - Point Cloud Data file format
VERSION 0.7
FIELDS x y z
SIZE 4 4 4
TYPE F F F
COUNT 1 1 1
WIDTH 1429
HEIGHT 1
VIEWPOINT 0 0 0 1 0 0 0
POINTS 1429
DATA ascii
0.17244034 0.016569 0.70000005
0.17416386 0.016616341 0.70200002
0.17439529 0.016521661 0.69800001
0.17511591 0.01647432 0.69600004
0.17633624 0.01647432 0.69600004
0.17755656 0.01647432 0.69600004
0.17903374 0.01649799 0.69700003
0.17973858 0.016450649 0.69500005
0.18095715 0.016450649 0.69500005
0.18217571 0.016450649 0.69500005
0.18339428 0.016450649 0.69500005
0.18567537 0.016545329 0.69900006
0.18716833 0.016569 0.70000005
0.18839566 0.016569 0.70000005
0.18881033 0.01649799 0.69700003
0.19003241 0.01649799 0.69700003
0.19152887 0.016521661 0.69800001
0.19247656 0.01649799 0.69700003
0.19425443 0.016545329 0.69900006
0.19631898 0.016616341 0.70200002
0.19811264 0.01666368 0.70400006
0.19963016 0.01668735 0.70500004
0.20115116 0.016711019 0.70600003
0.20353571 0.016805699 0.71000004
0.20506899 0.01682937 0.71100003
0.14201386 0.018635303 0.73300004
0.14349455 0.018660726 0.73400003
0.14458425 0.018635303 0.73300004
0.14527243 0.018559033 0.73000002
0.14615086 0.018508187 0.72800004
0.14681976 0.018431917 0.72500002
0.14747812 0.018355647 0.72200006
0.148332 0.018304801 0.72000003
0.14980216 0.018330224 0.72100002
0.15043776 0.018253954 0.71800005
0.15169665 0.018253954 0.71800005
0.15252948 0.018203106 0.71600002
0.15271094 0.01807599 0.71100003
0.15395758 0.01807599 0.71100003
0.1549859 0.018050566 0.71000004
0.15623076 0.018050566 0.71000004
0.15703204 0.01799972 0.708
0.15804985 0.017974297 0.70700002
0.15928945 0.017974297 0.70700002
0.160302 0.017948873 0.70600003
0.16153985 0.017948873 0.70600003
0.16323884 0.01799972 0.708
0.16401556 0.017948873 0.70600003
0.16501935 0.01792345 0.70500004
0.16625544 0.01792345 0.70500004
0.1670164 0.017872604 0.70300001
0.168249 0.017872604 0.70300001
0.1692405 0.01784718 0.70200002
0.17047134 0.01784718 0.70200002
0.17194676 0.017872604 0.70300001
0.17293301 0.01784718 0.70200002
0.17391576 0.017821757 0.70100003
0.17439529 0.017745487 0.69800001
0.17511591 0.017694639 0.69600004
0.17633624 0.017694639 0.69600004
0.17755656 0.017694639 0.69600004
0.17877688 0.017694639 0.69600004
0.17973858 0.017669216 0.69500005
0.18095715 0.017669216 0.69500005
0.18217571 0.017669216 0.69500005
0.18339428 0.017669216 0.69500005
0.18567537 0.017770911 0.69900006
0.18663357 0.017745487 0.69800001
0.18785739 0.017745487 0.69800001
0.18881033 0.017720064 0.69700003
0.18975976 0.017694639 0.69600004
0.19125448 0.017720064 0.69700003
0.19302885 0.017770911 0.69900006
0.19453233 0.017796334 0.70000005
0.19631898 0.01784718 0.70200002
0.19811264 0.017898027 0.70400006
0.19934699 0.017898027 0.70400006
0.20143609 0.017974297 0.70700002
0.20353571 0.018050566 0.71000004
0.20478056 0.018050566 0.71000004
0.20602544 0.018050566 0.71000004
0.14201386 0.019920496 0.73300004
0.14329906 0.019920496 0.73300004
0.14458425 0.019920496 0.73300004
0.14547144 0.019866142 0.73100001
0.14655237 0.019838966 0.73000002
0.14742728 0.019784613 0.72800004
0.14809091 0.019703083 0.72500002
0.14874403 0.019621553 0.72200006
0.14980216 0.019594377 0.72100002
0.15085679 0.019567199 0.72000003
0.15169665 0.019512847 0.71800005
0.15252948 0.019458493 0.71600002
0.15271094 0.01932261 0.71100003
0.15395758 0.01932261 0.71100003
0.1549859 0.019295434 0.71000004
0.15623076 0.019295434 0.71000004
0.15703204 0.01924108 0.708
0.15804985 0.019213904 0.70700002
0.15928945 0.019213904 0.70700002
0.160302 0.019186726 0.70600003
0.16153985 0.019186726 0.70600003
0.16254716 0.01915955 0.70500004
0.16401556 0.019186726 0.70600003
0.16501935 0.01915955 0.70500004
0.16625544 0.01915955 0.70500004
0.1670164 0.019105196 0.70300001
0.168249 0.019105196 0.70300001
0.1692405 0.01907802 0.70200002
0.17047134 0.01907802 0.70200002
0.17170218 0.01907802 0.70200002
0.17293301 0.01907802 0.70200002
0.17366767 0.019023666 0.70000005
0.174895 0.019023666 0.70000005
0.17511591 0.01891496 0.69600004
0.17633624 0.01891496 0.69600004
0.17755656 0.01891496 0.69600004
0.17929061 0.018969312 0.69800001
0.17999721 0.01891496 0.69600004
0.18121752 0.01891496 0.69600004
0.18217571 0.018887782 0.69500005
0.18392204 0.018942136 0.69700003
0.185941 0.019023666 0.70000005
0.18690094 0.01899649 0.69900006
0.18785739 0.018969312 0.69800001
0.18881033 0.018942136 0.69700003
0.19003241 0.018942136 0.69700003
0.19152887 0.018969312 0.69800001
0.19247656 0.018942136 0.69700003
0.19453233 0.019023666 0.70000005
0.19603932 0.019050844 0.70100003
0.19811264 0.019132374 0.70400006
0.19934699 0.019132374 0.70400006
0.20115116 0.019186726 0.70600003
0.20353571 0.019295434 0.71000004
0.20478056 0.019295434 0.71000004
0.20544508 0.01924108 0.708
0.20668644 0.01924108 0.708
0.14182012 0.021176759 0.73200005
0.14329906 0.02120569 0.73300004
0.14458425 0.02120569 0.73300004
0.14547144 0.02114783 0.73100001
0.14655237 0.0211189 0.73000002
0.14702226 0.021003179 0.72600001
0.14809091 0.020974251 0.72500002
0.14874403 0.020887461 0.72200006
0.1495944 0.020829599 0.72000003
0.15085679 0.020829599 0.72000003
0.15169665 0.02077174 0.71800005
0.15252948 0.020713881 0.71600002
0.15292573 0.02059816 0.71200001
0.15395758 0.020569229 0.71100003
0.1549859 0.020540301 0.71000004
0.15623076 0.020540301 0.71000004
0.15703204 0.02048244 0.708
0.15804985 0.020453509 0.70700002
0.15928945 0.020453509 0.70700002
0.16007495 0.02039565 0.70500004
0.16131105 0.02039565 0.70500004
0.16208602 0.02033779 0.70300001
0.16355093 0.020366719 0.70400006
0.16478528 0.020366719 0.70400006
0.16601962 0.020366719 0.70400006
0.16749156 0.02039565 0.70500004
0.168249 0.02033779 0.70300001
0.1692405 0.02030886 0.70200002
0.1702285 0.020279929 0.70100003
0.17145759 0.020279929 0.70100003
0.17268668 0.020279929 0.70100003
0.17341956 0.02022207 0.69900006
0.17464516 0.02022207 0.69900006
0.17561913 0.020193139 0.69800001
0.17684296 0.020193139 0.69800001
0.17806678 0.020193139 0.69800001
0.17929061 0.020193139 0.69800001
0.18051443 0.020193139 0.69800001
0.18173826 0.020193139 0.69800001
0.18296209 0.020193139 0.69800001
0.18471366 0.020251 0.70000005
0.185941 0.020251 0.70000005
0.18690094 0.02022207 0.69900006
0.18758826 0.02016421 0.69700003
0.18908122 0.020193139 0.69800001
0.19030504 0.020193139 0.69800001
0.19152887 0.020193139 0.69800001
0.1927527 0.020193139 0.69800001
0.19453233 0.020251 0.70000005
0.19603932 0.020279929 0.70100003
0.19839405 0.02039565 0.70500004
0.19991331 0.02042458 0.70600003
0.20115116 0.02042458 0.70600003
0.20353571 0.020540301 0.71000004
0.20478056 0.020540301 0.71000004
0.20544508 0.02048244 0.708
0.20668644 0.02048244 0.708
0.14182012 0.0224602 0.73200005
0.14310355 0.0224602 0.73200005
0.14438699 0.0224602 0.73200005
0.14547144 0.022429517 0.73100001
0.14655237 0.022398833 0.73000002
0.14702226 0.0222761 0.72600001
0.14809091 0.022245416 0.72500002
0.148332 0.022092 0.72000003
0.1495944 0.022092 0.72000003
0.15064728 0.022061316 0.71900004
0.15148537 0.02199995 0.71700001
0.15252948 0.021969266 0.71600002
0.15292573 0.021846533 0.71200001
0.15395758 0.021815849 0.71100003
0.1549859 0.021785166 0.71000004
0.15645081 0.021815849 0.71100003
0.15703204 0.021723799 0.708
0.1582734 0.021723799 0.708
0.15974006 0.021754483 0.70900005
0.16075613 0.021723799 0.708
0.16176867 0.021693116 0.70700002
0.16254716 0.021631749 0.70500004
0.16355093 0.021601066 0.70400006
0.16478528 0.021601066 0.70400006
0.16601962 0.021601066 0.70400006
0.16725397 0.021601066 0.70400006
0.16777033 0.021509016 0.70100003
0.16875833 0.021478333 0.70000005
0.16998567 0.021478333 0.70000005
0.171213 0.021478333 0.70000005
0.17244034 0.021478333 0.70000005
0.17317148 0.021416966 0.69800001
0.17439529 0.021416966 0.69800001
0.17561913 0.021416966 0.69800001
0.17684296 0.021416966 0.69800001
0.17806678 0.021416966 0.69800001
0.17980433 0.021478333 0.70000005
0.18103166 0.021478333 0.70000005
0.18173826 0.021416966 0.69800001
0.18296209 0.021416966 0.69800001
0.18471366 0.021478333 0.70000005
0.185941 0.021478333 0.70000005
0.18716833 0.021478333 0.70000005
0.18758826 0.021386283 0.69700003
0.18908122 0.021416966 0.69800001
0.19030504 0.021416966 0.69800001
0.19152887 0.021416966 0.69800001
0.1927527 0.021416966 0.69800001
0.19453233 0.021478333 0.70000005
0.19603932 0.021509016 0.70100003
0.19839405 0.021631749 0.70500004
0.19991331 0.021662433 0.70600003
0.20143609 0.021693116 0.70700002
0.20353571 0.021785166 0.71000004
0.20478056 0.021785166 0.71000004
0.20602544 0.021785166 0.71000004
0.20727029 0.021785166 0.71000004
0.14220761 0.023808513 0.73400003
0.14290807 0.023711203 0.73100001
0.14418975 0.023711203 0.73100001
0.14507343 0.02364633 0.72900003
0.14615086 0.023613892 0.72800004
0.14661723 0.023484146 0.72400004
0.14809091 0.023516582 0.72500002
0.148332 0.0233544 0.72000003
0.1495944 0.0233544 0.72000003
0.15022823 0.02325709 0.71700001
0.15148537 0.02325709 0.71700001
0.15252948 0.023224654 0.71600002
0.15292573 0.023094907 0.71200001
0.15395758 0.023062469 0.71100003
0.15542248 0.023094907 0.71200001
0.15667085 0.023094907 0.71200001
0.15747564 0.023030033 0.71000004
0.15872049 0.023030033 0.71000004
0.15951476 0.022965159 0.708
0.16098318 0.022997597 0.70900005
0.16176867 0.022932723 0.70700002
0.16300827 0.022932723 0.70700002
0.16355093 0.022835413 0.70400006
0.16478528 0.022835413 0.70400006
0.16578381 0.022802977 0.70300001
0.1670164 0.022802977 0.70300001
0.16777033 0.022738103 0.70100003
0.16875833 0.022705667 0.70000005
0.16974282 0.022673231 0.69900006
0.17096841 0.022673231 0.69900006
0.17219399 0.022673231 0.69900006
0.17317148 0.022640793 0.69800001
0.17439529 0.022640793 0.69800001
0.17561913 0.022640793 0.69800001
0.17684296 0.022640793 0.69800001
0.17806678 0.022640793 0.69800001
0.17980433 0.022705667 0.70000005
0.18103166 0.022705667 0.70000005
0.18199863 0.022673231 0.69900006
0.18322422 0.022673231 0.69900006
0.18471366 0.022705667 0.70000005
0.185941 0.022705667 0.70000005
0.18716833 0.022705667 0.70000005
0.18785739 0.022640793 0.69800001
0.18935211 0.022673231 0.69900006
0.19057769 0.022673231 0.69900006
0.19152887 0.022640793 0.69800001
0.1927527 0.022640793 0.69800001
0.19453233 0.022705667 0.70000005
0.19603932 0.022738103 0.70100003
0.19783123 0.022802977 0.70300001
0.19991331 0.022900287 0.70600003
0.20143609 0.022932723 0.70700002
0.20353571 0.023030033 0.71000004
0.20478056 0.023030033 0.71000004
0.20602544 0.023030033 0.71000004
0.20727029 0.023030033 0.71000004
0.14220761 0.025095459 0.73400003
0.14290807 0.024992891 0.73100001
0.1439925 0.0249587 0.73000002
0.14487442 0.02489032 0.72800004
0.14554858 0.02478775 0.72500002
0.14641473 0.024719371 0.72300005
0.14788665 0.024753559 0.72400004
0.148332 0.0246168 0.72000003
0.14938663 0.02458261 0.71900004
0.15022823 0.02451423 0.71700001
0.15148537 0.02451423 0.71700001
0.15252948 0.024480039 0.71600002
0.1533553 0.02441166 0.71400005
0.15460718 0.02441166 0.71400005
0.15542248 0.02434328 0.71200001
0.15623076 0.024274901 0.71000004
0.15747564 0.024274901 0.71000004
0.15872049 0.024274901 0.71000004
0.15928945 0.02417233 0.70700002
0.16075613 0.024206519 0.708
0.16153985 0.02413814 0.70600003
0.16300827 0.02417233 0.70700002
0.16355093 0.02406976 0.70400006
0.16478528 0.02406976 0.70400006
0.16578381 0.024035569 0.70300001
0.1670164 0.024035569 0.70300001
0.16777033 0.02396719 0.70100003
0.16899942 0.02396719 0.70100003
0.16998567 0.023932999 0.70000005
0.171213 0.023932999 0.70000005
0.17244034 0.023932999 0.70000005
0.17317148 0.023864619 0.69800001
0.17439529 0.023864619 0.69800001
0.17612234 0.023932999 0.70000005
0.17734967 0.023932999 0.70000005
0.17857701 0.023932999 0.70000005
0.17980433 0.023932999 0.70000005
0.18103166 0.023932999 0.70000005
0.18225899 0.023932999 0.70000005
0.18348633 0.023932999 0.70000005
0.18471366 0.023932999 0.70000005
0.185941 0.023932999 0.70000005
0.18716833 0.023932999 0.70000005
0.18812653 0.02389881 0.69900006
0.18935211 0.02389881 0.69900006
0.19085033 0.023932999 0.70000005
0.19180326 0.02389881 0.69900006
0.19302885 0.02389881 0.69900006
0.19453233 0.023932999 0.70000005
0.19603932 0.02396719 0.70100003
0.19867545 0.02413814 0.70600003
0.19991331 0.02413814 0.70600003
0.20143609 0.02417233 0.70700002
0.20353571 0.024274901 0.71000004
0.20506899 0.024309089 0.71100003
0.20602544 0.024274901 0.71000004
0.20727029 0.024274901 0.71000004
0.14240135 0.026418351 0.73500001
0.14329906 0.026346464 0.73300004
0.14359801 0.026166746 0.72800004
0.14467542 0.026130803 0.72700006
0.14554858 0.026058916 0.72500002
0.14641473 0.025987029 0.72300005
0.14747812 0.025951086 0.72200006
0.14812598 0.025843257 0.71900004
0.14938663 0.025843257 0.71900004
0.15022823 0.02577137 0.71700001
0.15127409 0.025735427 0.71600002
0.15210342 0.02566354 0.71400005
0.1533553 0.02566354 0.71400005
0.15439065 0.025627596 0.71300006
0.15542248 0.025591653 0.71200001
0.15623076 0.025519766 0.71000004
0.15747564 0.025519766 0.71000004
0.15849695 0.025483822 0.70900005
0.15928945 0.025411937 0.70700002
0.160302 0.025375994 0.70600003
0.16131105 0.02534005 0.70500004
0.16277771 0.025375994 0.70600003
0.16331862 0.025268164 0.70300001
0.16455121 0.025268164 0.70300001
0.16578381 0.025268164 0.70300001
0.1670164 0.025268164 0.70300001
0.16777033 0.025196277 0.70100003
0.16899942 0.025196277 0.70100003
0.1702285 0.025196277 0.70100003
0.17145759 0.025196277 0.70100003
0.17268668 0.025196277 0.70100003
0.17341956 0.02512439 0.69900006
0.17439529 0.025088446 0.69800001
0.17587073 0.02512439 0.69900006
0.17734967 0.025160333 0.70000005
0.17857701 0.025160333 0.70000005
0.17980433 0.025160333 0.70000005
0.18103166 0.025160333 0.70000005
0.18225899 0.025160333 0.70000005
0.18348633 0.025160333 0.70000005
0.18471366 0.025160333 0.70000005
0.185941 0.025160333 0.70000005
0.18716833 0.025160333 0.70000005
0.18839566 0.025160333 0.70000005
0.18935211 0.02512439 0.69900006
0.19057769 0.02512439 0.69900006
0.19180326 0.02512439 0.69900006
0.19302885 0.02512439 0.69900006
0.19453233 0.025160333 0.70000005
0.19603932 0.025196277 0.70100003
0.19839405 0.02534005 0.70500004
0.20019647 0.025411937 0.70700002
0.20143609 0.025411937 0.70700002
0.20353571 0.025519766 0.71000004
0.20506899 0.025555709 0.71100003
0.20602544 0.025519766 0.71000004
0.20727029 0.025519766 0.71000004
0.1425951 0.027744746 0.73600006
0.14329906 0.027631657 0.73300004
0.14379525 0.02748087 0.72900003
0.14467542 0.027405476 0.72700006
0.14514707 0.027254689 0.72300005
0.14621222 0.027216993 0.72200006
0.14686534 0.027103903 0.71900004
0.14771394 0.02702851 0.71700001
0.14917886 0.027066207 0.71800005
0.15001871 0.026990812 0.71600002
0.15106282 0.026953116 0.71500003
0.15189038 0.026877724 0.71300006
0.1533553 0.02691542 0.71400005
0.15439065 0.026877724 0.71300006
0.15542248 0.026840027 0.71200001
0.15667085 0.026840027 0.71200001
0.15747564 0.026764633 0.71000004
0.15849695 0.026726937 0.70900005
0.15951476 0.026689241 0.708
0.160302 0.026613846 0.70600003
0.16153985 0.026613846 0.70600003
0.16300827 0.026651543 0.70700002
0.16355093 0.026538454 0.70400006
0.16478528 0.026538454 0.70400006
0.16601962 0.026538454 0.70400006
0.16725397 0.026538454 0.70400006
0.16800965 0.02646306 0.70200002
0.16899942 0.026425363 0.70100003
0.1702285 0.026425363 0.70100003
0.17145759 0.026425363 0.70100003
0.17244034 0.026387667 0.70000005
0.17341956 0.026349969 0.69900006
0.17439529 0.026312273 0.69800001
0.17587073 0.026349969 0.69900006
0.17709631 0.026349969 0.69900006
0.17857701 0.026387667 0.70000005
0.17980433 0.026387667 0.70000005
0.18103166 0.026387667 0.70000005
0.18225899 0.026387667 0.70000005
0.18322422 0.026349969 0.69900006
0.18444979 0.026349969 0.69900006
0.18567537 0.026349969 0.69900006
0.18690094 0.026349969 0.69900006
0.18812653 0.026349969 0.69900006
0.18935211 0.026349969 0.69900006
0.19057769 0.026349969 0.69900006
0.19180326 0.026349969 0.69900006
0.19302885 0.026349969 0.69900006
0.19425443 0.026349969 0.69900006
0.19575967 0.026387667 0.70000005
0.19839405 0.02657615 0.70500004
0.19991331 0.026613846 0.70600003
0.201721 0.026689241 0.708
0.20382237 0.026802329 0.71100003
0.20564583 0.026877724 0.71300006
0.20689596 0.026877724 0.71300006
0.2081461 0.026877724 0.71300006
0.14329906 0.028916851 0.73300004
0.1439925 0.0287985 0.73000002
0.14407842 0.028561801 0.72400004
0.14514707 0.02852235 0.72300005
0.14621222 0.028482899 0.72200006
0.14686534 0.02836455 0.71900004
0.14771394 0.028285651 0.71700001
0.14917886 0.028325099 0.71800005
0.15001871 0.0282462 0.71600002
0.15106282 0.028206749 0.71500003
0.15189038 0.028127849 0.71300006
0.15292573 0.0280884 0.71200001
0.15395758 0.028048949 0.71100003
0.15520419 0.028048949 0.71100003
0.15667085 0.0280884 0.71200001
0.15791923 0.0280884 0.71200001
0.15872049 0.0280095 0.71000004
0.15974006 0.02797005 0.70900005
0.16098318 0.02797005 0.70900005
0.16222629 0.02797005 0.70900005
0.16300827 0.02789115 0.70700002
0.16448019 0.027930601 0.708
0.16525342 0.027851699 0.70600003
0.16601962 0.027772799 0.70400006
0.16725397 0.027772799 0.70400006
0.16848832 0.027772799 0.70400006
0.16899942 0.02765445 0.70100003
0.1702285 0.02765445 0.70100003
0.17145759 0.02765445 0.70100003
0.17244034 0.027615 0.70000005
0.17341956 0.027575551 0.69900006
0.17464516 0.027575551 0.69900006
0.17587073 0.027575551 0.69900006
0.17709631 0.027575551 0.69900006
0.17857701 0.027615 0.70000005
0.17980433 0.027615 0.70000005
0.18103166 0.027615 0.70000005
0.18225899 0.027615 0.70000005
0.18322422 0.027575551 0.69900006
0.18444979 0.027575551 0.69900006
0.18567537 0.027575551 0.69900006
0.18690094 0.027575551 0.69900006
0.18812653 0.027575551 0.69900006
0.18935211 0.027575551 0.69900006
0.19057769 0.027575551 0.69900006
0.19207767 0.027615 0.70000005
0.19302885 0.027575551 0.69900006
0.19425443 0.027575551 0.69900006
0.19575967 0.027615 0.70000005
0.19811264 0.027772799 0.70400006
0.19991331 0.027851699 0.70600003
0.20143609 0.02789115 0.70700002
0.20382237 0.028048949 0.71100003
0.20564583 0.028127849 0.71300006
0.20689596 0.028127849 0.71300006
0.20843802 0.0281673 0.71400005
0.14349455 0.030243246 0.73400003
0.1439925 0.030078433 0.73000002
0.14427741 0.029872416 0.72500002
0.14534782 0.029831214 0.72400004
0.14641473 0.02979001 0.72300005
0.1470696 0.0296664 0.72000003
0.14771394 0.029542791 0.71700001
0.14917886 0.029583992 0.71800005
0.15001871 0.029501587 0.71600002
0.15106282 0.029460384 0.71500003
0.15189038 0.029377976 0.71300006
0.15271094 0.029295569 0.71100003
0.15395758 0.029295569 0.71100003
0.1549859 0.029254366 0.71000004
0.15623076 0.029254366 0.71000004
0.15769742 0.029295569 0.71100003
0.15872049 0.029254366 0.71000004
0.15996537 0.029254366 0.71000004
0.16098318 0.029213164 0.70900005
0.16222629 0.029213164 0.70900005
0.16323884 0.02917196 0.708
0.16448019 0.02917196 0.708
0.16525342 0.029089553 0.70600003
0.16649127 0.029089553 0.70600003
0.16749156 0.02904835 0.70500004
0.16872765 0.02904835 0.70500004
0.16948158 0.028965943 0.70300001
0.17071417 0.028965943 0.70300001
0.17170218 0.028924739 0.70200002
0.17244034 0.028842334 0.70000005
0.17366767 0.028842334 0.70000005
0.174895 0.028842334 0.70000005
0.17612234 0.028842334 0.70000005
0.17734967 0.028842334 0.70000005
0.17857701 0.028842334 0.70000005
0.17980433 0.028842334 0.70000005
0.18103166 0.028842334 0.70000005
0.18225899 0.028842334 0.70000005
0.18322422 0.02880113 0.69900006
0.18444979 0.02880113 0.69900006
0.18567537 0.02880113 0.69900006
0.18690094 0.02880113 0.69900006
0.18839566 0.028842334 0.70000005
0.189623 0.028842334 0.70000005
0.19085033 0.028842334 0.70000005
0.19207767 0.028842334 0.70000005
0.19358115 0.028883537 0.70100003
0.19425443 0.02880113 0.69900006
0.19575967 0.028842334 0.70000005
0.19811264 0.029007146 0.70400006
0.19991331 0.029089553 0.70600003
0.20143609 0.029130757 0.70700002
0.20353571 0.029254366 0.71000004
0.20535742 0.029336773 0.71200001
0.20631561 0.029295569 0.71100003
0.20756222 0.029295569 0.71100003
0.20880885 0.029295569 0.71100003
0.14349455 0.031530194 0.73400003
0.14418975 0.031401321 0.73100001
0.14487442 0.031272452 0.72800004
0.14554858 0.031143583 0.72500002
0.14681976 0.031143583 0.72500002
0.14747812 0.031014713 0.72200006
0.14771394 0.030799929 0.71700001
0.14938663 0.030885844 0.71900004
0.15001871 0.030756973 0.71600002
0.15127409 0.030756973 0.71600002
0.15189038 0.030628104 0.71300006
0.15271094 0.030542189 0.71100003
0.1541741 0.030585146 0.71200001
0.1549859 0.030499233 0.71000004
0.15623076 0.030499233 0.71000004
0.15747564 0.030499233 0.71000004
0.1591676 0.030585146 0.71200001
0.16041598 0.030585146 0.71200001
0.16121024 0.030499233 0.71000004
0.16222629 0.030456277 0.70900005
0.1634694 0.030456277 0.70900005
0.16448019 0.03041332 0.708
0.16525342 0.030327406 0.70600003
0.16649127 0.030327406 0.70600003
0.16749156 0.030284449 0.70500004
0.16872765 0.030284449 0.70500004
0.1692405 0.03015558 0.70200002
0.17071417 0.030198537 0.70300001
0.17170218 0.03015558 0.70200002
0.17268668 0.030112622 0.70100003
0.17391576 0.030112622 0.70100003
0.174895 0.030069666 0.70000005
0.17612234 0.030069666 0.70000005
0.17734967 0.030069666 0.70000005
0.17857701 0.030069666 0.70000005
0.17980433 0.030069666 0.70000005
0.18103166 0.030069666 0.70000005
0.18225899 0.030069666 0.70000005
0.18322422 0.03002671 0.69900006
0.18444979 0.03002671 0.69900006
0.185941 0.030069666 0.70000005
0.18743572 0.030112622 0.70100003
0.18866481 0.030112622 0.70100003
0.18989389 0.030112622 0.70100003
0.19112298 0.030112622 0.70100003
0.19262646 0.03015558 0.70200002
0.1938573 0.03015558 0.70200002
0.19536604 0.030198537 0.70300001
0.19659863 0.030198537 0.70300001
0.19811264 0.030241493 0.70400006
0.19991331 0.030327406 0.70600003
0.20143609 0.030370364 0.70700002
0.20382237 0.030542189 0.71100003
0.20506899 0.030542189 0.71100003
0.20689596 0.030628104 0.71300006
0.20756222 0.030542189 0.71100003
0.20880885 0.030542189 0.71100003
0.14438699 0.032727718 0.73200005
0.14507343 0.032593589 0.72900003
0.14574935 0.03245946 0.72600001
0.14681976 0.032414749 0.72500002
0.14727387 0.032235909 0.72100002
0.14771394 0.032057069 0.71700001
0.14938663 0.032146491 0.71900004
0.15001871 0.032012358 0.71600002
0.15127409 0.032012358 0.71600002
0.15189038 0.031878229 0.71300006
0.15271094 0.031788811 0.71100003
0.15395758 0.031788811 0.71100003
0.1549859 0.0317441 0.71000004
0.15623076 0.0317441 0.71000004
0.15725383 0.031699389 0.70900005
0.15872049 0.0317441 0.71000004
0.16019067 0.031788811 0.71100003
0.16121024 0.0317441 0.71000004
0.16222629 0.031699389 0.70900005
0.16323884 0.031654678 0.708
0.16424789 0.031609971 0.70700002
0.16501935 0.031520549 0.70500004
0.16625544 0.031520549 0.70500004
0.16725397 0.031475838 0.70400006
0.16848832 0.031475838 0.70400006
0.16972266 0.031475838 0.70400006
0.17047134 0.03138642 0.70200002
0.17194676 0.031431131 0.70300001
0.17268668 0.031341709 0.70100003
0.17391576 0.031341709 0.70100003
0.17514485 0.031341709 0.70100003
0.17637393 0.031341709 0.70100003
0.17734967 0.031296998 0.70000005
0.17857701 0.031296998 0.70000005
0.17980433 0.031296998 0.70000005
0.18103166 0.031296998 0.70000005
0.18225899 0.031296998 0.70000005
0.18322422 0.031252291 0.69900006
0.18444979 0.031252291 0.69900006
0.185941 0.031296998 0.70000005
0.18743572 0.031341709 0.70100003
0.18866481 0.031341709 0.70100003
0.18989389 0.031341709 0.70100003
0.19166826 0.031431131 0.70300001
0.19262646 0.03138642 0.70200002
0.19413345 0.031431131 0.70300001
0.19536604 0.031431131 0.70300001
0.19659863 0.031431131 0.70300001
0.19811264 0.031475838 0.70400006
0.19963016 0.031520549 0.70500004
0.20143609 0.031609971 0.70700002
0.20382237 0.031788811 0.71100003
0.20506899 0.031788811 0.71100003
0.20689596 0.031878229 0.71300006
0.20785415 0.031833518 0.71200001
0.20910253 0.031833518 0.71200001
0.14438699 0.034011159 0.73200005
0.14507343 0.03387177 0.72900003
0.14574935 0.033732381 0.72600001
0.14681976 0.033685915 0.72500002
0.14727387 0.033500064 0.72100002
0.148332 0.033453599 0.72000003
0.14938663 0.033407137 0.71900004
0.15043776 0.033360675 0.71800005
0.15127409 0.033267748 0.71600002
0.15231645 0.033221282 0.71500003
0.15271094 0.033035431 0.71100003
0.1535245 0.032942504 0.70900005
0.1547676 0.032942504 0.70900005
0.15601072 0.032942504 0.70900005
0.15725383 0.032942504 0.70900005
0.1582734 0.032896038 0.708
0.16019067 0.033035431 0.71100003
0.16121024 0.032988966 0.71000004
0.16222629 0.032942504 0.70900005
0.1634694 0.032942504 0.70900005
0.16448019 0.032896038 0.708
0.16525342 0.032803115 0.70600003
0.16625544 0.032756649 0.70500004
0.16749156 0.032756649 0.70500004
0.16872765 0.032756649 0.70500004
0.16972266 0.032710187 0.70400006
0.17119984 0.032756649 0.70500004
0.17243595 0.032756649 0.70500004
0.17317936 0.032663722 0.70300001
0.17416386 0.03261726 0.70200002
0.174895 0.032524332 0.70000005
0.17612234 0.032524332 0.70000005
0.17734967 0.032524332 0.70000005
0.17832188 0.032477871 0.69900006
0.17954747 0.032477871 0.69900006
0.18103166 0.032524332 0.70000005
0.18225899 0.032524332 0.70000005
0.18322422 0.032477871 0.69900006
0.18444979 0.032477871 0.69900006
0.185941 0.032524332 0.70000005
0.18743572 0.032570798 0.70100003
0.18866481 0.032570798 0.70100003
0.18989389 0.032570798 0.70100003
0.19166826 0.032663722 0.70300001
0.19262646 0.03261726 0.70200002
0.19413345 0.032663722 0.70300001
0.19536604 0.032663722 0.70300001
0.19659863 0.032663722 0.70300001
0.19839405 0.032756649 0.70500004
0.19991331 0.032803115 0.70600003
0.20143609 0.032849576 0.70700002
0.20382237 0.033035431 0.71100003
0.20593426 0.03317482 0.71400005
0.20660579 0.033081893 0.71200001
0.20785415 0.033081893 0.71200001
0.20910253 0.033081893 0.71200001
0.14497875 0.035439249 0.73500001
0.14567044 0.0352946 0.73200005
0.14615086 0.035101734 0.72800004
0.14702226 0.035005301 0.72600001
0.14768238 0.034860648 0.72300005
0.14895006 0.034860648 0.72300005
0.1495944 0.034715999 0.72000003
0.15043776 0.034619566 0.71800005
0.15127409 0.034523133 0.71600002
0.15231645 0.034474917 0.71500003
0.1533553 0.0344267 0.71400005
0.15374103 0.034233835 0.71000004
0.1549859 0.034233835 0.71000004
0.15623076 0.034233835 0.71000004
0.15747564 0.034233835 0.71000004
0.15849695 0.034185618 0.70900005
0.16041598 0.034330267 0.71200001
0.16121024 0.034233835 0.71000004
0.1624551 0.034233835 0.71000004
0.1634694 0.034185618 0.70900005
0.16448019 0.034137398 0.708
0.16525342 0.034040965 0.70600003
0.16625544 0.033992749 0.70500004
0.16749156 0.033992749 0.70500004
0.16872765 0.033992749 0.70500004
0.16972266 0.033944532 0.70400006
0.17047134 0.033848099 0.70200002
0.17170218 0.033848099 0.70200002
0.17293301 0.033848099 0.70200002
0.17366767 0.033751667 0.70000005
0.174895 0.033751667 0.70000005
0.17587073 0.03370345 0.69900006
0.17709631 0.03370345 0.69900006
0.17832188 0.03370345 0.69900006
0.17954747 0.03370345 0.69900006
0.18077305 0.03370345 0.69900006
0.18199863 0.03370345 0.69900006
0.18322422 0.03370345 0.69900006
0.18444979 0.03370345 0.69900006
0.18620662 0.033799883 0.70100003
0.18743572 0.033799883 0.70100003
0.18893394 0.033848099 0.70200002
0.19016477 0.033848099 0.70200002
0.19166826 0.033896316 0.70300001
0.19262646 0.033848099 0.70200002
0.1938573 0.033848099 0.70200002
0.19536604 0.033896316 0.70300001
0.19659863 0.033896316 0.70300001
0.19839405 0.033992749 0.70500004
0.19991331 0.034040965 0.70600003
0.201721 0.034137398 0.708
0.20410904 0.034330267 0.71200001
0.20593426 0.0344267 0.71400005
0.20718613 0.0344267 0.71400005
0.20872995 0.034474917 0.71500003
0.20880885 0.034282051 0.71100003
0.1447815 0.036677979 0.73400003
0.14567044 0.036578041 0.73200005
0.14635161 0.036428131 0.72900003
0.14702226 0.036278218 0.72600001
0.14809091 0.036228251 0.72500002
0.14895006 0.036128309 0.72300005
0.1495944 0.035978399 0.72000003
0.15043776 0.035878461 0.71800005
0.15127409 0.035778519 0.71600002
0.15231645 0.035728551 0.71500003
0.1533553 0.03567858 0.71400005
0.15395758 0.035528671 0.71100003
0.1549859 0.0354787 0.71000004
0.15623076 0.0354787 0.71000004
0.15747564 0.0354787 0.71000004
0.15849695 0.035428729 0.70900005
0.16041598 0.035578638 0.71200001
0.16121024 0.0354787 0.71000004
0.1624551 0.0354787 0.71000004
0.1634694 0.035428729 0.70900005
0.16448019 0.035378762 0.708
0.16525342 0.03527882 0.70600003
0.16649127 0.03527882 0.70600003
0.16749156 0.035228848 0.70500004
0.16848832 0.035178881 0.70400006
0.16972266 0.035178881 0.70400006
0.17047134 0.035078939 0.70200002
0.17170218 0.035078939 0.70200002
0.17293301 0.035078939 0.70200002
0.17366767 0.034979001 0.70000005
0.174895 0.034979001 0.70000005
0.17612234 0.034979001 0.70000005
0.17709631 0.03492903 0.69900006
0.17832188 0.03492903 0.69900006
0.17954747 0.03492903 0.69900006
0.18077305 0.03492903 0.69900006
0.18199863 0.03492903 0.69900006
0.18322422 0.03492903 0.69900006
0.18444979 0.03492903 0.69900006
0.18620662 0.035028968 0.70100003
0.18716833 0.034979001 0.70000005
0.18866481 0.035028968 0.70100003
0.18989389 0.035028968 0.70100003
0.19139563 0.035078939 0.70200002
0.19262646 0.035078939 0.70200002
0.1938573 0.035078939 0.70200002
0.19536604 0.03512891 0.70300001
0.19659863 0.03512891 0.70300001
0.19811264 0.035178881 0.70400006
0.19991331 0.03527882 0.70600003
0.201721 0.035378762 0.708
0.20382237 0.035528671 0.71100003
0.20593426 0.03567858 0.71400005
0.20718613 0.03567858 0.71400005
0.20872995 0.035728551 0.71500003
0.2096899 0.03567858 0.71400005
0.14408104 0.038120095 0.73700005
0.1447815 0.037964925 0.73400003
0.14567044 0.037861481 0.73200005
0.14635161 0.037706308 0.72900003
0.14722477 0.037602864 0.72700006
0.14849944 0.037602864 0.72700006
0.1495681 0.037551139 0.72600001
0.15042548 0.037447695 0.72400004
0.15064728 0.037189078 0.71900004
0.15190792 0.037189078 0.71900004
0.15231645 0.036982182 0.71500003
0.1533553 0.03693046 0.71400005
0.15439065 0.036878735 0.71300006
0.1549859 0.036723565 0.71000004
0.15623076 0.036723565 0.71000004
0.15703204 0.036620121 0.708
0.15894406 0.036775291 0.71100003
0.16019067 0.036775291 0.71100003
0.16121024 0.036723565 0.71000004
0.1624551 0.036723565 0.71000004
0.1634694 0.036671843 0.70900005
0.16471252 0.036671843 0.70900005
0.16525342 0.036516674 0.70600003
0.16649127 0.036516674 0.70600003
0.16772912 0.036516674 0.70600003
0.16872765 0.036464948 0.70500004
0.16996375 0.036464948 0.70500004
0.17071417 0.036361504 0.70300001
0.17194676 0.036361504 0.70300001
0.17244034 0.036206335 0.70000005
0.17366767 0.036206335 0.70000005
0.174895 0.036206335 0.70000005
0.17612234 0.036206335 0.70000005
0.17734967 0.036206335 0.70000005
0.17832188 0.036154609 0.69900006
0.17954747 0.036154609 0.69900006
0.18077305 0.036154609 0.69900006
0.18199863 0.036154609 0.69900006
0.18322422 0.036154609 0.69900006
0.18418591 0.036102887 0.69800001
0.18540974 0.036102887 0.69800001
0.18663357 0.036102887 0.69800001
0.18839566 0.036206335 0.70000005
0.189623 0.036206335 0.70000005
0.19112298 0.036258057 0.70100003
0.19262646 0.036309779 0.70200002
0.19413345 0.036361504 0.70300001
0.19536604 0.036361504 0.70300001
0.19659863 0.036361504 0.70300001
0.19811264 0.036413226 0.70400006
0.20019647 0.036568396 0.70700002
0.20200592 0.036671843 0.70900005
0.20439571 0.036878735 0.71300006
0.20593426 0.03693046 0.71400005
0.20718613 0.03693046 0.71400005
0.20872995 0.036982182 0.71500003
0.20998359 0.036982182 0.71500003
0.14349455 0.039251871 0.73400003
0.1447815 0.039251871 0.73400003
0.14567044 0.039144918 0.73200005
0.14635161 0.038984489 0.72900003
0.14722477 0.038877536 0.72700006
0.14849944 0.038877536 0.72700006
0.1495681 0.038824059 0.72600001
0.15042548 0.038717106 0.72400004
0.15148537 0.038663629 0.72300005
0.1521192 0.0385032 0.72000003
0.15274251 0.03834277 0.71700001
0.15378487 0.038289294 0.71600002
0.15460718 0.038182341 0.71400005
0.1549859 0.037968434 0.71000004
0.15623076 0.037968434 0.71000004
0.15725383 0.037914958 0.70900005
0.15872049 0.037968434 0.71000004
0.15996537 0.037968434 0.71000004
0.16075613 0.037861481 0.708
0.16222629 0.037914958 0.70900005
0.1634694 0.037914958 0.70900005
0.16448019 0.037861481 0.708
0.16501935 0.037701048 0.70500004
0.16649127 0.037754528 0.70600003
0.16772912 0.037754528 0.70600003
0.16872765 0.037701048 0.70500004
0.16996375 0.037701048 0.70500004
0.17119984 0.037701048 0.70500004
0.17243595 0.037701048 0.70500004
0.17317936 0.037594095 0.70300001
0.17441195 0.037594095 0.70300001
0.17514485 0.037487142 0.70100003
0.17612234 0.037433665 0.70000005
0.17734967 0.037433665 0.70000005
0.17832188 0.037380189 0.69900006
0.17954747 0.037380189 0.69900006
0.18077305 0.037380189 0.69900006
0.18199863 0.037380189 0.69900006
0.18322422 0.037380189 0.69900006
0.18418591 0.037326712 0.69800001
0.18540974 0.037326712 0.69800001
0.18663357 0.037326712 0.69800001
0.18839566 0.037433665 0.70000005
0.189623 0.037433665 0.70000005
0.19112298 0.037487142 0.70100003
0.19262646 0.037540618 0.70200002
0.19413345 0.037594095 0.70300001
0.19536604 0.037594095 0.70300001
0.19659863 0.037594095 0.70300001
0.19783123 0.037594095 0.70300001
0.20019647 0.037808005 0.70700002
0.20200592 0.037914958 0.70900005
0.20439571 0.038128864 0.71300006
0.20593426 0.038182341 0.71400005
0.20718613 0.038182341 0.71400005
0.20872995 0.038235817 0.71500003
0.14349455 0.040538821 0.73400003
0.1447815 0.040538821 0.73400003
0.14567044 0.040428359 0.73200005
0.14675312 0.040373128 0.73100001
0.14742728 0.040207438 0.72800004
0.14849944 0.040152211 0.72700006
0.1495681 0.04009698 0.72600001
0.15042548 0.039986521 0.72400004
0.15148537 0.03993129 0.72300005
0.1521192 0.0397656 0.72000003
0.15274251 0.03959991 0.71700001
0.15378487 0.039544679 0.71600002
0.15460718 0.039434221 0.71400005
0.1549859 0.0392133 0.71000004
0.15623076 0.0392133 0.71000004
0.15725383 0.039158069 0.70900005
0.15894406 0.039268531 0.71100003
0.16019067 0.039268531 0.71100003
0.16075613 0.039102841 0.708
0.16199748 0.039102841 0.708
0.16323884 0.039102841 0.708
0.16424789 0.03904761 0.70700002
0.16501935 0.038937151 0.70500004
0.16625544 0.038937151 0.70500004
0.16749156 0.038937151 0.70500004
0.16872765 0.038937151 0.70500004
0.16996375 0.038937151 0.70500004
0.17119984 0.038937151 0.70500004
0.17219135 0.03888192 0.70400006
0.17317936 0.038826689 0.70300001
0.17441195 0.038826689 0.70300001
0.17514485 0.038716231 0.70100003
0.17612234 0.038660999 0.70000005
0.17734967 0.038660999 0.70000005
0.17857701 0.038660999 0.70000005
0.17980433 0.038660999 0.70000005
0.18077305 0.038605768 0.69900006
0.18199863 0.038605768 0.69900006
0.18322422 0.038605768 0.69900006
0.18471366 0.038660999 0.70000005
0.18567537 0.038605768 0.69900006
0.18743572 0.038716231 0.70100003
0.18866481 0.038716231 0.70100003
0.18989389 0.038716231 0.70100003
0.19112298 0.038716231 0.70100003
0.19262646 0.038771458 0.70200002
0.19413345 0.038826689 0.70300001
0.19536604 0.038826689 0.70300001
0.19659863 0.038826689 0.70300001
0.19783123 0.038826689 0.70300001
0.19991331 0.038992379 0.70600003
0.20200592 0.039158069 0.70900005
0.20439571 0.039378989 0.71300006
0.20564583 0.039378989 0.71300006
0.20718613 0.039434221 0.71400005
0.20872995 0.039489448 0.71500003
0.14329906 0.041768782 0.73300004
0.14458425 0.041768782 0.73300004
0.14547144 0.041654818 0.73100001
0.14635161 0.04154085 0.72900003
0.14702226 0.0413699 0.72600001
0.14788665 0.041255932 0.72400004
0.14936209 0.041312918 0.72500002
0.15042548 0.041255932 0.72400004
0.15148537 0.04119895 0.72300005
0.1521192 0.041028 0.72000003
0.15274251 0.040857051 0.71700001
0.15378487 0.040800065 0.71600002
0.15482372 0.040743083 0.71500003
0.15520419 0.040515151 0.71100003
0.15623076 0.040458165 0.71000004
0.15725383 0.040401183 0.70900005
0.15894406 0.040515151 0.71100003
0.16019067 0.040515151 0.71100003
0.16075613 0.040344201 0.708
0.16222629 0.040401183 0.70900005
0.16323884 0.040344201 0.708
0.16424789 0.040287215 0.70700002
0.16548748 0.040287215 0.70700002
0.16625544 0.040173251 0.70500004
0.16749156 0.040173251 0.70500004
0.16848832 0.040116265 0.70400006
0.16972266 0.040116265 0.70400006
0.17047134 0.040002301 0.70200002
0.17170218 0.040002301 0.70200002
0.17268668 0.039945316 0.70100003
0.17391576 0.039945316 0.70100003
0.17514485 0.039945316 0.70100003
0.17612234 0.039888334 0.70000005
0.17734967 0.039888334 0.70000005
0.17857701 0.039888334 0.70000005
0.17980433 0.039888334 0.70000005
0.18077305 0.039831351 0.69900006
0.18199863 0.039831351 0.69900006
0.18348633 0.039888334 0.70000005
0.18471366 0.039888334 0.70000005
0.18567537 0.039831351 0.69900006
0.18743572 0.039945316 0.70100003
0.18839566 0.039888334 0.70000005
0.18989389 0.039945316 0.70100003
0.19112298 0.039945316 0.70100003
0.19262646 0.040002301 0.70200002
0.1938573 0.040002301 0.70200002
0.19536604 0.040059283 0.70300001
0.19715795 0.040173251 0.70500004
0.19839405 0.040173251 0.70500004
0.20019647 0.040287215 0.70700002
0.20229083 0.040458165 0.71000004
0.20439571 0.040629115 0.71300006
0.20564583 0.040629115 0.71300006
0.20718613 0.040686101 0.71400005
0.20872995 0.040743083 0.71500003
0.14329906 0.043053977 0.73300004
0.14438699 0.042995241 0.73200005
0.14527243 0.042877767 0.73000002
0.14615086 0.042760294 0.72800004
0.14681976 0.042584084 0.72500002
0.14768238 0.042466611 0.72300005
0.14895006 0.042466611 0.72300005
0.15000995 0.042407874 0.72200006
0.15106632 0.042349137 0.72100002
0.1521192 0.042290401 0.72000003
0.15274251 0.042114191 0.71700001
0.15378487 0.042055454 0.71600002
0.15504025 0.042055454 0.71600002
0.15564077 0.041879244 0.71300006
0.1568909 0.041879244 0.71300006
0.15791923 0.041820507 0.71200001
0.1591676 0.041820507 0.71200001
0.16041598 0.041820507 0.71200001
0.16121024 0.041703034 0.71000004
0.1624551 0.041703034 0.71000004
0.1634694 0.041644298 0.70900005
0.16471252 0.041644298 0.70900005
0.16548748 0.041526824 0.70700002
0.16625544 0.041409351 0.70500004
0.16749156 0.041409351 0.70500004
0.16848832 0.041350614 0.70400006
0.16972266 0.041350614 0.70400006
0.17047134 0.041233141 0.70200002
0.17145759 0.041174404 0.70100003
0.17244034 0.041115668 0.70000005
0.17366767 0.041115668 0.70000005
0.174895 0.041115668 0.70000005
0.17612234 0.041115668 0.70000005
0.17734967 0.041115668 0.70000005
0.17883211 0.041174404 0.70100003
0.17980433 0.041115668 0.70000005
0.18103166 0.041115668 0.70000005
0.18225899 0.041115668 0.70000005
0.18348633 0.041115668 0.70000005
0.18471366 0.041115668 0.70000005
0.18647225 0.041233141 0.70200002
0.18743572 0.041174404 0.70100003
0.18866481 0.041174404 0.70100003
0.18989389 0.041174404 0.70100003
0.19085033 0.041115668 0.70000005
0.19262646 0.041233141 0.70200002
0.1938573 0.041233141 0.70200002
0.19536604 0.041291878 0.70300001
0.19715795 0.041409351 0.70500004
0.19839405 0.041409351 0.70500004
0.20047964 0.041585561 0.708
0.20257574 0.041761771 0.71100003
0.20468238 0.041937981 0.71400005
0.20593426 0.041937981 0.71400005
0.20718613 0.041937981 0.71400005
0.20843802 0.041937981 0.71400005
0.2096899 0.041937981 0.71400005
0.1425951 0.044520639 0.73600006
0.14329906 0.044339169 0.73300004
0.14438699 0.044278681 0.73200005
0.14527243 0.044157699 0.73000002
0.14635161 0.044097211 0.72900003
0.14722477 0.043976229 0.72700006
0.14768238 0.043734271 0.72300005
0.14895006 0.043734271 0.72300005
0.15000995 0.04367378 0.72200006
0.15106632 0.043613289 0.72100002
0.1521192 0.043552801 0.72000003
0.15274251 0.043371331 0.71700001
0.15378487 0.04331084 0.71600002
0.15504025 0.04331084 0.71600002
0.15564077 0.04312937 0.71300006
0.1568909 0.04312937 0.71300006
0.15791923 0.043068878 0.71200001
0.1591676 0.043068878 0.71200001
0.16041598 0.043068878 0.71200001
0.16121024 0.0429479 0.71000004
0.16222629 0.042887408 0.70900005
0.1634694 0.042887408 0.70900005
0.16448019 0.042826921 0.708
0.16548748 0.042766429 0.70700002
0.16601962 0.042584959 0.70400006
0.16725397 0.042584959 0.70400006
0.168249 0.042524468 0.70300001
0.16972266 0.042584959 0.70400006
0.17047134 0.042463981 0.70200002
0.17145759 0.042403489 0.70100003
0.17244034 0.042342998 0.70000005
0.17366767 0.042342998 0.70000005
0.174895 0.042342998 0.70000005
0.17612234 0.042342998 0.70000005
0.17734967 0.042342998 0.70000005
0.17857701 0.042342998 0.70000005
0.17980433 0.042342998 0.70000005
0.18103166 0.042342998 0.70000005
0.18225899 0.042342998 0.70000005
0.18348633 0.042342998 0.70000005
0.18471366 0.042342998 0.70000005
0.18647225 0.042463981 0.70200002
0.18743572 0.042403489 0.70100003
0.18866481 0.042403489 0.70100003
0.19016477 0.042463981 0.70200002
0.19085033 0.042342998 0.70000005
0.19262646 0.042463981 0.70200002
0.19413345 0.042524468 0.70300001
0.19536604 0.042524468 0.70300001
0.19715795 0.042645451 0.70500004
0.19839405 0.042645451 0.70500004
0.20047964 0.042826921 0.708
0.20257574 0.043008391 0.71100003
0.20468238 0.043189861 0.71400005
0.20564583 0.04312937 0.71300006
0.20689596 0.04312937 0.71300006
0.20843802 0.043189861 0.71400005
0.20910253 0.043068878 0.71200001
0.1425951 0.045811094 0.73600006
0.14329906 0.045624364 0.73300004
0.14438699 0.045562118 0.73200005
0.14527243 0.045437634 0.73000002
0.14655237 0.045437634 0.73000002
0.14722477 0.045250904 0.72700006
0.14768238 0.045001931 0.72300005
0.14895006 0.045001931 0.72300005
0.15000995 0.044939686 0.72200006
0.15106632 0.044877443 0.72100002
0.1521192 0.044815201 0.72000003
0.15274251 0.044628471 0.71700001
0.15378487 0.044566225 0.71600002
0.15460718 0.044441741 0.71400005
0.15564077 0.044379495 0.71300006
0.1568909 0.044379495 0.71300006
0.15791923 0.044317253 0.71200001
0.1591676 0.044317253 0.71200001
0.16041598 0.044317253 0.71200001
0.16143729 0.044255011 0.71100003
0.16222629 0.044130523 0.70900005
0.1634694 0.044130523 0.70900005
0.16424789 0.044006035 0.70700002
0.16525342 0.043943793 0.70600003
0.16601962 0.043819305 0.70400006
0.16725397 0.043819305 0.70400006
0.168249 0.043757062 0.70300001
0.16948158 0.043757062 0.70300001
0.17071417 0.043757062 0.70300001
0.17194676 0.043757062 0.70300001
0.17317936 0.043757062 0.70300001
0.17441195 0.043757062 0.70300001
0.1753947 0.04369482 0.70200002
0.17612234 0.043570332 0.70000005
0.17734967 0.043570332 0.70000005
0.17857701 0.043570332 0.70000005
0.17980433 0.043570332 0.70000005
0.18103166 0.043570332 0.70000005
0.18225899 0.043570332 0.70000005
0.18348633 0.043570332 0.70000005
0.18471366 0.043570332 0.70000005
0.18647225 0.04369482 0.70200002
0.1877031 0.04369482 0.70200002
0.18866481 0.043632578 0.70100003
0.19016477 0.04369482 0.70200002
0.19112298 0.043632578 0.70100003
0.19317526 0.043819305 0.70400006
0.19440959 0.043819305 0.70400006
0.19564395 0.043819305 0.70400006
0.1974376 0.043943793 0.70600003
0.19895686 0.044006035 0.70700002
0.20047964 0.044068281 0.708
0.20257574 0.044255011 0.71100003
0.20439571 0.044379495 0.71300006
0.20564583 0.044379495 0.71300006
0.20689596 0.044379495 0.71300006
0.2081461 0.044379495 0.71300006
0.20910253 0.044317253 0.71200001
0.1425951 0.047101546 0.73600006
0.14329906 0.046909556 0.73300004
0.14438699 0.046845559 0.73200005
0.14527243 0.046717566 0.73000002
0.14615086 0.046589572 0.72800004
0.14681976 0.046397582 0.72500002
0.14788665 0.046333585 0.72400004
0.14895006 0.046269588 0.72300005
0.15021771 0.046269588 0.72300005
0.15148537 0.046269588 0.72300005
0.1521192 0.046077598 0.72000003
0.15274251 0.045885611 0.71700001
0.15378487 0.045821615 0.71600002
0.15460718 0.045693621 0.71400005
0.15564077 0.045629624 0.71300006
0.1568909 0.045629624 0.71300006
0.15814102 0.045629624 0.71300006
0.15894406 0.045501631 0.71100003
0.15996537 0.045437634 0.71000004
0.16098318 0.045373637 0.70900005
0.16199748 0.04530964 0.708
0.16277771 0.045181647 0.70600003
0.16378325 0.04511765 0.70500004
0.16501935 0.04511765 0.70500004
0.16578381 0.044989657 0.70300001
0.16725397 0.045053653 0.70400006
0.16848832 0.045053653 0.70400006
0.16948158 0.044989657 0.70300001
0.17071417 0.044989657 0.70300001
0.17170218 0.04492566 0.70200002
0.1734257 0.045053653 0.70400006
0.17490815 0.04511765 0.70500004
0.17564455 0.044989657 0.70300001
0.17662553 0.04492566 0.70200002
0.17734967 0.044797666 0.70000005
0.17857701 0.044797666 0.70000005
0.18031806 0.04492566 0.70200002
0.18154889 0.04492566 0.70200002
0.18277974 0.04492566 0.70200002
0.18401058 0.04492566 0.70200002
0.18524142 0.04492566 0.70200002
0.18647225 0.04492566 0.70200002
0.18797049 0.044989657 0.70300001
0.18893394 0.04492566 0.70200002
0.19016477 0.04492566 0.70200002
0.19112298 0.044861663 0.70100003
0.19317526 0.045053653 0.70400006
0.19440959 0.045053653 0.70400006
0.19564395 0.045053653 0.70400006
0.1974376 0.045181647 0.70600003
0.19923829 0.04530964 0.708
0.20104596 0.045437634 0.71000004
0.20257574 0.045501631 0.71100003
0.20439571 0.045629624 0.71300006
0.20564583 0.045629624 0.71300006
0.20660579 0.045565628 0.71200001
0.2081461 0.045629624 0.71300006
0.2096899 0.045693621 0.71400005
0.1425951 0.048392002 0.73600006
0.14329906 0.048194751 0.73300004
0.14438699 0.048129 0.73200005
0.14527243 0.047997501 0.73000002
0.14615086 0.047865998 0.72800004
0.14681976 0.047668751 0.72500002
0.14768238 0.047537249 0.72300005
0.14874403 0.047471501 0.72200006
0.15000995 0.047471501 0.72200006
0.15106632 0.04740575 0.72100002
0.1521192 0.047339998 0.72000003
0.15316857 0.047274251 0.71900004
0.15378487 0.047077 0.71600002
0.15439065 0.04687975 0.71300006
0.15542248 0.046813998 0.71200001
0.1568909 0.04687975 0.71300006
0.15814102 0.04687975 0.71300006
0.15894406 0.046748251 0.71100003
0.15996537 0.046682499 0.71000004
0.16121024 0.046682499 0.71000004
0.16199748 0.046551 0.708
0.16254716 0.04635375 0.70500004
0.16355093 0.046287999 0.70400006
0.16478528 0.046287999 0.70400006
0.16554798 0.0461565 0.70200002
0.16677882 0.0461565 0.70200002
0.168249 0.046222251 0.70300001
0.16972266 0.046287999 0.70400006
0.17071417 0.046222251 0.70300001
0.17170218 0.0461565 0.70200002
0.17317936 0.046222251 0.70300001
0.17441195 0.046222251 0.70300001
0.17564455 0.046222251 0.70300001
0.17687714 0.046222251 0.70300001
0.17785639 0.0461565 0.70200002
0.17908722 0.0461565 0.70200002
0.18031806 0.0461565 0.70200002
0.18154889 0.0461565 0.70200002
0.18277974 0.0461565 0.70200002
0.18401058 0.0461565 0.70200002
0.18524142 0.0461565 0.70200002
0.18647225 0.0461565 0.70200002
0.18797049 0.046222251 0.70300001
0.18893394 0.0461565 0.70200002
0.19016477 0.0461565 0.70200002
0.19112298 0.046090748 0.70100003
0.19235206 0.046090748 0.70100003
0.19358115 0.046090748 0.70100003
0.19508813 0.0461565 0.70200002
0.1968783 0.046287999 0.70400006
0.19895686 0.046485249 0.70700002
0.20104596 0.046682499 0.71000004
0.20257574 0.046748251 0.71100003
0.20439571 0.04687975 0.71300006
0.20564583 0.04687975 0.71300006
0.20689596 0.04687975 0.71300006
0.2081461 0.04687975 0.71300006
0.20939621 0.04687975 0.71300006
0.14298257 0.049817462 0.73800004
0.14369005 0.049614951 0.73500001
0.14438699 0.049412441 0.73200005
0.14567044 0.049412441 0.73200005
0.14615086 0.049142428 0.72800004
0.14641473 0.048804909 0.72300005
0.14747812 0.048737407 0.72200006
0.14874403 0.048737407 0.72200006
0.15000995 0.048737407 0.72200006
0.15106632 0.048669904 0.72100002
0.1521192 0.048602398 0.72000003
0.15316857 0.048534896 0.71900004
0.15357009 0.048264883 0.71500003
0.15460718 0.048197381 0.71400005
0.15542248 0.048062373 0.71200001
0.15667085 0.048062373 0.71200001
0.15814102 0.048129875 0.71300006
0.15939115 0.048129875 0.71300006
0.15996537 0.047927365 0.71000004
0.16098318 0.047859862 0.70900005
0.16131105 0.04758985 0.70500004
0.16254716 0.04758985 0.70500004
0.16378325 0.04758985 0.70500004
0.16478528 0.047522347 0.70400006
0.16601962 0.047522347 0.70400006
0.16677882 0.047387339 0.70200002
0.168249 0.047454841 0.70300001
0.16972266 0.047522347 0.70400006
0.17071417 0.047454841 0.70300001
0.17170218 0.047387339 0.70200002
0.17293301 0.047387339 0.70200002
0.17416386 0.047387339 0.70200002
0.1753947 0.047387339 0.70200002
0.17662553 0.047387339 0.70200002
0.17785639 0.047387339 0.70200002
0.17908722 0.047387339 0.70200002
0.18031806 0.047387339 0.70200002
0.18154889 0.047387339 0.70200002
0.18277974 0.047387339 0.70200002
0.18427271 0.047454841 0.70300001
0.1855053 0.047454841 0.70300001
